ply
format ascii 1.0
comment Created by Open3D
element vertex 642
property float32 x
property float32 y
property float32 z
property float32 red
property float32 green
property float32 blue
property float32 volume
property uint8 segmentation
end_header
-0.00364585 0.00516614 0.0603707 0.735683 0.215906 0.330245 2.75785e-06 2
-0.00358443 0.00225839 0.0569284 0.735683 0.215906 0.330245 7.15636e-07 2
-0.00615305 0.00169029 0.0600317 0.735683 0.215906 0.330245 1.39173e-06 2
-0.00384393 0.00519369 0.0590215 0.735683 0.215906 0.330245 2.75785e-06 2
-0.00133579 0.00431941 0.0597541 0.735683 0.215906 0.330245 7.28045e-07 2
-0.00472363 -0.0021707 0.0654077 0.735683 0.215906 0.330245 6.8481e-06 2
-0.00621017 0.00164201 0.0563063 0.735683 0.215906 0.330245 2.09139e-06 2
-0.0051767 0.00315985 0.0610876 0.735683 0.215906 0.330245 2.65273e-06 2
-0.00835744 0.00066435 0.0615098 0.735683 0.215906 0.330245 4.17239e-06 2
-0.00580401 0.00674632 0.0544389 0.735683 0.215906 0.330245 5.71413e-06 2
-0.000770447 -3.13397e-05 0.0568364 0.735683 0.215906 0.330245 6.23748e-07 2
-0.00153786 0.00412234 0.0604384 0.735683 0.215906 0.330245 4.85363e-07 2
-0.00462715 0.00748774 0.0581717 0.735683 0.215906 0.330245 6.32051e-06 2
-0.00535127 0.0037555 0.0576262 0.735683 0.215906 0.330245 1.33482e-06 2
-0.00031115 0.00208569 0.0604797 0.735683 0.215906 0.330245 4.75076e-08 2
-0.00328545 -0.000418023 0.0615433 0.735683 0.215906 0.330245 3.01442e-06 2
-0.00223848 0.00601045 0.0617697 0.735683 0.215906 0.330245 4.98697e-07 2
-0.00751316 0.00788476 0.0557139 0.735683 0.215906 0.330245 1.19852e-06 2
-0.00408449 4.35112e-05 0.0563931 0.735683 0.215906 0.330245 2.12517e-06 2
-0.00753443 0.000412207 0.0661081 0.735683 0.215906 0.330245 5.07159e-06 2
-0.00722181 0.00200269 0.0684289 0.735683 0.215906 0.330245 1.49956e-07 2
-0.00740404 0.00669442 0.0653877 0.735683 0.215906 0.330245 1.01325e-06 2
-0.00729041 0.0020083 0.0670812 0.735683 0.215906 0.330245 4.91841e-06 2
-0.000440137 0.000162833 0.0629655 0.735683 0.215906 0.330245 4.77394e-07 2
-0.00300045 0.000923118 0.0635373 0.735683 0.215906 0.330245 4.78766e-06 2
-0.0015829 0.00715956 0.0614967 0.735683 0.215906 0.330245 1.85771e-06 2
-0.0055798 0.00560649 0.0635192 0.735683 0.215906 0.330245 8.31255e-06 2
-0.00503174 0.00253646 0.0649621 0.735683 0.215906 0.330245 2.72782e-06 2
-0.00202364 0.00920888 0.0613388 0.735683 0.215906 0.330245 7.09799e-07 2
-0.00340987 0.00166274 0.0603898 0.735683 0.215906 0.330245 8.12308e-07 2
-0.00541124 -0.00343116 0.0609818 0.735683 0.215906 0.330245 3.22718e-06 2
-0.00434646 0.00705425 0.061702 0.735683 0.215906 0.330245 2.85957e-06 2
-0.00713707 0.00373001 0.0635387 0.735683 0.215906 0.330245 5.67936e-06 2
-0.00598833 -0.00141324 0.0611917 0.735683 0.215906 0.330245 2.71378e-06 2
-0.00791988 0.0031874 0.0607296 0.735683 0.215906 0.330245 4.60865e-06 2
-0.00789636 0.0037555 0.0586174 0.735683 0.215906 0.330245 5.20246e-06 2
-0.0087034 -0.000356274 0.060482 0.735683 0.215906 0.330245 4.5559e-06 2
-0.00561426 0.000636801 0.0618678 0.735683 0.215906 0.330245 2.96027e-06 2
-0.000778632 -0.000140735 0.0608442 0.735683 0.215906 0.330245 3.15398e-07 2
-0.00612952 0.00225839 0.0579196 0.735683 0.215906 0.330245 1.54233e-06 2
-0.000652301 0.00163238 0.0597141 0.735683 0.215906 0.330245 1.32434e-07 2
-0.000144592 -0.000105487 0.0601499 0.735683 0.215906 0.330245 2.85344e-07 2
-0.000349877 0.000883723 0.0604931 0.735683 0.215906 0.330245 3.39255e-07 2
-0.00912475 5.32841e-05 0.0583818 0.735683 0.215906 0.330245 3.52638e-06 2
-0.00877912 0.00226999 0.0574222 0.735683 0.215906 0.330245 1.87408e-06 2
0.000654461 -0.0017735 0.0564162 0.735683 0.215906 0.330245 2.02815e-07 2
0.00157576 -0.00641811 0.0606455 0.735683 0.215906 0.330245 1.8322e-06 2
0.000583351 -0.00430848 0.0615459 0.735683 0.215906 0.330245 9.28451e-07 2
0.00162323 -0.00741762 0.0571862 0.735683 0.215906 0.330245 2.84751e-06 2
0.00409809 -0.00891659 0.0566336 0.735683 0.215906 0.330245 1.59133e-06 2
0.00160937 -0.00310604 0.0573586 0.735683 0.215906 0.330245 2.74105e-07 2
2.67461e-05 -0.00805954 0.0616909 0.735683 0.215906 0.330245 6.12453e-06 2
5.09124e-06 -0.000544604 0.0630791 0.735683 0.215906 0.330245 1.75933e-07 2
9.7212e-05 -0.00244621 0.0564543 0.735683 0.215906 0.330245 1.56555e-07 2
0.00254718 -0.00938621 0.0563423 0.735683 0.215906 0.330245 1.97262e-06 2
0.000752916 -0.00199201 0.0586884 0.735683 0.215906 0.330245 1.28677e-07 2
0.00202305 -0.00521769 0.0578089 0.735683 0.215906 0.330245 1.56175e-06 2
0.00125741 -0.00331305 0.0562521 0.735683 0.215906 0.330245 4.13153e-07 2
-0.0024407 -0.00837149 0.059805 0.735683 0.215906 0.330245 2.60175e-06 2
0.000871654 -0.00552159 0.0561448 0.735683 0.215906 0.330245 2.0196e-06 2
-0.000965662 -0.0059499 0.0625913 0.735683 0.215906 0.330245 3.10534e-06 2
0.00255753 -0.00498953 0.0643504 0.735683 0.215906 0.330245 3.05714e-06 2
0.0010276 -0.00461515 0.0590415 0.735683 0.215906 0.330245 6.57806e-07 2
-0.00124916 -0.00693804 0.0584515 0.735683 0.215906 0.330245 1.28566e-06 2
0.0046831 -0.00734386 0.0592508 0.735683 0.215906 0.330245 2.31204e-06 2
0.00372269 -0.00762449 0.060878 0.735683 0.215906 0.330245 6.05301e-06 2
-0.00099085 -0.0101708 0.0614697 0.735683 0.215906 0.330245 1.81747e-06 2
0.000268596 -0.00246531 0.059247 0.735683 0.215906 0.330245 4.08484e-08 2
-0.00158134 -0.0103598 0.0595511 0.735683 0.215906 0.330245 7.65118e-07 2
-0.000563745 -0.00824853 0.0597723 0.735683 0.215906 0.330245 5.15912e-06 2
0.000517647 -0.00268424 0.0562135 0.735683 0.215906 0.330245 9.59155e-09 2
0.000325855 -0.00199918 0.0571669 0.735683 0.215906 0.330245 1.68527e-07 2
0.000627791 -0.00681508 0.0584188 0.735683 0.215906 0.330245 1.23978e-06 2
-0.00457724 -0.00734598 0.0610276 0.735683 0.215906 0.330245 4.19385e-06 2
0.000441045 -0.000481807 0.0610355 0.735683 0.215906 0.330245 1.17804e-07 2
0.000990951 -0.00145545 0.0595937 0.735683 0.215906 0.330245 1.58242e-07 2
0.000145344 -0.0016276 0.0607402 0.735683 0.215906 0.330245 2.74895e-08 2
0.000506631 -0.00192874 0.0601523 0.735683 0.215906 0.330245 5.02338e-08 2
0.000273232 -0.00196895 0.0608472 0.735683 0.215906 0.330245 8.2684e-08 2
-8.80557e-05 -0.00166781 0.0614351 0.735683 0.215906 0.330245 7.16045e-08 2
0.00320362 -0.00519287 0.0615404 0.735683 0.215906 0.330245 3.47843e-06 2
0.000923639 -0.00386516 0.0619544 0.735683 0.215906 0.330245 1.14924e-06 2
-0.000365168 -0.00130289 0.0573939 0.735683 0.215906 0.330245 4.6429e-07 2
4.78374e-05 -0.00128711 0.0583999 0.735683 0.215906 0.330245 3.5025e-07 2
-0.000436482 -0.0017604 0.0589585 0.735683 0.215906 0.330245 9.87395e-08 2
-0.000849488 -0.00177618 0.0579525 0.735683 0.215906 0.330245 2.54922e-07 2
-0.000673693 -0.00129149 0.0605494 0.735683 0.215906 0.330245 2.56734e-07 2
-0.000440293 -0.00125128 0.0598545 0.735683 0.215906 0.330245 9.85618e-08 2
-9.42392e-05 -0.000718549 0.056066 0.735683 0.215906 0.330245 7.60868e-07 2
0.000736309 -0.00409773 0.0707645 0.735683 0.215906 0.330245 1.61325e-05 2
0.00376363 -0.00665451 0.0668222 0.735683 0.215906 0.330245 5.51476e-06 2
-0.00152289 -0.0075992 0.0649009 0.735683 0.215906 0.330245 6.24816e-06 2
0.00111278 -0.00729417 0.0669245 0.735683 0.215906 0.330245 1.02524e-05 2
-0.00196673 -0.00461068 0.0669854 0.735683 0.215906 0.330245 2.12849e-06 2
0.000555522 -0.00427476 0.0674614 0.735683 0.215906 0.330245 9.7293e-06 2
0.000892068 -0.00964648 0.0697199 0.735683 0.215906 0.330245 9.55022e-07 2
0.00222007 -0.00904897 0.0694414 0.735683 0.215906 0.330245 1.98324e-06 2
-0.00377245 -0.0068958 2.10078e-05 0.735683 0.215906 0.330245 5.27145e-06 2
-0.00648319 -0.00362832 0.00720561 0.735683 0.215906 0.330245 3.37371e-06 2
-0.00775552 -0.00425292 0.0134949 0.735683 0.215906 0.330245 8.82123e-06 2
-0.0116748 0.000512636 0.00757982 0.735683 0.215906 0.330245 9.49485e-08 2
-0.00941859 -8.15154e-05 0.000234143 0.735683 0.215906 0.330245 3.01958e-06 2
-0.00380867 -0.00310129 0.00361338 0.735683 0.215906 0.330245 5.59407e-06 2
-0.000595125 -0.000534525 0.0124684 0.735683 0.215906 0.330245 5.04476e-07 2
-0.00403484 -0.00215933 0.0122145 0.735683 0.215906 0.330245 4.36646e-07 2
-0.00874919 -0.00165071 0.0108048 0.735683 0.215906 0.330245 6.87307e-06 2
-0.0053074 -0.000457227 0.00659159 0.735683 0.215906 0.330245 4.3333e-06 2
-0.00598495 -0.00446453 0.00491063 0.735683 0.215906 0.330245 8.61368e-06 2
-0.00459714 -0.008239 0.0133728 0.735683 0.215906 0.330245 6.93896e-06 2
-0.00137799 -0.00157067 0.013369 0.735683 0.215906 0.330245 9.98855e-08 2
-0.00561074 -0.00727403 0.006261 0.735683 0.215906 0.330245 8.33513e-06 2
-0.00853953 -0.00258795 -9.1135e-05 0.735683 0.215906 0.330245 5.46826e-06 2
-0.0103067 6.0065e-05 0.00256634 0.735683 0.215906 0.330245 2.30537e-06 2
-0.00512688 -0.00793717 0.0199439 0.735683 0.215906 0.330245 2.32911e-06 2
-0.00520495 -0.0043064 0.0124938 0.735683 0.215906 0.330245 3.50182e-06 2
-0.00407365 -0.00140734 0.015948 0.735683 0.215906 0.330245 2.61615e-06 2
-0.00420763 -0.00034267 0.0121906 0.735683 0.215906 0.330245 4.1375e-06 2
-0.00739776 -0.00210544 0.00686851 0.735683 0.215906 0.330245 2.3469e-06 2
-0.00370223 -0.00600103 0.0104743 0.735683 0.215906 0.330245 1.50352e-06 2
-0.00221654 -0.00061686 0.00563145 0.735683 0.215906 0.330245 2.52899e-06 2
-0.00158992 -0.000431446 0.0108044 0.735683 0.215906 0.330245 2.84398e-07 2
-0.0053674 -0.00748314 0.0115293 0.735683 0.215906 0.330245 5.16823e-06 2
-0.00158874 -0.00146584 0.0120828 0.735683 0.215906 0.330245 1.99771e-07 2
-0.00665373 -0.00103615 0.0123224 0.735683 0.215906 0.330245 6.46669e-06 2
-0.0012375 -0.00164056 0.0142265 0.735683 0.215906 0.330245 9.98855e-08 2
-0.00105127 -0.00128736 0.00954783 0.735683 0.215906 0.330245 6.41324e-07 2
-0.00986239 -0.00208715 0.00638905 0.735683 0.215906 0.330245 8.59145e-07 2
-0.010335 -0.000980374 0.00383117 0.735683 0.215906 0.330245 1.08906e-06 2
-0.00804046 -0.00507602 0.00513606 0.735683 0.215906 0.330245 5.17957e-06 2
-0.00896821 -0.00354476 0.00423422 0.735683 0.215906 0.330245 4.9983e-06 2
-0.000632694 -0.000258528 0.00670547 0.735683 0.215906 0.330245 5.30001e-07 2
-0.00563436 -0.0036364 0.0161335 0.735683 0.215906 0.330245 5.9877e-06 2
-0.00915325 0.00108039 0.00808743 0.735683 0.215906 0.330245 6.01397e-06 2
-0.0061303 -0.00277388 0.0106969 0.735683 0.215906 0.330245 2.29088e-06 2
-0.00418304 7.99672e-06 0.0082538 0.735683 0.215906 0.330245 1.85245e-06 2
-0.0052571 -0.00427044 0.00926066 0.735683 0.215906 0.330245 2.59161e-06 2
-0.00391297 -0.0058962 0.00918805 0.735683 0.215906 0.330245 3.00705e-06 2
-0.00609035 -0.00277082 0.0124399 0.735683 0.215906 0.330245 1.40891e-06 2
-0.00678178 -0.00582243 0.0111731 0.735683 0.215906 0.330245 4.73716e-06 2
-0.0112006 -0.0016408 0.0108901 0.735683 0.215906 0.330245 9.64793e-07 2
-0.00879057 -0.00162439 0.00903142 0.735683 0.215906 0.330245 2.44117e-06 2
-0.00399091 -0.00588881 0.0165408 0.735683 0.215906 0.330245 3.62657e-06 2
-0.00554241 -0.00748585 0.0183136 0.735683 0.215906 0.330245 5.23788e-06 2
-0.00451553 -0.00531576 0.0122339 0.735683 0.215906 0.330245 2.87654e-07 2
-0.0029387 -0.00379973 0.0135546 0.735683 0.215906 0.330245 3.68957e-07 2
-0.00377556 -0.00603362 0.0153917 0.735683 0.215906 0.330245 3.74023e-07 2
-0.00360477 -0.0061415 0.014935 0.735683 0.215906 0.330245 1.35691e-06 2
-0.00279821 -0.00386962 0.0144121 0.735683 0.215906 0.330245 3.68957e-07 2
-0.00940554 -0.00289704 0.00232071 0.735683 0.215906 0.330245 4.42244e-06 2
0.000485784 -0.00476436 0.0110271 0.735683 0.215906 0.330245 6.93626e-07 2
0.000267438 -0.00174821 0.0157995 0.735683 0.215906 0.330245 1.39901e-07 2
0.00370029 -0.00618329 0.0120392 0.735683 0.215906 0.330245 2.31073e-06 2
0.00285562 -0.00911605 0.0141738 0.735683 0.215906 0.330245 2.6999e-06 2
0.000496953 -0.00482589 0.0126838 0.735683 0.215906 0.330245 5.41938e-07 2
0.000619743 -0.00242773 0.0136199 0.735683 0.215906 0.330245 1.00099e-07 2
-0.00204178 -0.00893441 0.01232 0.735683 0.215906 0.330245 1.12853e-05 2
0.000282565 -0.00261946 0.0129001 0.735683 0.215906 0.330245 6.39896e-08 2
2.2477e-05 -0.000931365 0.0158115 0.735683 0.215906 0.330245 7.93163e-07 2
-0.00180142 -0.00456208 0.009236 0.735683 0.215906 0.330245 1.46526e-06 2
0.00158498 -0.00473573 0.00730367 0.735683 0.215906 0.330245 8.96878e-07 2
0.00352435 -0.00854629 0.00906729 0.735683 0.215906 0.330245 5.21858e-06 2
0.00177068 -0.00907177 0.0163262 0.735683 0.215906 0.330245 7.35811e-06 2
0.000735256 -0.00122282 0.0109959 0.735683 0.215906 0.330245 6.18439e-07 2
-0.00253333 -0.00666877 0.00507306 0.735683 0.215906 0.330245 4.45341e-06 2
0.00190694 -0.00460078 0.0132437 0.735683 0.215906 0.330245 9.60223e-07 2
0.000140174 -0.00154523 0.0136486 0.735683 0.215906 0.330245 5.02865e-07 2
0.00325453 -0.00637395 0.00867226 0.735683 0.215906 0.330245 6.98563e-07 2
-0.000730025 -0.00685772 0.0111384 0.735683 0.215906 0.330245 1.61554e-06 2
0.000425257 -0.00153617 0.00758637 0.735683 0.215906 0.330245 1.17522e-06 2
0.000271396 -0.00255794 0.0112434 0.735683 0.215906 0.330245 8.19002e-08 2
-0.00337922 -0.00587922 0.00285067 0.735683 0.215906 0.330245 4.26911e-06 2
-0.00130251 -0.00464192 0.00750364 0.735683 0.215906 0.330245 2.75912e-06 2
0.000185139 -0.00125258 0.0118175 0.735683 0.215906 0.330245 4.09741e-07 2
0.00601295 -0.0100567 0.0147981 0.735683 0.215906 0.330245 5.78479e-07 2
-0.000800274 -0.00682278 0.0107096 0.735683 0.215906 0.330245 4.40249e-07 2
0.0013773 -0.00461839 0.010626 0.735683 0.215906 0.330245 3.74549e-07 2
8.4441e-05 -0.00252651 0.0142589 0.735683 0.215906 0.330245 4.48612e-08 2
0.0020553 -0.00684778 0.0122993 0.735683 0.215906 0.330245 9.75693e-07 2
-0.000734047 -0.00765525 8.60191e-05 0.735683 0.215906 0.330245 9.35162e-06 2
0.00132988 -0.00627557 -0.00085131 0.735683 0.215906 0.330245 8.76485e-06 2
0.000335419 -0.00265135 0.0157907 0.735683 0.215906 0.330245 1.15415e-07 2
0.00107444 -0.00889468 0.0024039 0.735683 0.215906 0.330245 9.41837e-06 2
-0.00156449 -0.00479494 0.0147207 0.735683 0.215906 0.330245 3.4553e-07 2
-9.25401e-05 -0.00248392 0.0120593 0.735683 0.215906 0.330245 5.05785e-08 2
-0.000612547 -0.00903134 0.0156416 0.735683 0.215906 0.330245 8.91096e-06 2
-0.00473001 -0.00796676 0.00387836 0.735683 0.215906 0.330245 7.62197e-06 2
0.0049325 -0.00787543 0.00611491 0.735683 0.215906 0.330245 4.26192e-06 2
0.000169729 -0.00247972 0.00781545 0.735683 0.215906 0.330245 1.77104e-07 2
-0.000395129 -0.00164402 0.0142876 0.735683 0.215906 0.330245 3.12298e-07 2
0.00527867 -0.0077478 0.0136517 0.735683 0.215906 0.330245 6.70341e-06 2
0.0042196 -0.00847414 0.0160026 0.735683 0.215906 0.330245 6.83517e-06 2
-0.000814803 -0.00690258 0.0138654 0.735683 0.215906 0.330245 3.4952e-06 2
0.00230056 -0.00671742 0.0110657 0.735683 0.215906 0.330245 8.6943e-07 2
0.0011025 -0.00476204 0.0124735 0.735683 0.215906 0.330245 5.45493e-07 2
0.00331926 -0.00634483 0.00732707 0.735683 0.215906 0.330245 3.80546e-06 2
0.00357883 -0.00625795 0.0106997 0.735683 0.215906 0.330245 1.94007e-06 2
0.00348532 -0.00616528 0.0148562 0.735683 0.215906 0.330245 1.96712e-06 2
8.06744e-05 -0.000505626 0.0126869 0.735683 0.215906 0.330245 5.08885e-07 2
0.000487117 -0.00244087 0.0106238 0.735683 0.215906 0.330245 5.62346e-08 2
0.00050103 -0.00163517 0.00978906 0.735683 0.215906 0.330245 9.91229e-08 2
0.000360534 -0.00156529 0.00893156 0.735683 0.215906 0.330245 7.36944e-08 2
-0.000221057 -0.000522651 0.00978908 0.735683 0.215906 0.330245 2.97804e-07 2
-0.00056592 -0.00153613 0.0147444 0.735683 0.215906 0.330245 3.91347e-08 2
-0.000361554 -0.000452767 0.00893158 0.735683 0.215906 0.330245 7.32356e-07 2
0.00444761 -0.0106453 0.00950698 0.735683 0.215906 0.330245 5.00365e-07 2
-0.000770734 -0.00680949 0.0100957 0.735683 0.215906 0.330245 2.91518e-06 2
0.00286996 -0.00636534 0.0100437 0.735683 0.215906 0.330245 2.26326e-07 2
0.00379322 -0.00846438 0.0104834 0.735683 0.215906 0.330245 5.84803e-07 2
0.00116158 -0.00473546 0.0112456 0.735683 0.215906 0.330245 5.45493e-07 2
0.0024491 -0.00411707 0.0167642 0.735683 0.215906 0.330245 1.4416e-06 2
0.000162655 -0.000530538 0.00699821 0.735683 0.215906 0.330245 8.18459e-07 2
-0.00111808 -0.00892478 0.00456127 0.735683 0.215906 0.330245 1.31498e-05 2
0.000112745 -0.00689793 0.00699185 0.735683 0.215906 0.330245 8.29609e-06 2
-0.00162021 -0.0046802 0.0111362 0.735683 0.215906 0.330245 5.4104e-07 2
0.000504024 -0.00899561 0.00872638 0.735683 0.215906 0.330245 7.76284e-06 2
-0.00139353 0.00455703 0.00864256 0.735683 0.215906 0.330245 7.04671e-07 2
-0.00168501 0.00539368 0.00309116 0.735683 0.215906 0.330245 5.72079e-06 2
-0.00255815 0.00649187 0.0104585 0.735683 0.215906 0.330245 2.20491e-06 2
-0.00288852 0.00979612 -0.00066871 0.735683 0.215906 0.330245 8.57286e-07 2
-0.00237957 0.00876667 0.00459512 0.735683 0.215906 0.330245 1.70616e-06 2
-0.00237319 0.00415474 0.0117598 0.735683 0.215906 0.330245 1.05831e-06 2
-0.00409367 0.00814725 0.00677776 0.735683 0.215906 0.330245 3.40888e-06 2
0.00142126 0.0068268 0.006076 0.735683 0.215906 0.330245 2.72128e-06 2
0.00325285 0.00628163 0.00822235 0.735683 0.215906 0.330245 2.88663e-06 2
-0.000196695 0.00451926 0.00650438 0.735683 0.215906 0.330245 9.97885e-07 2
-0.00170183 0.00678477 0.00610898 0.735683 0.215906 0.330245 1.28178e-06 2
0.00191666 0.00882972 0.00467708 0.735683 0.215906 0.330245 2.19767e-06 2
0.000379667 0.00169469 0.00864223 0.735683 0.215906 0.330245 1.4121e-07 2
-0.00150901 0.00936353 -0.000919486 0.735683 0.215906 0.330245 9.04907e-07 2
0.000474698 0.010492 0.00109481 0.735683 0.215906 0.330245 4.57781e-07 2
0.00121705 0.00708443 0.00965539 0.735683 0.215906 0.330245 2.36663e-06 2
-8.53851e-06 0.00221349 0.00738937 0.735683 0.215906 0.330245 5.99112e-08 2
-0.00485785 0.00871514 -0.000694511 0.735683 0.215906 0.330245 1.7114e-06 2
-0.000128476 0.00827496 0.0027367 0.735683 0.215906 0.330245 2.7817e-06 2
-0.000698437 0.010471 0.000979865 0.735683 0.215906 0.330245 2.96328e-07 2
-0.000874434 0.00650116 0.00499051 0.735683 0.215906 0.330245 1.3292e-06 2
0.00104466 0.00829598 0.00285165 0.735683 0.215906 0.330245 2.59347e-06 2
-0.00483926 0.0103478 0.00303359 0.735683 0.215906 0.330245 5.62924e-07 2
-0.0042057 0.00814139 0.00503663 0.735683 0.215906 0.330245 2.39275e-06 2
0.00107538 0.00903458 0.00780143 0.735683 0.215906 0.330245 8.76105e-06 2
-0.000939052 0.00716748 0.000837353 0.735683 0.215906 0.330245 8.04261e-06 2
0.00324977 0.00748279 0.00187121 0.735683 0.215906 0.330245 6.82696e-06 2
0.00167191 0.0104527 0.000139686 0.735683 0.215906 0.330245 4.97092e-07 2
-0.00330445 0.00877972 0.0109476 0.735683 0.215906 0.330245 9.02933e-07 2
-0.00097662 0.0048065 0.0095395 0.735683 0.215906 0.330245 9.79961e-07 2
0.000774243 0.00221482 0.00774536 0.735683 0.215906 0.330245 1.02161e-07 2
-0.000781447 0.00221425 0.00816838 0.735683 0.215906 0.330245 1.16151e-07 2
1.33387e-06 0.00221557 0.00852437 0.735683 0.215906 0.330245 1.64727e-07 2
2.70816e-05 0.000695401 0.0101612 0.735683 0.215906 0.330245 8.45694e-07 2
-4.51528e-05 0.00257119 0.00949335 0.735683 0.215906 0.330245 1.96889e-07 2
0.000325792 0.00232481 0.0102124 0.735683 0.215906 0.330245 1.46607e-07 2
0.000704227 0.00180333 0.00960817 0.735683 0.215906 0.330245 1.61891e-07 2
-0.00212576 0.00682178 0.00746815 0.735683 0.215906 0.330245 1.22123e-06 2
-0.00185051 0.0090214 0.00651112 0.735683 0.215906 0.330245 3.40608e-06 2
-0.000549598 0.00701352 0.0104859 0.735683 0.215906 0.330245 1.15732e-06 2
-0.001709 0.00905325 0.0113163 0.735683 0.215906 0.330245 2.69756e-06 2
-0.000691268 0.00896367 0.00863194 0.735683 0.215906 0.330245 3.40608e-06 2
-0.00459784 0.00541141 0.00454883 0.735683 0.215906 0.330245 7.72122e-06 2
-0.00903091 0.00354154 0.00156088 0.735683 0.215906 0.330245 2.18298e-06 2
-0.00776044 0.00059934 0.00592452 0.735683 0.215906 0.330245 4.44357e-06 2
-0.00600613 0.00282119 0.0119447 0.735683 0.215906 0.330245 5.10293e-06 2
-0.00728517 0.00242432 0.0046836 0.735683 0.215906 0.330245 3.39479e-06 2
-0.00358228 0.00492921 0.00220797 0.735683 0.215906 0.330245 6.3117e-06 2
-0.00620945 0.00667284 0.0097278 0.735683 0.215906 0.330245 5.21897e-06 2
-0.001546 0.00150014 0.00606843 0.735683 0.215906 0.330245 2.20692e-07 2
-0.00587341 0.00919734 0.00164635 0.735683 0.215906 0.330245 1.07888e-06 2
-0.00395451 0.00583891 0.0112347 0.735683 0.215906 0.330245 7.86239e-07 2
-0.00636031 0.00652647 0.00250332 0.735683 0.215906 0.330245 6.61835e-06 2
-0.00504494 0.00473861 0.00863389 0.735683 0.215906 0.330245 8.82077e-07 2
-0.00123332 0.000928657 0.00804499 0.735683 0.215906 0.330245 3.53167e-07 2
-0.00171828 0.000313709 0.00550793 0.735683 0.215906 0.330245 5.60934e-07 2
-0.00634816 0.00397882 0.00478367 0.735683 0.215906 0.330245 5.77734e-07 2
-0.00462229 0.00499801 0.0119467 0.735683 0.215906 0.330245 1.87528e-06 2
-0.00113814 0.000854746 0.0116499 0.735683 0.215906 0.330245 7.99106e-07 2
-0.0060073 0.00318084 0.0101663 0.735683 0.215906 0.330245 1.98386e-06 2
-0.00354161 0.00608824 0.0123375 0.735683 0.215906 0.330245 1.2185e-06 2
-0.00420881 0.000691729 0.0109123 0.735683 0.215906 0.330245 5.25689e-06 2
-0.00811062 0.00509387 0.00273815 0.735683 0.215906 0.330245 2.18298e-06 2
-0.00775842 0.00825577 0.0103899 0.735683 0.215906 0.330245 2.05805e-07 2
-0.00620361 0.00668218 0.0114216 0.735683 0.215906 0.330245 2.1682e-07 2
-0.00336144 0.0058825 0.00795217 0.735683 0.215906 0.330245 2.34603e-06 2
-0.00452595 0.00781673 0.00904608 0.735683 0.215906 0.330245 6.20179e-06 2
-0.00444967 0.0107957 0.00939241 0.735683 0.215906 0.330245 5.34568e-07 2
-0.00525818 0.0100815 0.00787166 0.735683 0.215906 0.330245 1.0517e-06 2
-0.00865336 0.00203403 -0.000174782 0.735683 0.215906 0.330245 4.34418e-06 2
-0.00975636 0.00244633 0.0029908 0.735683 0.215906 0.330245 1.9529e-06 2
-0.0102669 0.0010804 0.00358734 0.735683 0.215906 0.330245 1.23755e-06 2
-0.0102936 -0.00100669 0.00560452 0.735683 0.215906 0.330245 5.08873e-07 2
-0.000437975 0.000656647 0.00833773 0.735683 0.215906 0.330245 5.6555e-07 2
-0.00771562 0.00446315 0.00531414 0.735683 0.215906 0.330245 2.96518e-06 2
-0.00821783 0.00368154 0.00743515 0.735683 0.215906 0.330245 8.98707e-06 2
-0.010282 3.15826e-05 0.0054169 0.735683 0.215906 0.330245 6.79675e-07 2
-0.00756211 0.00475444 0.0091346 0.735683 0.215906 0.330245 6.28268e-06 2
-0.00669629 2.45665e-05 0.00927065 0.735683 0.215906 0.330245 1.47424e-06 2
-0.00666143 0.00106129 0.00921916 0.735683 0.215906 0.330245 1.91363e-06 2
-0.000941455 0.000313696 0.00524505 0.735683 0.215906 0.330245 1.0697e-06 2
-0.00379269 -0.00108499 -0.00213021 0.735683 0.215906 0.330245 3.76106e-06 2
-0.000104352 0.00431112 -0.000674056 0.735683 0.215906 0.330245 9.9193e-06 2
-0.00255673 -0.0029898 -4.15526e-05 0.735683 0.215906 0.330245 4.34388e-06 2
-0.00254473 0.00269843 0.00328409 0.735683 0.215906 0.330245 3.37358e-06 2
-0.000830878 -0.000205741 0.00246669 0.735683 0.215906 0.330245 6.89897e-06 2
-0.0042019 -0.00411787 0.000783713 0.735683 0.215906 0.330245 7.03193e-06 2
0.00169194 -0.000131592 0.00075976 0.735683 0.215906 0.330245 3.06986e-06 2
-0.00534474 0.00604427 0.00016246 0.735683 0.215906 0.330245 7.23507e-06 2
-0.00197076 0.00207284 0.000433692 0.735683 0.215906 0.330245 1.24946e-05 2
-0.00479476 -0.0025127 -0.00205799 0.735683 0.215906 0.330245 3.62405e-06 2
-0.00671751 0.00310416 -0.00133836 0.735683 0.215906 0.330245 6.1027e-06 2
-0.00438106 0.00136352 -0.00214325 0.735683 0.215906 0.330245 9.3089e-06 2
-0.00643993 -0.00364076 -0.00123273 0.735683 0.215906 0.330245 6.04463e-06 2
0.000550631 0.00539321 -0.00327108 0.735683 0.215906 0.330245 2.89057e-06 2
-0.00155466 -0.00156209 -0.000113772 0.735683 0.215906 0.330245 4.53018e-06 2
0.00617033 0.0034525 -0.00294719 0.735683 0.215906 0.330245 2.14919e-06 2
0.00621476 -0.00122387 -0.000528201 0.735683 0.215906 0.330245 1.74663e-06 2
0.00523767 -0.00413495 -0.000903587 0.735683 0.215906 0.330245 7.5399e-06 2
0.000938711 -0.00296035 -0.00181381 0.735683 0.215906 0.330245 3.50851e-06 2
0.00248833 0.00391073 -0.00326769 0.735683 0.215906 0.330245 1.04093e-06 2
0.00446783 0.000498075 0.0020377 0.735683 0.215906 0.330245 8.86549e-06 2
0.0080884 0.00237451 -0.00165975 0.735683 0.215906 0.330245 2.821e-06 2
0.00269118 0.00453631 -0.000680167 0.735683 0.215906 0.330245 2.96705e-06 2
0.00896009 -3.33499e-05 -0.00127728 0.735683 0.215906 0.330245 2.07991e-06 2
0.00376917 0.00631307 0.000235362 0.735683 0.215906 0.330245 5.78036e-06 2
0.00634364 0.00307095 0.000923611 0.735683 0.215906 0.330245 1.25646e-05 2
0.00442558 0.00414894 -0.000363824 0.735683 0.215906 0.330245 6.83177e-06 2
0.00183335 0.00282865 -0.000670673 0.735683 0.215906 0.330245 6.71693e-06 2
-6.33543e-05 -0.00438806 -0.00174159 0.735683 0.215906 0.330245 3.36491e-06 2
0.00228804 -0.00199432 -0.00182346 0.735683 0.215906 0.330245 3.46568e-06 2
0.00423564 -0.00206518 -0.0018193 0.735683 0.215906 0.330245 4.74681e-06 2
0.00704305 -0.000523344 0.00074558 0.735683 0.215906 0.330245 7.17564e-06 2
0.00361275 0.00603214 0.00706254 0.735683 0.215906 0.330245 2.3247e-06 2
0.00641283 0.000585329 0.00429682 0.735683 0.215906 0.330245 4.93338e-06 2
0.00898806 -0.00043609 0.0030047 0.735683 0.215906 0.330245 3.8683e-06 2
0.00394541 0.00964311 0.000221933 0.735683 0.215906 0.330245 1.07887e-06 2
0.0080234 0.00389783 0.0144946 0.735683 0.215906 0.330245 6.26962e-06 2
0.00898748 -0.00146113 0.00387348 0.735683 0.215906 0.330245 2.36818e-06 2
0.00712251 0.00532624 0.0113408 0.735683 0.215906 0.330245 6.37051e-06 2
0.00241767 0.00397542 0.00900672 0.735683 0.215906 0.330245 9.48509e-07 2
0.00545072 0.00392533 0.0129306 0.735683 0.215906 0.330245 2.60419e-06 2
0.00866234 0.00286718 0.00506955 0.735683 0.215906 0.330245 2.98839e-06 2
0.00690695 0.00565781 0.00528087 0.735683 0.215906 0.330245 4.34073e-06 2
0.00412177 0.00801653 0.00369664 0.735683 0.215906 0.330245 6.63634e-06 2
0.00326677 0.00824053 0.00951002 0.735683 0.215906 0.330245 6.89467e-06 2
0.00891058 0.00145639 0.0143684 0.735683 0.215906 0.330245 5.96867e-06 2
0.0044648 0.00847339 -0.00141392 0.735683 0.215906 0.330245 7.06553e-07 2
0.00481741 0.0101768 0.00204736 0.735683 0.215906 0.330245 9.64676e-07 2
0.000974339 0.000506169 0.00668385 0.735683 0.215906 0.330245 3.64834e-07 2
0.00277758 0.00372593 0.0078469 0.735683 0.215906 0.330245 8.11956e-07 2
0.00634047 0.00147446 0.0106284 0.735683 0.215906 0.330245 2.18331e-06 2
0.00751696 0.00470009 0.00942788 0.735683 0.215906 0.330245 2.69975e-06 2
0.00278861 0.00372903 0.00972574 0.735683 0.215906 0.330245 7.12041e-07 2
0.00779009 0.00425693 0.00367891 0.735683 0.215906 0.330245 8.4539e-06 2
0.0041083 0.000287193 0.0127578 0.735683 0.215906 0.330245 2.68752e-06 2
0.0109626 0.00252546 0.0102996 0.735683 0.215906 0.330245 3.66252e-07 2
0.0044602 0.0051495 0.011185 0.735683 0.215906 0.330245 2.36051e-06 2
0.00634006 0.00175052 0.0119549 0.735683 0.215906 0.330245 2.87901e-06 2
0.0091609 0.00176845 0.00457337 0.735683 0.215906 0.330245 1.11942e-06 2
0.00530422 0.00941284 0.0104283 0.735683 0.215906 0.330245 2.93602e-06 2
0.00520938 0.00427271 0.00757433 0.735683 0.215906 0.330245 1.36779e-06 2
0.000699734 0.000639976 0.0129685 0.735683 0.215906 0.330245 8.76722e-07 2
0.00522051 0.00427521 0.0087311 0.735683 0.215906 0.330245 1.18887e-06 2
0.0056761 0.0071697 0.0049502 0.735683 0.215906 0.330245 7.57693e-06 2
0.00866947 0.00153832 0.00799016 0.735683 0.215906 0.330245 6.16065e-06 2
0.00610258 0.00229133 0.00688769 0.735683 0.215906 0.330245 2.5284e-06 2
0.00353799 0.00259574 0.00783756 0.735683 0.215906 0.330245 5.03253e-07 2
0.00840132 0.00226761 0.0096368 0.735683 0.215906 0.330245 4.78908e-06 2
0.00584039 0.00302196 0.0091532 0.735683 0.215906 0.330245 1.05511e-06 2
0.005833 0.00329646 0.00975436 0.735683 0.215906 0.330245 7.17108e-07 2
0.00377954 0.0022288 0.0101448 0.735683 0.215906 0.330245 4.792e-07 2
0.0114553 0.000710161 0.0120864 0.735683 0.215906 0.330245 2.65086e-07 2
0.00889365 0.000728384 0.0127501 0.735683 0.215906 0.330245 3.48827e-06 2
0.00115258 0.00169394 0.00786322 0.735683 0.215906 0.330245 7.6463e-08 2
0.000749169 -0.000417121 0.0101611 0.735683 0.215906 0.330245 4.8206e-07 2
0.00154643 -0.000313559 0.0117191 0.735683 0.215906 0.330245 7.6411e-08 2
0.0079142 -0.00398271 0.00501257 0.735683 0.215906 0.330245 5.73915e-06 2
0.00416236 -0.00668238 -1.04095e-05 0.735683 0.215906 0.330245 5.54077e-06 2
0.00380941 -0.00152041 0.0068312 0.735683 0.215906 0.330245 4.3783e-06 2
0.00654858 -0.00108699 0.00849417 0.735683 0.215906 0.330245 4.96689e-06 2
0.0112307 0.00179617 0.00865298 0.735683 0.215906 0.330245 8.13584e-07 2
0.00690415 -0.00560413 0.00502022 0.735683 0.215906 0.330245 6.9975e-06 2
0.00142497 -0.000388222 0.0103796 0.735683 0.215906 0.330245 6.41541e-08 2
0.00802732 -0.00363964 0.00874665 0.735683 0.215906 0.330245 1.08211e-05 2
0.00416983 -0.00811237 0.00237538 0.735683 0.215906 0.330245 5.5399e-06 2
0.00721679 -0.00329365 0.000387514 0.735683 0.215906 0.330245 9.02702e-06 2
0.0050628 -0.00751088 0.00363241 0.735683 0.215906 0.330245 4.26192e-06 2
0.00865984 0.00256002 0.00604813 0.735683 0.215906 0.330245 2.90733e-07 2
0.00528816 -0.00407306 0.00708369 0.735683 0.215906 0.330245 9.32641e-06 2
0.00703445 -0.00523958 0.00253772 0.735683 0.215906 0.330245 6.9975e-06 2
0.00916995 -0.000278287 0.00738417 0.735683 0.215906 0.330245 3.88043e-06 2
0.0112396 0.00254586 0.00726656 0.735683 0.215906 0.330245 3.30077e-07 2
0.00807501 -0.00360425 0.0117507 0.735683 0.215906 0.330245 6.34584e-06 2
0.00545947 -0.00369638 0.0105778 0.735683 0.215906 0.330245 4.28392e-06 2
0.00398072 -0.00114373 0.0103253 0.735683 0.215906 0.330245 1.87718e-06 2
0.0041087 1.11268e-05 0.0114313 0.735683 0.215906 0.330245 3.16188e-06 2
0.00410218 -0.00106907 0.0116648 0.735683 0.215906 0.330245 2.23582e-06 2
0.0106429 -0.00354751 0.00991958 0.735683 0.215906 0.330245 9.69839e-07 2
0.00641226 -0.000439715 0.0051656 0.735683 0.215906 0.330245 1.03755e-06 2
0.00386023 -0.000408644 0.00605221 0.735683 0.215906 0.330245 3.11298e-06 2
0.00660306 0.00047472 0.00628171 0.735683 0.215906 0.330245 1.56024e-06 2
0.00636178 -0.00814958 0.0267066 0.735683 0.215906 0.330245 9.63732e-07 2
0.00843331 -0.00536735 0.0229619 0.735683 0.215906 0.330245 2.7923e-06 2
0.00373125 -0.00177335 0.020693 0.735683 0.215906 0.330245 1.46162e-06 2
0.00667881 -6.93776e-06 0.0151713 0.735683 0.215906 0.330245 3.66375e-06 2
0.0074527 -0.00699652 0.0217928 0.735683 0.215906 0.330245 2.243e-06 2
0.00415885 -0.0073315 0.0203549 0.735683 0.215906 0.330245 4.69621e-06 2
0.00545844 -0.0057512 0.0203524 0.735683 0.215906 0.330245 4.86345e-06 2
0.00584 -0.00251503 0.0192603 0.735683 0.215906 0.330245 5.87538e-06 2
0.00121566 -0.00182844 0.0195403 0.735683 0.215906 0.330245 6.41733e-07 2
0.00615311 -0.00857682 0.0217953 0.735683 0.215906 0.330245 2.19684e-06 2
0.000812328 0.000106348 0.0156362 0.735683 0.215906 0.330245 1.29442e-06 2
0.00484969 -0.0046406 0.018014 0.735683 0.215906 0.330245 3.78044e-06 2
0.0087652 -0.00177667 0.0165515 0.735683 0.215906 0.330245 6.49434e-06 2
0.00413892 -0.00107869 0.020657 0.735683 0.215906 0.330245 4.26559e-06 2
0.000759233 -0.00039963 0.0139302 0.735683 0.215906 0.330245 8.8772e-07 2
0.00318339 -0.00642593 0.0179106 0.735683 0.215906 0.330245 3.794e-06 2
0.00541207 -0.00882602 0.0256726 0.735683 0.215906 0.330245 1.62505e-06 2
0.00877378 -0.00127365 0.0188487 0.735683 0.215906 0.330245 7.26934e-06 2
0.00776437 -0.00439387 0.0168335 0.735683 0.215906 0.330245 4.70221e-06 2
0.00557875 -0.00388835 0.0127668 0.735683 0.215906 0.330245 4.46409e-06 2
0.00154602 -3.74933e-05 0.0130457 0.735683 0.215906 0.330245 6.49474e-08 2
0.000821255 -0.000544946 0.0231261 0.735683 0.215906 0.330245 1.49688e-06 2
0.00666188 -0.000734945 0.0135529 0.735683 0.215906 0.330245 2.88905e-06 2
0.00664837 -0.00181671 0.0130611 0.735683 0.215906 0.330245 8.07557e-07 2
0.0114723 0.00143817 0.0137047 0.735683 0.215906 0.330245 6.04872e-07 2
0.00525222 -0.00914728 0.0232933 0.735683 0.215906 0.330245 1.81751e-06 2
0.00387121 -0.00413299 0.0220447 0.735683 0.215906 0.330245 4.97125e-06 2
0.00474416 -0.00666244 0.0276577 0.735683 0.215906 0.330245 2.84189e-06 2
0.00715713 -0.00545285 0.0143793 0.735683 0.215906 0.330245 1.3147e-05 2
0.00576513 -0.0025019 0.0218368 0.735683 0.215906 0.330245 6.15112e-06 2
0.0112582 -0.00175259 0.0186049 0.735683 0.215906 0.330245 1.38321e-06 2
0.00678476 -0.00387964 0.0230842 0.735683 0.215906 0.330245 3.82717e-06 2
-0.00549891 0.00742988 0.0139704 0.735683 0.215906 0.330245 2.28342e-06 2
-0.00616658 0.00658839 0.0139604 0.735683 0.215906 0.330245 2.56503e-06 2
-0.00352647 0.00623013 0.0182796 0.735683 0.215906 0.330245 3.95082e-07 2
-0.00744145 0.00483867 0.0183154 0.735683 0.215906 0.330245 3.67756e-06 2
-0.00655378 -1.44451e-05 0.018321 0.735683 0.215906 0.330245 5.64113e-06 2
-0.00122336 0.00196583 0.0141686 0.735683 0.215906 0.330245 4.434e-07 2
-0.00389923 0.0108147 0.0139004 0.735683 0.215906 0.330245 1.14664e-06 2
-0.0066177 -0.000359081 0.0140493 0.735683 0.215906 0.330245 2.02955e-06 2
-0.0116614 -1.22849e-05 0.0173496 0.735683 0.215906 0.330245 3.70445e-07 2
-0.00460102 0.0050086 0.0154877 0.735683 0.215906 0.330245 4.00288e-06 2
-0.00865212 0.00142979 0.0144596 0.735683 0.215906 0.330245 6.42759e-06 2
-0.00235217 0.00416684 0.0171093 0.735683 0.215906 0.330245 1.55588e-06 2
-0.00550561 0.00356297 0.0153221 0.735683 0.215906 0.330245 2.34749e-06 2
-0.0111477 0.00178514 0.0159214 0.735683 0.215906 0.330245 1.72121e-06 2
-0.00611835 0.0014171 0.0161484 0.735683 0.215906 0.330245 5.02621e-06 2
-0.00347236 0.0028085 0.0136335 0.735683 0.215906 0.330245 2.10165e-06 2
-0.00499565 0.00433557 0.0201648 0.735683 0.215906 0.330245 6.62763e-06 2
-0.00469722 0.0101173 0.015425 0.735683 0.215906 0.330245 2.06582e-06 2
-0.0031159 0.00843311 0.0159501 0.735683 0.215906 0.330245 3.91174e-06 2
-0.00352292 0.00805398 0.0142547 0.735683 0.215906 0.330245 6.60488e-06 2
-0.0086139 0.00177245 0.0176102 0.735683 0.215906 0.330245 7.03853e-06 2
-0.00305672 0.00341822 0.013474 0.735683 0.215906 0.330245 2.77339e-06 2
-0.00803938 0.00357566 0.0136333 0.735683 0.215906 0.330245 4.75508e-06 2
-0.00704716 0.00551373 0.0160735 0.735683 0.215906 0.330245 3.67756e-06 2
-0.000354096 0.000856493 0.0120276 0.735683 0.215906 0.330245 7.14521e-07 2
-4.29204e-05 0.00221317 0.0127377 0.735683 0.215906 0.330245 3.35253e-07 2
0.00241027 0.00399461 0.0127745 0.735683 0.215906 0.330245 9.5596e-07 2
-2.57655e-05 0.00221859 0.0163546 0.735683 0.215906 0.330245 5.19447e-07 2
-0.00133924 0.00907054 0.0257842 0.735683 0.215906 0.330245 4.95434e-06 2
0.0004113 0.00176032 0.0184963 0.735683 0.215906 0.330245 3.67682e-08 2
-1.03956e-05 0.00259327 0.0252231 0.735683 0.215906 0.330245 2.49364e-07 2
0.000393859 0.00234776 0.0261142 0.735683 0.215906 0.330245 2.52283e-07 2
-0.00272483 0.00875085 0.012008 0.735683 0.215906 0.330245 1.17735e-06 2
-0.000365208 0.00131109 0.0245346 0.735683 0.215906 0.330245 4.23722e-07 2
0.000458567 0.00701946 0.0256253 0.735683 0.215906 0.330245 1.44241e-06 2
0.00033511 0.00196776 0.01346 0.735683 0.215906 0.330245 3.41271e-07 2
0.00205325 0.00619989 0.0133431 0.735683 0.215906 0.330245 4.04901e-06 2
-0.00278768 0.00689277 0.0241305 0.735683 0.215906 0.330245 2.30512e-06 2
0.00319781 0.00819029 0.0167123 0.735683 0.215906 0.330245 1.01923e-05 2
-0.000810618 0.00221607 0.0163579 0.735683 0.215906 0.330245 2.13e-07 2
-0.00121771 0.00710043 0.0208432 0.735683 0.215906 0.330245 4.21091e-06 2
0.00357225 0.00598892 0.0179521 0.735683 0.215906 0.330245 1.94879e-06 2
0.00205299 0.0062014 0.0151517 0.735683 0.215906 0.330245 6.09253e-06 2
0.00410317 0.00735478 0.0117537 0.735683 0.215906 0.330245 1.00084e-05 2
0.000923197 0.00481386 0.0252065 0.735683 0.215906 0.330245 1.15803e-06 2
-0.00158627 0.00489732 0.0239579 0.735683 0.215906 0.330245 1.42984e-06 2
0.00193608 0.00457757 0.0215399 0.735683 0.215906 0.330245 2.06012e-06 2
0.000807249 0.00200855 0.0198448 0.735683 0.215906 0.330245 4.143e-07 2
0.00153435 0.00481923 0.020191 0.735683 0.215906 0.330245 2.00393e-06 2
2.23968e-05 0.00200603 0.0198482 0.735683 0.215906 0.330245 8.17085e-07 2
-0.00156962 0.00489112 0.019804 0.735683 0.215906 0.330245 2.10756e-06 2
0.00035252 0.00197167 0.0152684 0.735683 0.215906 0.330245 5.09542e-07 2
0.000414655 0.0089798 0.0244251 0.735683 0.215906 0.330245 1.18537e-06 2
0.00111588 0.00898169 0.0186419 0.735683 0.215906 0.330245 7.41794e-06 2
-0.00128061 0.00906437 0.022611 0.735683 0.215906 0.330245 2.32287e-06 2
-0.00115886 0.00709297 0.0161257 0.735683 0.215906 0.330245 3.56995e-06 2
0.00110141 0.00702603 0.0212336 0.735683 0.215906 0.330245 4.44214e-06 2
-0.000422059 0.0019724 0.0174412 0.735683 0.215906 0.330245 2.51918e-07 2
-0.00120324 0.00905609 0.0182516 0.735683 0.215906 0.330245 7.28243e-06 2
-0.00247794 0.00910318 0.0255377 0.735683 0.215906 0.330245 4.64284e-06 2
-0.000826966 0.00221142 0.0123599 0.735683 0.215906 0.330245 1.51514e-07 2
0.00293606 0.00603884 0.0238994 0.735683 0.215906 0.330245 1.30301e-06 2
0.00132745 0.00456834 0.0260977 0.735683 0.215906 0.330245 1.16604e-06 2
-0.000363471 0.00072336 0.0200583 0.735683 0.215906 0.330245 1.64625e-06 2
0.000434399 0.000728798 0.0214071 0.735683 0.215906 0.330245 6.81647e-07 2
-4.18623e-06 0.00114969 0.0175692 0.735683 0.215906 0.330245 6.46899e-07 2
0.00162253 0.00900384 0.0231315 0.735683 0.215906 0.330245 3.71441e-06 2
0.0036793 0.00826848 0.0230247 0.735683 0.215906 0.330245 5.41328e-06 2
-0.000351353 0.00121688 0.0107654 0.735683 0.215906 0.330245 3.17149e-07 2
-0.00313018 0.00647632 0.017193 0.735683 0.215906 0.330245 3.77635e-06 2
-0.00156563 0.00671234 0.0126218 0.735683 0.215906 0.330245 3.17978e-06 2
-0.0012367 0.00710403 0.0238112 0.735683 0.215906 0.330245 2.73513e-06 2
-0.00352666 0.00623125 0.0196283 0.735683 0.215906 0.330245 4.11639e-06 2
0.00120898 0.00176688 0.0211938 0.735683 0.215906 0.330245 4.3077e-07 2
0.00522456 0.00436522 0.0214309 0.735683 0.215906 0.330245 3.23419e-06 2
0.0055848 0.00721577 0.0188846 0.735683 0.215906 0.330245 6.50838e-06 2
0.00672697 -7.97059e-05 0.0186827 0.735683 0.215906 0.330245 4.25163e-06 2
0.0027883 0.0037492 0.0134968 0.735683 0.215906 0.330245 9.66231e-07 2
0.00574954 0.00347802 0.0161441 0.735683 0.215906 0.330245 5.61969e-06 2
0.00410985 -3.22489e-05 0.0228558 0.735683 0.215906 0.330245 5.32564e-06 2
0.00416368 0.00106191 0.0259779 0.735683 0.215906 0.330245 1.62208e-06 2
0.000750102 0.00107092 0.0256014 0.735683 0.215906 0.330245 1.05878e-06 2
0.00412971 0.0014845 0.0171624 0.735683 0.215906 0.330245 2.26016e-06 2
0.00242743 0.00400003 0.0163914 0.735683 0.215906 0.330245 1.46267e-06 2
0.00439912 0.0102468 0.0135785 0.735683 0.215906 0.330245 5.25333e-06 2
0.00362989 0.00231566 0.0206264 0.735683 0.215906 0.330245 2.2771e-06 2
0.00280571 0.0037531 0.0153052 0.735683 0.215906 0.330245 1.44265e-06 2
0.00478638 0.0103667 0.0275124 0.735683 0.215906 0.330245 2.08851e-06 2
0.0041718 0.000440985 0.0163157 0.735683 0.215906 0.330245 4.07044e-06 2
-4.34648e-05 3.23367e-05 0.0267888 0.735683 0.215906 0.330245 1.31964e-06 2
0.00779198 0.00427485 0.0180117 0.735683 0.215906 0.330245 7.22427e-06 2
0.00540352 0.0041002 0.024388 0.735683 0.215906 0.330245 2.9586e-06 2
0.00158614 0.000554552 0.0264238 0.735683 0.215906 0.330245 5.38209e-08 2
0.00491995 0.00733131 0.0266337 0.735683 0.215906 0.330245 1.07835e-05 2
0.000770239 0.00114986 0.0164829 0.735683 0.215906 0.330245 7.18741e-07 2
0.0112361 0.00230508 0.0215437 0.735683 0.215906 0.330245 5.85608e-07 2
0.00913695 -0.00149114 0.0253914 0.735683 0.215906 0.330245 2.88666e-06 2
0.00617214 0.00228133 0.0190299 0.735683 0.215906 0.330245 2.43594e-06 2
0.00566086 0.00956368 0.024868 0.735683 0.215906 0.330245 1.64417e-06 2
0.00686054 0.00577769 0.0191918 0.735683 0.215906 0.330245 4.33849e-06 2
0.00355992 0.00604901 0.0224757 0.735683 0.215906 0.330245 5.78025e-07 2
0.00394882 0.0058033 0.0211238 0.735683 0.215906 0.330245 4.76964e-06 2
0.00742017 0.00489449 0.0229295 0.735683 0.215906 0.330245 1.84704e-06 2
0.00334032 0.00579333 0.0247906 0.735683 0.215906 0.330245 4.28473e-06 2
0.00871689 0.0017583 0.0203139 0.735683 0.215906 0.330245 6.77196e-06 2
0.00617464 0.00179263 0.0219104 0.735683 0.215906 0.330245 6.3413e-06 2
0.00834109 0.00290002 0.0232777 0.735683 0.215906 0.330245 2.68494e-06 2
0.0108765 0.00286576 0.0232866 0.735683 0.215906 0.330245 1.92898e-07 2
0.00632444 0.00210573 0.0247362 0.735683 0.215906 0.330245 3.12121e-06 2
0.0113787 0.00105661 0.0253143 0.735683 0.215906 0.330245 3.97522e-07 2
0.00867868 -0.00224855 0.0228764 0.735683 0.215906 0.330245 1.58936e-06 2
0.0112667 -0.00124957 0.0209021 0.735683 0.215906 0.330245 5.00146e-07 2
0.00698315 0.00563819 0.0262311 0.735683 0.215906 0.330245 7.66032e-06 2
1.08173e-05 2.94846e-05 0.0287456 0.735683 0.215906 0.330245 5.08276e-07 2
0.00123444 0.00182669 0.0296094 0.735683 0.215906 0.330245 2.56863e-07 2
0.00411554 3.1322e-05 0.0254647 0.735683 0.215906 0.330245 4.48475e-06 2
0.0079007 0.00413548 0.0283029 0.735683 0.215906 0.330245 8.75503e-06 2
-0.00718587 -0.00523344 0.0179064 0.735683 0.215906 0.330245 8.66298e-06 2
-0.00405823 -0.0003698 0.0168591 0.735683 0.215906 0.330245 3.58857e-06 2
-0.00605588 -0.00318117 0.0310241 0.735683 0.215906 0.330245 2.1388e-06 2
-0.00873747 0.0012881 0.0301415 0.735683 0.215906 0.330245 8.39187e-06 2
-0.000802658 -0.00100359 0.0261001 0.735683 0.215906 0.330245 1.03579e-06 2
-0.000843836 -0.000491595 0.0313047 0.735683 0.215906 0.330245 6.57763e-07 2
-0.00421994 -0.000505426 0.0324097 0.735683 0.215906 0.330245 2.95929e-06 2
-0.00426388 -0.00566095 0.0218831 0.735683 0.215906 0.330245 2.45075e-06 2
-0.00417837 -0.00153708 0.0308646 0.735683 0.215906 0.330245 1.33672e-06 2
-0.000857192 -0.00101028 0.0322511 0.735683 0.215906 0.330245 6.56382e-07 2
-0.0040566 1.70844e-06 0.0264428 0.735683 0.215906 0.330245 3.57985e-06 2
-0.00422572 -0.00153699 0.0321355 0.735683 0.215906 0.330245 9.92606e-07 2
-0.00846802 -0.00217412 0.0246689 0.735683 0.215906 0.330245 7.0831e-06 2
-0.00665737 -0.000526564 0.0296682 0.735683 0.215906 0.330245 4.37569e-06 2
-0.0016964 -0.000495719 0.0318454 0.735683 0.215906 0.330245 2.36165e-08 2
-0.00634739 -0.00676722 0.0289247 0.735683 0.215906 0.330245 2.97053e-06 2
-0.00489314 -0.00497579 0.0278051 0.735683 0.215906 0.330245 1.82575e-06 2
-0.00494049 -0.0049757 0.0290761 0.735683 0.215906 0.330245 1.35574e-06 2
-0.000794192 -0.000925935 0.0168714 0.735683 0.215906 0.330245 8.61867e-07 2
-0.0052167 -0.00789726 0.0316727 0.735683 0.215906 0.330245 3.32341e-06 2
-0.00387332 -0.00862415 0.0255078 0.735683 0.215906 0.330245 3.34574e-06 2
-0.00595587 -0.00318711 0.0228095 0.735683 0.215906 0.330245 5.4769e-06 2
-0.00848754 -0.00217074 0.0285568 0.735683 0.215906 0.330245 1.33606e-05 2
-0.000778767 0.000111604 0.0177825 0.735683 0.215906 0.330245 1.18222e-06 2
-0.00911737 -0.00106054 0.0192483 0.735683 0.215906 0.330245 6.40768e-06 2
-0.00373223 -0.0061154 0.0297153 0.735683 0.215906 0.330245 1.61541e-06 2
-0.00816941 -0.00368695 0.0195753 0.735683 0.215906 0.330245 9.81845e-06 2
-0.00756381 -0.00478848 0.0221202 0.735683 0.215906 0.330245 5.03154e-06 2
-0.00474823 -0.00813156 0.0239509 0.735683 0.215906 0.330245 2.36835e-06 2
-0.0064005 -0.00657735 0.0244158 0.735683 0.215906 0.330245 2.4538e-06 2
-0.00600853 -0.00318126 0.0297532 0.735683 0.215906 0.330245 2.88026e-06 2
-0.00482926 -0.00497591 0.0260904 0.735683 0.215906 0.330245 2.46646e-06 2
-0.00746278 -0.00497269 0.0308727 0.735683 0.215906 0.330245 1.03038e-05 2
-0.0110554 -0.0021837 0.0269478 0.735683 0.215906 0.330245 3.17771e-06 2
-0.00634301 -0.000614772 0.0216802 0.735683 0.215906 0.330245 7.1536e-06 2
-0.0114111 0.00142326 0.0225233 0.735683 0.215906 0.330245 5.50931e-07 2
-0.00123091 -0.00176644 0.0294719 0.735683 0.215906 0.330245 2.04528e-07 2
-0.00318072 -0.00635912 0.0246701 0.735683 0.215906 0.330245 1.04599e-06 2
-0.00495921 -0.00477559 0.0227439 0.735683 0.215906 0.330245 2.37885e-06 2
-0.00590012 -0.00216116 0.0262778 0.735683 0.215906 0.330245 6.611e-06 2
-0.00570517 -0.00746271 0.023555 0.735683 0.215906 0.330245 1.88039e-06 2
-0.00259426 -0.00880547 0.0210902 0.735683 0.215906 0.330245 2.26409e-06 2
0.000380159 -0.00175758 0.0294919 0.735683 0.215906 0.330245 3.96547e-07 2
-0.00136224 -0.0069237 0.0164969 0.735683 0.215906 0.330245 7.64129e-07 2
-0.00256835 -0.00408953 0.0267783 0.735683 0.215906 0.330245 1.47147e-06 2
0.00354544 -0.00875076 0.0311093 0.735683 0.215906 0.330245 1.36428e-06 2
7.94611e-05 -0.000552641 0.0216095 0.735683 0.215906 0.330245 9.21237e-07 2
-0.00170761 -0.00902677 0.0261208 0.735683 0.215906 0.330245 4.41184e-06 2
-0.0001339 -0.00488454 0.017049 0.735683 0.215906 0.330245 7.42463e-07 2
-0.000368502 -0.00183267 0.0179625 0.735683 0.215906 0.330245 5.88236e-07 2
0.00141337 -0.0036349 0.0233586 0.735683 0.215906 0.330245 1.13955e-06 2
-0.000770192 -0.00698759 0.0327716 0.735683 0.215906 0.330245 3.46269e-06 2
0.00167614 -0.0067269 0.0292612 0.735683 0.215906 0.330245 2.39616e-06 2
0.00120171 -0.00705403 0.0182846 0.735683 0.215906 0.330245 3.78988e-06 2
-0.000425695 -0.00176222 0.0302021 0.735683 0.215906 0.330245 6.19916e-07 2
-0.000439051 -0.00228091 0.0311485 0.735683 0.215906 0.330245 1.53347e-07 2
2.59531e-06 -0.00791437 0.023134 0.735683 0.215906 0.330245 3.69365e-06 2
0.00140808 -0.00363679 0.025632 0.735683 0.215906 0.330245 6.54566e-07 2
0.00101893 -0.00588122 0.0220404 0.735683 0.215906 0.330245 4.30267e-06 2
-0.00147428 -0.00478965 0.0302865 0.735683 0.215906 0.330245 1.38061e-06 2
0.00178809 -0.00339376 0.0265795 0.735683 0.215906 0.330245 6.93909e-07 2
0.000689208 -0.00198093 0.0168745 0.735683 0.215906 0.330245 5.37476e-07 2
-0.00326096 -0.00635456 0.027616 0.735683 0.215906 0.330245 1.04332e-06 2
0.00379 -0.0106483 0.0277986 0.735683 0.215906 0.330245 2.7351e-07 2
-0.00190016 -0.00455023 0.0302707 0.735683 0.215906 0.330245 8.01473e-07 2
0.00217718 -0.0079596 0.0207289 0.735683 0.215906 0.330245 4.50979e-06 2
0.00275461 -0.00870428 0.0295478 0.735683 0.215906 0.330245 4.61885e-07 2
-9.26543e-06 -0.00252104 0.032853 0.735683 0.215906 0.330245 2.45957e-07 2
-0.00141612 -0.00694794 0.0176167 0.735683 0.215906 0.330245 3.2269e-06 2
7.21427e-06 -0.00100671 0.0331104 0.735683 0.215906 0.330245 1.09039e-06 2
-6.40086e-06 -0.00100167 0.0290613 0.735683 0.215906 0.330245 8.16028e-08 2
0.000356704 -0.0022753 0.0276274 0.735683 0.215906 0.330245 2.19813e-07 2
-0.00185281 -0.00455032 0.0289997 0.735683 0.215906 0.330245 1.07932e-06 2
-0.00280626 -0.00881148 0.0194444 0.735683 0.215906 0.330245 5.15563e-06 2
-0.000696562 -0.0069955 0.0273006 0.735683 0.215906 0.330245 3.21697e-06 2
0.00338717 -0.00606208 0.03155 0.735683 0.215906 0.330245 1.87852e-06 2
0.000352327 -0.00900151 0.0335466 0.735683 0.215906 0.330245 1.09812e-05 2
0.00175095 -0.00451588 0.0300328 0.735683 0.215906 0.330245 1.23394e-06 2
-0.00200451 -0.00456649 0.0174464 0.735683 0.215906 0.330245 1.73218e-06 2
0.00213093 -0.00427181 0.0293067 0.735683 0.215906 0.330245 9.8638e-07 2
0.00320923 -0.0099059 0.0220973 0.735683 0.215906 0.330245 2.22454e-06 2
-0.00291423 -0.0065657 0.0236768 0.735683 0.215906 0.330245 3.78351e-07 2
-0.00443852 -0.0083709 0.0309471 0.735683 0.215906 0.330245 6.27671e-06 2
-0.000696537 -0.00699655 0.0289742 0.735683 0.215906 0.330245 3.27353e-06 2
-0.000425052 -0.00176179 0.0287616 0.735683 0.215906 0.330245 2.42702e-08 2
-1.31752e-05 -0.00252034 0.0311644 0.735683 0.215906 0.330245 2.45957e-07 2
-0.000385271 -0.00228008 0.026623 0.735683 0.215906 0.330245 2.41449e-07 2
-0.00189789 -0.00453254 0.0225832 0.735683 0.215906 0.330245 2.07037e-06 2
0.00255906 -0.00896211 0.0309287 0.735683 0.215906 0.330245 2.75534e-06 2
-0.00182675 -0.00901297 0.0310345 0.735683 0.215906 0.330245 8.17873e-06 2
-0.00368488 -0.00611549 0.0284444 0.735683 0.215906 0.330245 2.17544e-06 2
-0.0025489 -0.00680275 0.0222897 0.735683 0.215906 0.330245 2.83605e-06 2
-0.00382259 -0.0108446 0.0205381 0.735683 0.215906 0.330245 6.90746e-07 2
0.00103801 -0.00985946 0.0230585 0.735683 0.215906 0.330245 3.01638e-06 2
0.000379675 -0.00788013 0.0252206 0.735683 0.215906 0.330245 5.0545e-06 2
-0.000153159 -0.00197747 0.0168134 0.735683 0.215906 0.330245 3.57986e-07 2
