ply
format ascii 1.0
comment Created by Open3D
element vertex 790
property float32 x
property float32 y
property float32 z
property float32 red
property float32 green
property float32 blue
property uint8 segmentation
end_header
0.0138167 -0.157994 0.00575694 0.294118 0.294118 0.294118 0
-0.00693106 -0.125772 0.0123234 0.294118 0.294118 0.294118 0
-0.0048932 -0.0947157 -0.00767977 0.898039 0.917647 0.929412 2
-0.0102973 0.0291969 0.0465801 0.752941 0.752941 0.752941 1
0.014 -0.161589 0.0022699 0.294118 0.294118 0.294118 0
-0.00768621 -0.241306 0.0151433 0.294118 0.294118 0.294118 0
0.00990106 0.0176133 0.0533203 0.752941 0.752941 0.752941 1
-0.0117267 0.0209912 -0.0357045 0.752941 0.752941 0.752941 1
-0.0131643 -0.184906 0.0082406 0.294118 0.294118 0.294118 0
-0.0139559 -0.256411 -0.00408795 0.294118 0.294118 0.294118 0
0.0048932 -0.216889 0.0166028 0.294118 0.294118 0.294118 0
0.00747172 -0.0696978 0.0025284 0.898039 0.917647 0.929412 2
-0.0122903 -0.143647 -0.00869841 0.294118 0.294118 0.294118 0
0.00698436 0.0092394 -0.0371264 0.752941 0.752941 0.752941 1
-0.00152524 -0.27 0.0036329 0.294118 0.294118 0.294118 0
-0.0124539 0.0217136 0.0599309 0.752941 0.752941 0.752941 1
0.0065436 -0.16567 -0.0158673 0.294118 0.294118 0.294118 0
-0.0017005 0.0354231 0.0278887 0.752941 0.752941 0.752941 1
-0.0122157 -0.235332 -0.0102824 0.294118 0.294118 0.294118 0
0.0139378 -0.226823 0.00456142 0.294118 0.294118 0.294118 0
0.0062577 -0.174309 -0.0159833 0.294118 0.294118 0.294118 0
0.0110328 -0.167646 0.0121176 0.294118 0.294118 0.294118 0
-0.00735891 -0.267039 0.0153788 0.294118 0.294118 0.294118 0
-0.00992815 0.0308559 0.061 0.752941 0.752941 0.752941 1
-0.0145215 0.00584297 -0.0535768 0.752941 0.752941 0.752941 1
-0.0129114 -0.165654 -0.00887707 0.294118 0.294118 0.294118 0
-0.00617717 -0.122855 0.0124509 0.294118 0.294118 0.294118 0
-0.0136404 -0.219851 -0.0066301 0.294118 0.294118 0.294118 0
-0.00885258 -0.0985293 -0.000793766 0.294118 0.294118 0.294118 0
-0.005193 -0.00916421 -0.0560048 0.752941 0.752941 0.752941 1
-0.0131929 -0.144298 0.00612539 0.294118 0.294118 0.294118 0
-0.00114786 0.00531459 0.00954328 0.752941 0.752941 0.752941 1
-0.0057459 0.0318487 0.0355307 0.752941 0.752941 0.752941 1
-0.000581428 0.0345507 0.0352009 0.752941 0.752941 0.752941 1
-0.0137254 -0.184065 -0.00625815 0.294118 0.294118 0.294118 0
-0.0076397 -0.000197311 -0.00371634 0.898039 0.917647 0.929412 2
-0.00326062 0.0339189 -0.0269803 0.752941 0.752941 0.752941 1
-0.000569396 -0.0280132 0.00916923 0.898039 0.917647 0.929412 2
0.014 -0.250334 0.000592329 0.294118 0.294118 0.294118 0
3.82222e-05 0.0127718 -0.0292127 0.752941 0.752941 0.752941 1
0.0105996 -0.164883 0.0126459 0.294118 0.294118 0.294118 0
-0.00867678 -0.194252 -0.014458 0.294118 0.294118 0.294118 0
-0.000605334 0.034211 -0.0263558 0.752941 0.752941 0.752941 1
0.00259611 -0.216037 -0.0172414 0.294118 0.294118 0.294118 0
-0.00660456 -0.0171684 -0.00543209 0.898039 0.917647 0.929412 2
0.00743535 -0.0446478 -0.00294345 0.898039 0.917647 0.929412 2
-0.00778648 -0.0220533 0.00232395 0.898039 0.917647 0.929412 2
-0.0114056 -0.249982 -0.0115615 0.294118 0.294118 0.294118 0
-0.00775479 -0.0295659 0.000412132 0.898039 0.917647 0.929412 2
0.00743535 -0.00977637 0.00399514 0.898039 0.917647 0.929412 2
0.00406613 -0.113324 -0.0122843 0.294118 0.294118 0.294118 0
0.01 0.0180364 -0.00655366 0.752941 0.752941 0.752941 1
0.00196093 -0.050519 -0.00922077 0.898039 0.917647 0.929412 2
-0.00556085 -0.0139592 -0.0584867 0.752941 0.752941 0.752941 1
-0.00281294 -0.108223 -0.0120812 0.294118 0.294118 0.294118 0
0.00999236 0.0381862 -0.00561004 0.752941 0.752941 0.752941 1
0.01 0.0104099 -0.00972939 0.752941 0.752941 0.752941 1
0.00719258 -0.0837673 -0.00408795 0.898039 0.917647 0.929412 2
0.01 0.0136585 -0.00549154 0.752941 0.752941 0.752941 1
-0.00513348 -0.0993376 -0.0098486 0.294118 0.294118 0.294118 0
-0.014 -0.169898 -0.00255199 0.294118 0.294118 0.294118 0
-0.0070255 -0.165402 -0.0155993 0.294118 0.294118 0.294118 0
0.0125102 -0.133446 0.00240811 0.294118 0.294118 0.294118 0
-0.0138033 -0.150056 0.00577489 0.294118 0.294118 0.294118 0
-0.01 0.0372263 -0.0012712 0.752941 0.752941 0.752941 1
0.00739064 -0.00976378 -0.00408795 0.898039 0.917647 0.929412 2
-0.0136207 -0.239075 0.00659253 0.294118 0.294118 0.294118 0
0.00481518 -0.0163358 -0.0626733 0.752941 0.752941 0.752941 1
-0.00753589 0.017359 0.0500812 0.752941 0.752941 0.752941 1
0.0136451 -0.187371 -0.0066301 0.294118 0.294118 0.294118 0
-0.00751728 -0.0392063 0.000520766 0.898039 0.917647 0.929412 2
0.0114344 -0.212028 -0.0114885 0.294118 0.294118 0.294118 0
-0.00496964 0.00741974 -0.055126 0.752941 0.752941 0.752941 1
-0.00862052 -0.176052 -0.0144969 0.294118 0.294118 0.294118 0
-0.00735891 -0.0294894 -0.00380088 0.898039 0.917647 0.929412 2
-0.0100038 0.0126343 -0.0324717 0.752941 0.752941 0.752941 1
-0.0061773 -0.09754 0.00623814 0.898039 0.917647 0.929412 2
0.00990106 0.0148933 -0.0503389 0.752941 0.752941 0.752941 1
-0.0104772 -0.110858 -0.00169868 0.294118 0.294118 0.294118 0
0.0139124 -0.215302 0.00473397 0.294118 0.294118 0.294118 0
0.00156414 0.0225404 -0.0435393 0.752941 0.752941 0.752941 1
-0.00354746 0.0174288 0.0451498 0.752941 0.752941 0.752941 1
-0.00740689 -0.0960636 -0.00310828 0.898039 0.917647 0.929412 2
-0.0076756 0.0321169 0.0255006 0.752941 0.752941 0.752941 1
0.00242749 -0.0744584 0.00909048 0.898039 0.917647 0.929412 2
0.0148325 -0.0150546 -0.0604181 0.752941 0.752941 0.752941 1
0.014 -0.197781 -0.00264689 0.294118 0.294118 0.294118 0
-0.0048932 0.00988545 0.0147036 0.752941 0.752941 0.752941 1
-0.00579056 -0.246472 0.0161976 0.294118 0.294118 0.294118 0
0.0102729 0.0198452 -0.0256264 0.752941 0.752941 0.752941 1
0.00743383 -0.041178 -0.00296066 0.898039 0.917647 0.929412 2
0.00987545 -0.229288 -0.0134165 0.294118 0.294118 0.294118 0
0.00415119 -0.113163 0.0122299 0.294118 0.294118 0.294118 0
0.0126961 0.0124276 -0.0419037 0.752941 0.752941 0.752941 1
0.0123717 -0.158515 0.0100294 0.294118 0.294118 0.294118 0
0.01 0.0331297 -0.000661636 0.752941 0.752941 0.752941 1
-0.00769025 0.0246797 -0.0411824 0.752941 0.752941 0.752941 1
-0.014 -0.158808 0.00246356 0.294118 0.294118 0.294118 0
0.00242749 0.0381359 0.0467459 0.752941 0.752941 0.752941 1
-0.00242749 -0.189761 -0.0172861 0.294118 0.294118 0.294118 0
0.0120919 -0.177785 -0.0105472 0.294118 0.294118 0.294118 0
-0.00521054 -0.0417833 0.00739364 0.898039 0.917647 0.929412 2
-0.00800817 0.0143532 -0.0241444 0.752941 0.752941 0.752941 1
0.00696304 -0.118516 -0.0112788 0.294118 0.294118 0.294118 0
0.0136682 -0.155317 0.000225908 0.294118 0.294118 0.294118 0
-0.00236697 -0.245729 -0.0172965 0.294118 0.294118 0.294118 0
0.00569043 -0.059078 0.00688328 0.898039 0.917647 0.929412 2
0.00734298 -0.0798972 -0.00352104 0.898039 0.917647 0.929412 2
0.00272013 0.0272219 -0.0380396 0.752941 0.752941 0.752941 1
-0.00693106 -0.0941611 0.00486058 0.898039 0.917647 0.929412 2
-0.0029863 -0.0711003 -0.00887564 0.898039 0.917647 0.929412 2
0.00907785 0.0246797 0.0431737 0.752941 0.752941 0.752941 1
-0.00995877 -0.128923 -0.00970607 0.294118 0.294118 0.294118 0
0.01 0.027989 0.00756578 0.752941 0.752941 0.752941 1
-0.01 0.0379104 -0.0039661 0.752941 0.752941 0.752941 1
-0.014 -0.182477 -0.00234603 0.294118 0.294118 0.294118 0
0.0048932 -0.118699 -0.0126157 0.294118 0.294118 0.294118 0
-0.014 -0.226823 0.00084347 0.294118 0.294118 0.294118 0
-0.00738015 -0.0632268 0.00330918 0.898039 0.917647 0.929412 2
-0.014 -0.182982 -0.000638155 0.294118 0.294118 0.294118 0
0.01 0.0246797 -0.0140272 0.752941 0.752941 0.752941 1
-0.0109611 0.0188364 0.0590713 0.752941 0.752941 0.752941 1
0.000721154 -0.0147251 0.00883572 0.898039 0.917647 0.929412 2
-0.00306532 0.0097093 -0.053848 0.752941 0.752941 0.752941 1
-0.00834339 0.039474 -0.00715054 0.752941 0.752941 0.752941 1
0.00966771 -0.101863 -0.00162224 0.294118 0.294118 0.294118 0
0.00161521 -0.202183 0.0173601 0.294118 0.294118 0.294118 0
3.82222e-05 -0.110223 -0.0127257 0.294118 0.294118 0.294118 0
-0.0129638 0.0198247 -0.0436157 0.752941 0.752941 0.752941 1
0.00761785 -0.0351726 -0.0003342 0.898039 0.917647 0.929412 2
0.01 0.0197596 0.00577944 0.752941 0.752941 0.752941 1
3.82222e-05 -0.0197031 0.00899099 0.898039 0.917647 0.929412 2
0.0110292 -0.23422 0.012114 0.294118 0.294118 0.294118 0
-0.00609157 -0.0047454 -0.0603155 0.752941 0.752941 0.752941 1
-0.0048932 -0.0445969 0.0076767 0.898039 0.917647 0.929412 2
-0.00518754 -0.0690478 0.00740481 0.898039 0.917647 0.929412 2
-0.00165899 -0.0147716 0.00868712 0.898039 0.917647 0.929412 2
-0.0048932 -0.0146952 -0.0624672 0.752941 0.752941 0.752941 1
0.00743067 -0.00984022 -0.00399768 0.898039 0.917647 0.929412 2
-0.0123785 0.0197483 -0.039873 0.752941 0.752941 0.752941 1
-0.0119091 -0.197158 -0.0108243 0.294118 0.294118 0.294118 0
-0.01 0.0216154 -0.0192763 0.752941 0.752941 0.752941 1
-0.0138329 0.0296288 0.0558108 0.752941 0.752941 0.752941 1
0.0126383 0.0301466 0.0498114 0.752941 0.752941 0.752941 1
-0.0107307 0.0304206 -0.0293358 0.752941 0.752941 0.752941 1
-0.0138534 -0.26874 0.00128758 0.294118 0.294118 0.294118 0
-0.00540235 -0.110858 -0.0112917 0.294118 0.294118 0.294118 0
0.00250393 -0.197158 -0.0172658 0.294118 0.294118 0.294118 0
-0.01 0.013519 -0.0139508 0.752941 0.752941 0.752941 1
-0.01 0.0311675 -0.00417134 0.752941 0.752941 0.752941 1
0.00824488 0.0123275 0.0156608 0.752941 0.752941 0.752941 1
0.005755 -0.00700769 -0.0546743 0.752941 0.752941 0.752941 1
0.01 0.0283894 -0.0189586 0.752941 0.752941 0.752941 1
-0.0075 -0.0832739 0.000383011 0.898039 0.917647 0.929412 2
-0.00833332 -0.00236665 0.00130519 0.898039 0.917647 0.929412 2
0.0150107 -0.00436711 -0.0567047 0.752941 0.752941 0.752941 1
0.0117676 0.02063 -0.0359662 0.752941 0.752941 0.752941 1
-0.00803035 -0.138869 -0.0133677 0.294118 0.294118 0.294118 0
-0.00892573 -0.26803 0.01428 0.294118 0.294118 0.294118 0
0.00397174 -0.251403 0.0168964 0.294118 0.294118 0.294118 0
0.00876062 -0.160528 0.0144001 0.294118 0.294118 0.294118 0
-0.0139527 -0.22428 -0.00416439 0.294118 0.294118 0.294118 0
-0.00786432 -0.117507 -0.0103203 0.294118 0.294118 0.294118 0
-0.0087502 0.0359718 -0.0208308 0.752941 0.752941 0.752941 1
-0.00735891 0.0296876 -0.0345169 0.752941 0.752941 0.752941 1
-0.00413002 -0.123186 -0.0135064 0.294118 0.294118 0.294118 0
0.00727064 -0.0120693 0.0043128 0.898039 0.917647 0.929412 2
-0.00414579 -0.209563 -0.0168305 0.294118 0.294118 0.294118 0
0.00318986 -0.211952 -0.017084 0.294118 0.294118 0.294118 0
0.00735891 0.000410013 -0.0584968 0.752941 0.752941 0.752941 1
-0.00867458 -0.229508 0.0144595 0.294118 0.294118 0.294118 0
-0.0123668 -0.14477 -0.00880711 0.294118 0.294118 0.294118 0
-0.0132272 -0.217393 0.00804825 0.294118 0.294118 0.294118 0
0.0075 -0.0851814 -0.000801692 0.898039 0.917647 0.929412 2
-0.00542529 0.0168485 0.061 0.752941 0.752941 0.752941 1
-0.00824199 0.00219583 -0.0468376 0.752941 0.752941 0.752941 1
-0.00550876 -0.0104165 -0.0617266 0.752941 0.752941 0.752941 1
-0.00561984 -0.147843 0.0160269 0.294118 0.294118 0.294118 0
0.00308103 -0.218483 -0.0171128 0.294118 0.294118 0.294118 0
-0.00674368 -0.228203 0.0157497 0.294118 0.294118 0.294118 0
-0.0048932 -0.0633323 -0.00767977 0.898039 0.917647 0.929412 2
-0.00669547 -0.13066 0.013172 0.294118 0.294118 0.294118 0
0.00987233 -0.227516 -0.0134225 0.294118 0.294118 0.294118 0
0.00836965 -0.00230889 0.00103805 0.898039 0.917647 0.929412 2
0.0106996 -0.176414 -0.0125168 0.294118 0.294118 0.294118 0
0.0106263 -0.130484 0.0089659 0.294118 0.294118 0.294118 0
-0.00803115 0.0297369 0.0401462 0.752941 0.752941 0.752941 1
0.00735891 -0.169304 0.0153688 0.294118 0.294118 0.294118 0
-0.00530025 -0.00604557 -0.0540088 0.752941 0.752941 0.752941 1
-0.012999 -0.192271 0.00865104 0.294118 0.294118 0.294118 0
-0.0057459 -0.0177599 -0.0628032 0.752941 0.752941 0.752941 1
-0.013402 0.014357 -0.0464175 0.752941 0.752941 0.752941 1
0.0138721 0.00662029 -0.0494237 0.752941 0.752941 0.752941 1
-0.01 0.0296876 -0.00909581 0.752941 0.752941 0.752941 1
-0.00656459 -0.239062 -0.0158329 0.294118 0.294118 0.294118 0
-0.01 0.0348414 0.0118805 0.752941 0.752941 0.752941 1
0.0126849 -0.212708 -0.00930526 0.294118 0.294118 0.294118 0
0.0122903 -0.00236665 -0.0513676 0.752941 0.752941 0.752941 1
-0.00569236 -0.0383345 0.00685692 0.898039 0.917647 0.929412 2
-0.00223669 -0.041818 0.00915672 0.898039 0.917647 0.929412 2
0.00678838 -0.08441 -0.00516826 0.898039 0.917647 0.929412 2
-0.0106885 -0.189675 0.0125416 0.294118 0.294118 0.294118 0
0.00994578 0.0381306 -0.00640468 0.752941 0.752941 0.752941 1
-0.0113117 -0.159146 0.0116872 0.294118 0.294118 0.294118 0
0.00970335 -0.133773 0.0109499 0.294118 0.294118 0.294118 0
0.0107509 0.016767 -0.0294645 0.752941 0.752941 0.752941 1
-0.0110305 -0.19368 0.0120995 0.294118 0.294118 0.294118 0
0.0120456 -0.14964 0.0105563 0.294118 0.294118 0.294118 0
0.00747963 -0.0904657 -0.00249155 0.898039 0.917647 0.929412 2
0.0123535 -0.153796 0.0100633 0.294118 0.294118 0.294118 0
0.00735891 0.0297567 0.061 0.752941 0.752941 0.752941 1
-0.0127422 0.0324925 0.0487941 0.752941 0.752941 0.752941 1
0.0074171 -0.0541465 0.00309807 0.898039 0.917647 0.929412 2
-0.00243027 -0.17785 0.0172854 0.294118 0.294118 0.294118 0
0.00189744 -0.0365709 -0.00915728 0.898039 0.917647 0.929412 2
0.00253607 0.0355076 0.0280301 0.752941 0.752941 0.752941 1
-0.00231292 -0.250817 0.0173032 0.294118 0.294118 0.294118 0
0.00184059 -0.185488 0.00924184 0.294118 0.294118 0.294118 0
0.00631598 0.0118455 -0.031683 0.752941 0.752941 0.752941 1
-0.000333553 -0.0243596 -0.00909801 0.898039 0.917647 0.929412 2
0.00968741 0.0348208 0.0494532 0.752941 0.752941 0.752941 1
9.70742e-05 0.00353006 -0.0161767 0.752941 0.752941 0.752941 1
0.00409929 -0.0663629 0.00827609 0.898039 0.917647 0.929412 2
-0.01 0.0334129 0.0131115 0.752941 0.752941 0.752941 1
-0.012475 -0.133936 -0.00441615 0.294118 0.294118 0.294118 0
-0.00622207 -0.24262 -0.0159946 0.294118 0.294118 0.294118 0
0.00496964 -0.135596 0.0147427 0.294118 0.294118 0.294118 0
-0.0124317 -0.132575 0.00270927 0.294118 0.294118 0.294118 0
0.014 -0.170035 -0.00348483 0.294118 0.294118 0.294118 0
0.00587381 -0.262762 0.0161691 0.294118 0.294118 0.294118 0
-0.00364281 -0.0574931 -0.00854845 0.898039 0.917647 0.929412 2
0.0075 -0.086556 -0.00176827 0.898039 0.917647 0.929412 2
0.00866118 0.01311 -0.0288679 0.752941 0.752941 0.752941 1
-0.00990106 0.0352008 -0.0200598 0.752941 0.752941 0.752941 1
0.00252673 -0.170876 0.0172598 0.294118 0.294118 0.294118 0
-0.0122323 -0.0232077 -0.0615972 0.752941 0.752941 0.752941 1
-0.01 0.0174242 0.0100608 0.752941 0.752941 0.752941 1
0.0135816 0.0250757 0.059806 0.752941 0.752941 0.752941 1
-0.00970296 -0.223037 0.0135921 0.294118 0.294118 0.294118 0
0.00726608 -0.15476 0.015433 0.294118 0.294118 0.294118 0
-0.0136719 -0.168962 -0.00649185 0.294118 0.294118 0.294118 0
3.82222e-05 0.00315555 0.00849841 0.898039 0.917647 0.929412 2
-0.0136797 -0.267817 -0.00642893 0.294118 0.294118 0.294118 0
0.0138111 -0.219805 -0.00554684 0.294118 0.294118 0.294118 0
0.00096678 -0.00195078 -0.0592564 0.752941 0.752941 0.752941 1
-0.00111665 -0.214494 0.0174033 0.294118 0.294118 0.294118 0
-0.00219877 0.0247517 -0.0411022 0.752941 0.752941 0.752941 1
0.01 0.0171363 0.00149177 0.752941 0.752941 0.752941 1
0.00820226 0.0388235 0.053213 0.752941 0.752941 0.752941 1
-0.00820905 -0.00810518 -0.0012712 0.898039 0.917647 0.929412 2
-0.010294 0.0234368 -0.0258391 0.752941 0.752941 0.752941 1
-0.0115099 -0.144753 -0.0104251 0.294118 0.294118 0.294118 0
-0.00948012 0.0354828 -0.0203418 0.752941 0.752941 0.752941 1
-0.010212 0.00675692 -0.04115 0.752941 0.752941 0.752941 1
0.0075 -0.06215 -0.000568076 0.898039 0.917647 0.929412 2
0.013496 -0.144669 0.00390127 0.294118 0.294118 0.294118 0
-0.00452604 0.0192956 0.061 0.752941 0.752941 0.752941 1
-0.00326406 -0.0485814 -0.00874623 0.898039 0.917647 0.929412 2
0.0103245 -0.15837 -0.0129538 0.294118 0.294118 0.294118 0
-0.00601908 -0.0273543 -0.00632326 0.898039 0.917647 0.929412 2
-0.0121186 -0.141582 -0.0085713 0.294118 0.294118 0.294118 0
0.00735936 -0.0236727 -0.0630139 0.752941 0.752941 0.752941 1
-0.00912098 -0.181229 0.0141132 0.294118 0.294118 0.294118 0
3.82222e-05 -0.155241 -0.0174967 0.294118 0.294118 0.294118 0
-0.00551832 -0.00287462 -0.00650176 0.898039 0.917647 0.929412 2
0.00474233 -0.0142597 -0.00731763 0.898039 0.917647 0.929412 2
0.00173249 -0.113286 -0.0129382 0.294118 0.294118 0.294118 0
-0.00794778 -0.0205639 -0.0629603 0.752941 0.752941 0.752941 1
-0.0078123 0.0133043 -0.0275417 0.752941 0.752941 0.752941 1
-0.0107216 -0.118766 0.00569844 0.294118 0.294118 0.294118 0
-0.014 -0.205733 0.00323273 0.294118 0.294118 0.294118 0
0.0089561 -0.155317 -0.0142603 0.294118 0.294118 0.294118 0
0.00423832 0.00285808 -0.0574579 0.752941 0.752941 0.752941 1
0.00618303 -0.0517573 -0.00623708 0.898039 0.917647 0.929412 2
0.014 -0.214494 -0.00235046 0.294118 0.294118 0.294118 0
0.0139843 -0.15177 -0.00395443 0.294118 0.294118 0.294118 0
0.00743535 -0.145656 0.0147161 0.294118 0.294118 0.294118 0
0.0029717 -0.0112616 -0.0619044 0.752941 0.752941 0.752941 1
0.01392 -0.196571 -0.00448405 0.294118 0.294118 0.294118 0
-0.00717966 0.0272163 0.0367432 0.752941 0.752941 0.752941 1
-0.011116 -0.21415 -0.0119341 0.294118 0.294118 0.294118 0
-0.0136228 0.0079948 -0.0478298 0.752941 0.752941 0.752941 1
-0.0135986 -0.205343 0.000252038 0.294118 0.294118 0.294118 0
0.00559717 -0.129729 -0.0136953 0.294118 0.294118 0.294118 0
-0.00954311 -0.188461 0.0137428 0.294118 0.294118 0.294118 0
-0.0116548 0.0239167 -0.0352447 0.752941 0.752941 0.752941 1
-0.00310213 -0.0783259 0.00881812 0.898039 0.917647 0.929412 2
-0.01 0.0136271 0.00816415 0.752941 0.752941 0.752941 1
-0.014 -0.236609 -0.00169868 0.294118 0.294118 0.294118 0
0.0122903 -0.140446 0.00784743 0.294118 0.294118 0.294118 0
-0.0139076 -0.170808 0.00488441 0.294118 0.294118 0.294118 0
-0.00498951 0.04 0.00816415 0.752941 0.752941 0.752941 1
-0.00979617 -0.11969 -0.00813717 0.294118 0.294118 0.294118 0
0.0127855 -0.23422 -0.00909581 0.294118 0.294118 0.294118 0
-0.00581079 -0.170549 0.0161962 0.294118 0.294118 0.294118 0
-3.82222e-05 -0.27 0.00816415 0.294118 0.294118 0.294118 0
-0.0101115 -0.256182 -0.0130172 0.294118 0.294118 0.294118 0
0.00250393 0.00525049 0.00989052 0.752941 0.752941 0.752941 1
-0.01 0.0197483 -0.0164165 0.752941 0.752941 0.752941 1
0.014 -0.256411 0.000767025 0.294118 0.294118 0.294118 0
0.00250393 0.0161172 0.019946 0.752941 0.752941 0.752941 1
-0.014 -0.256912 -0.00234603 0.294118 0.294118 0.294118 0
0.0121078 -0.237133 -0.010507 0.294118 0.294118 0.294118 0
0.01 0.0279393 -0.0147941 0.752941 0.752941 0.752941 1
-0.00985989 -0.103999 0.000472322 0.294118 0.294118 0.294118 0
0.00598699 -0.0119564 0.00617518 0.898039 0.917647 0.929412 2
-0.00518754 -0.0784694 0.00740125 0.898039 0.917647 0.929412 2
0.00760919 -0.0238928 -0.00311062 0.898039 0.917647 0.929412 2
-0.014 -0.241502 0.00147576 0.294118 0.294118 0.294118 0
0.0080161 -0.253551 0.0149191 0.294118 0.294118 0.294118 0
0.01 0.00654021 -0.000573968 0.752941 0.752941 0.752941 1
0.0087233 0.0378186 -0.0144931 0.752941 0.752941 0.752941 1
-0.00922435 -0.256411 0.00577489 0.294118 0.294118 0.294118 0
-0.00137765 -0.173203 -0.0173912 0.294118 0.294118 0.294118 0
0.00743535 -0.0142504 -0.00392935 0.898039 0.917647 0.929412 2
0.00743535 -0.118255 -0.0108278 0.294118 0.294118 0.294118 0
-0.0137881 -0.239151 0.00577489 0.294118 0.294118 0.294118 0
0.000880982 -0.147736 -0.0171525 0.294118 0.294118 0.294118 0
0.00612048 -0.060248 0.0063293 0.898039 0.917647 0.929412 2
-0.00610101 0.022793 0.0393057 0.752941 0.752941 0.752941 1
-0.01 0.0315487 0.0050329 0.752941 0.752941 0.752941 1
0.00621583 -0.0253077 0.00604371 0.898039 0.917647 0.929412 2
0.014 -0.202142 -0.00162224 0.294118 0.294118 0.294118 0
4.30198e-05 -0.0595576 0.00949783 0.898039 0.917647 0.929412 2
0.00551378 -0.129342 0.0136807 0.294118 0.294118 0.294118 0
0.01 0.022214 -0.0168116 0.752941 0.752941 0.752941 1
-0.01 0.0288746 -0.000698287 0.752941 0.752941 0.752941 1
0.0123668 0.0246797 0.0608655 0.752941 0.752941 0.752941 1
-0.0106976 0.0282728 0.0476155 0.752941 0.752941 0.752941 1
0.0075 -0.0530825 0.00186164 0.898039 0.917647 0.929412 2
-0.01 0.0222904 -0.0109763 0.752941 0.752941 0.752941 1
-0.01 0.0227628 0.00759513 0.752941 0.752941 0.752941 1
0.00715207 -0.0516175 0.00424201 0.898039 0.917647 0.929412 2
-0.00207194 -0.181179 -0.0173206 0.294118 0.294118 0.294118 0
-0.00331338 0.0109627 -0.0336872 0.752941 0.752941 0.752941 1
-0.00698511 -0.0313403 -0.00479606 0.898039 0.917647 0.929412 2
0.00748933 -0.0498956 0.0022699 0.898039 0.917647 0.929412 2
-0.00765089 -0.109229 0.00918992 0.294118 0.294118 0.294118 0
-0.00250393 -0.00984022 -0.0616119 0.752941 0.752941 0.752941 1
-0.014 -0.212289 0.000388093 0.294118 0.294118 0.294118 0
-0.0119541 -0.202166 -0.0107613 0.294118 0.294118 0.294118 0
-0.00382441 -0.120281 0.0132677 0.294118 0.294118 0.294118 0
0.0094606 -0.137543 -0.0118528 0.294118 0.294118 0.294118 0
-0.00319574 -0.128414 0.01446 0.294118 0.294118 0.294118 0
-0.00344402 -0.094053 0.00865664 0.898039 0.917647 0.929412 2
0.000934552 0.0414487 0.0552568 0.752941 0.752941 0.752941 1
-0.0106998 -0.193407 -0.0125165 0.294118 0.294118 0.294118 0
-0.011381 -0.122466 0.00434491 0.294118 0.294118 0.294118 0
-0.00730725 0.0254501 0.035622 0.752941 0.752941 0.752941 1
4.30198e-05 -0.0244203 0.00910872 0.898039 0.917647 0.929412 2
-0.0128222 -0.192303 -0.00901937 0.294118 0.294118 0.294118 0
-0.0122903 -0.0104228 -0.0617203 0.752941 0.752941 0.752941 1
0.0125123 -0.146927 0.00662295 0.294118 0.294118 0.294118 0
0.00142867 0.0370689 -0.0189586 0.752941 0.752941 0.752941 1
0.0105041 -0.154776 0.0127548 0.294118 0.294118 0.294118 0
-0.00268571 -0.261188 -0.0172354 0.294118 0.294118 0.294118 0
0.00705401 -0.00976378 -0.061602 0.752941 0.752941 0.752941 1
-0.00102216 -0.260447 -0.00941203 0.898039 0.917647 0.929412 2
-0.000609677 0.00749619 -0.0412613 0.752941 0.752941 0.752941 1
0.00772687 -0.239361 0.0151145 0.294118 0.294118 0.294118 0
0.00707115 -0.0522626 -0.00447612 0.898039 0.917647 0.929412 2
-0.00422591 -0.120721 -0.0131552 0.294118 0.294118 0.294118 0
-0.00496964 -0.0899042 0.00759283 0.898039 0.917647 0.929412 2
-0.00553595 -0.236407 -0.0163065 0.294118 0.294118 0.294118 0
-0.00843768 0.0390281 -0.00982247 0.752941 0.752941 0.752941 1
-0.0107956 0.0174782 -0.0482441 0.752941 0.752941 0.752941 1
-0.0104313 -0.197158 -0.0128336 0.294118 0.294118 0.294118 0
0.0066021 -0.0926614 -0.00551738 0.898039 0.917647 0.929412 2
0.00160987 -0.00283105 -0.0565851 0.752941 0.752941 0.752941 1
0.01 0.00938407 0.012731 0.752941 0.752941 0.752941 1
0.00532763 -0.0688513 -0.00726945 0.898039 0.917647 0.929412 2
0.00250913 0.0279393 -0.0370447 0.752941 0.752941 0.752941 1
4.30198e-05 0.0278853 0.061 0.752941 0.752941 0.752941 1
-0.00496964 0.0399045 0.0484644 0.752941 0.752941 0.752941 1
-0.00524159 -0.21441 -0.0164422 0.294118 0.294118 0.294118 0
-0.0130716 -0.187295 -0.00849985 0.294118 0.294118 0.294118 0
-0.00708609 -0.253869 0.0155613 0.294118 0.294118 0.294118 0
0.0081482 -0.262992 0.0148372 0.294118 0.294118 0.294118 0
-0.0132917 -0.165103 -0.00768456 0.294118 0.294118 0.294118 0
-0.01 0.00654495 0.0082406 0.752941 0.752941 0.752941 1
0.00989172 0.0187242 0.0166774 0.752941 0.752941 0.752941 1
9.70742e-05 -0.128248 -0.0148859 0.294118 0.294118 0.294118 0
-0.0132495 0.0319958 0.056265 0.752941 0.752941 0.752941 1
-0.00981147 -0.103461 -0.000703707 0.294118 0.294118 0.294118 0
-0.009287 -0.27 0.00689791 0.294118 0.294118 0.294118 0
-0.0107751 -0.117044 0.004864 0.294118 0.294118 0.294118 0
0.0092298 0.0123452 -0.0314218 0.752941 0.752941 0.752941 1
0.0075 -0.0743365 -0.00118548 0.898039 0.917647 0.929412 2
0.0103496 -0.116902 -7.61785e-05 0.294118 0.294118 0.294118 0
0.0134116 -0.205167 0.00569844 0.294118 0.294118 0.294118 0
-0.00400238 0.0185657 -0.047349 0.752941 0.752941 0.752941 1
-0.00976056 0.0301687 0.0231626 0.752941 0.752941 0.752941 1
0.01 0.00890245 -0.0129519 0.752941 0.752941 0.752941 1
0.000174565 -0.26874 0.0173147 0.294118 0.294118 0.294118 0
-0.0075 -0.0598596 0.00084347 0.898039 0.917647 0.929412 2
-0.00579996 -0.259581 0.0162045 0.294118 0.294118 0.294118 0
0.014 -0.191106 0.000541005 0.294118 0.294118 0.294118 0
3.82222e-05 -0.0146458 0.00886456 0.898039 0.917647 0.929412 2
-0.0102974 0.00317076 -0.0457879 0.752941 0.752941 0.752941 1
0.0070171 -0.006877 0.00478981 0.898039 0.917647 0.929412 2
0.00270218 0.00973031 -0.0362186 0.752941 0.752941 0.752941 1
-0.00106335 0.0255373 -0.0401485 0.752941 0.752941 0.752941 1
-0.00109224 -0.0439395 0.00940896 0.898039 0.917647 0.929412 2
-0.00905858 -0.118255 0.00900453 0.294118 0.294118 0.294118 0
0.0139997 -0.16613 -0.00354228 0.294118 0.294118 0.294118 0
0.00250393 -0.0636674 0.00906757 0.898039 0.917647 0.929412 2
0.0139305 -0.204555 0.00466228 0.294118 0.294118 0.294118 0
-0.0113062 0.0174242 -0.0330157 0.752941 0.752941 0.752941 1
0.0131642 -0.208298 0.0082406 0.294118 0.294118 0.294118 0
-0.00349807 -0.17872 0.00861267 0.294118 0.294118 0.294118 0
0.0123319 0.0233322 -0.0395746 0.752941 0.752941 0.752941 1
0.00527358 -0.0889305 0.00731673 0.898039 0.917647 0.929412 2
-0.00537902 0.0234573 -0.0425436 0.752941 0.752941 0.752941 1
0.00844321 0.0386495 0.0537277 0.752941 0.752941 0.752941 1
-0.0105554 -0.203468 0.0126964 0.294118 0.294118 0.294118 0
-0.000515342 -0.131845 -0.0152927 0.294118 0.294118 0.294118 0
0.00761016 -0.0344209 -0.00165812 0.898039 0.917647 0.929412 2
0.01 0.019818 -0.0133245 0.752941 0.752941 0.752941 1
-0.00525721 0.0234696 -0.0425299 0.752941 0.752941 0.752941 1
0.0137629 -0.188172 -0.0060171 0.294118 0.294118 0.294118 0
0.00193311 -0.229902 -0.0173326 0.294118 0.294118 0.294118 0
0.00178654 -0.143543 0.0165905 0.294118 0.294118 0.294118 0
0.0048932 -0.0146952 0.00720432 0.898039 0.917647 0.929412 2
0.0100403 -0.106003 0.000767025 0.294118 0.294118 0.294118 0
-0.00735308 -0.142474 -0.0143336 0.294118 0.294118 0.294118 0
0.0075 -0.0808631 -0.000693188 0.898039 0.917647 0.929412 2
-0.00250393 -0.189837 -0.0172658 0.294118 0.294118 0.294118 0
0.00733441 -0.0238509 0.00401342 0.898039 0.917647 0.929412 2
0.0122903 -0.202089 0.0101269 0.294118 0.294118 0.294118 0
-0.0122903 0.0342029 0.0525469 0.752941 0.752941 0.752941 1
0.0119966 -0.22428 0.0107063 0.294118 0.294118 0.294118 0
-0.00990106 -0.219349 0.0133962 0.294118 0.294118 0.294118 0
0.00466116 -0.117919 0.0126222 0.294118 0.294118 0.294118 0
0.00705895 -0.151129 -0.0155762 0.294118 0.294118 0.294118 0
-0.0125758 0.0336381 0.0500812 0.752941 0.752941 0.752941 1
-0.00983904 -0.108001 0.00496847 0.294118 0.294118 0.294118 0
-0.0133418 0.0297369 0.0602511 0.752941 0.752941 0.752941 1
0.00337932 -0.0984444 0.0100624 0.294118 0.294118 0.294118 0
-0.01 0.00756132 0.0145034 0.752941 0.752941 0.752941 1
0.00532722 0.0198452 0.0441144 0.752941 0.752941 0.752941 1
-0.00062345 -0.11864 -0.0137033 0.294118 0.294118 0.294118 0
0.01 0.00675813 -0.0108076 0.752941 0.752941 0.752941 1
-0.00720588 0.0257842 0.034599 0.752941 0.752941 0.752941 1
-0.014 -0.154795 -0.00139701 0.294118 0.294118 0.294118 0
-0.0133301 0.0316772 0.0574954 0.752941 0.752941 0.752941 1
0.0125782 0.0148169 -0.04115 0.752941 0.752941 0.752941 1
-0.01 0.0170214 0.00149856 0.752941 0.752941 0.752941 1
-0.0139606 -0.230211 -0.00408795 0.294118 0.294118 0.294118 0
-0.00621234 -0.207436 -0.0159946 0.294118 0.294118 0.294118 0
0.00671955 0.00969623 -0.0182321 0.752941 0.752941 0.752941 1
0.00746918 -0.0766718 0.00253094 0.898039 0.917647 0.929412 2
-0.00425905 -0.0669717 0.00816415 0.898039 0.917647 0.929412 2
0.01 0.0109181 -0.0100361 0.752941 0.752941 0.752941 1
0.0116474 -0.125652 -0.00459494 0.294118 0.294118 0.294118 0
-0.00891896 -0.223481 -0.0142906 0.294118 0.294118 0.294118 0
-0.00105654 0.0384418 -0.0138119 0.752941 0.752941 0.752941 1
-0.0138867 0.00990252 -0.0495172 0.752941 0.752941 0.752941 1
0.00379209 -0.0102888 -0.061717 0.752941 0.752941 0.752941 1
3.82222e-05 -0.114186 -0.0132016 0.294118 0.294118 0.294118 0
-0.0124471 -0.159791 -0.00988069 0.294118 0.294118 0.294118 0
-0.00920338 0.0110593 -0.0169486 0.752941 0.752941 0.752941 1
-0.0017005 -0.187317 0.0173527 0.294118 0.294118 0.294118 0
-0.0131924 -0.141027 0.00180178 0.294118 0.294118 0.294118 0
0.003476 -0.202205 -0.0170081 0.294118 0.294118 0.294118 0
0.01 0.0222904 -0.0139508 0.752941 0.752941 0.752941 1
-0.01 0.0325378 -0.0175049 0.752941 0.752941 0.752941 1
0.0149829 -0.00418962 -0.0565272 0.752941 0.752941 0.752941 1
0.0137739 -0.22078 0.00600444 0.294118 0.294118 0.294118 0
-0.0118541 -0.159667 0.0109173 0.294118 0.294118 0.294118 0
0.01 0.0309763 0.00330918 0.752941 0.752941 0.752941 1
-0.0114369 -0.222163 -0.0114851 0.294118 0.294118 0.294118 0
-0.01 0.0221596 0.00961507 0.752941 0.752941 0.752941 1
-0.01 0.0144633 -0.00909581 0.752941 0.752941 0.752941 1
0.00990106 0.034619 -0.0216785 0.752941 0.752941 0.752941 1
0.0122813 -0.155218 -0.0066301 0.294118 0.294118 0.294118 0
-0.000656054 -0.110011 -0.0126683 0.294118 0.294118 0.294118 0
-0.0139876 0.0271454 0.0575548 0.752941 0.752941 0.752941 1
-0.00175455 -0.207436 -0.017348 0.294118 0.294118 0.294118 0
-0.01272 -0.155076 -0.00932083 0.294118 0.294118 0.294118 0
0.00106463 -0.176674 -0.0174078 0.294118 0.294118 0.294118 0
0.0105041 -0.160307 0.0127549 0.294118 0.294118 0.294118 0
0.00250393 0.0399556 -0.00169868 0.752941 0.752941 0.752941 1
0.00982461 -0.00436394 -0.0601886 0.752941 0.752941 0.752941 1
-0.00242749 0.0308559 0.061 0.752941 0.752941 0.752941 1
0.0139912 0.0278853 0.0526418 0.752941 0.752941 0.752941 1
0.00117412 -0.0407294 0.00940398 0.898039 0.917647 0.929412 2
-0.011452 -0.226561 0.0115128 0.294118 0.294118 0.294118 0
0.00748382 -0.0975941 -0.00241511 0.898039 0.917647 0.929412 2
-0.00742358 -0.0591544 -0.00298348 0.898039 0.917647 0.929412 2
0.00567726 -0.120968 -0.0124806 0.294118 0.294118 0.294118 0
-0.00777589 -0.0287636 -0.000424819 0.898039 0.917647 0.929412 2
-0.00647618 -0.0838115 0.00577489 0.898039 0.917647 0.929412 2
0.00785431 -0.024558 -0.000826174 0.898039 0.917647 0.929412 2
0.0104501 -0.170554 -0.0128092 0.294118 0.294118 0.294118 0
4.30198e-05 -0.216099 0.0174963 0.294118 0.294118 0.294118 0
0.00940448 -0.128956 0.0104892 0.294118 0.294118 0.294118 0
-0.00735891 -0.139474 0.0139237 0.294118 0.294118 0.294118 0
-0.00584126 -0.202166 0.0161657 0.294118 0.294118 0.294118 0
0.0123644 -0.147504 -0.00948532 0.294118 0.294118 0.294118 0
-0.00329703 0.0246369 0.061 0.752941 0.752941 0.752941 1
-0.0109805 -0.1165 0.00251229 0.294118 0.294118 0.294118 0
0.00195536 -0.117174 0.013371 0.294118 0.294118 0.294118 0
0.00250393 -0.054223 0.00906757 0.898039 0.917647 0.929412 2
0.0091186 0.0265219 0.0443037 0.752941 0.752941 0.752941 1
-3.82222e-05 -0.221815 0.0174967 0.294118 0.294118 0.294118 0
0.0131219 -0.219903 0.00837003 0.294118 0.294118 0.294118 0
-0.00584499 -0.213841 0.016164 0.294118 0.294118 0.294118 0
0.00800495 -0.248938 -0.014925 0.294118 0.294118 0.294118 0
-0.012774 -0.269121 -0.00820226 0.294118 0.294118 0.294118 0
0.00471522 0.0394434 -0.0081482 0.752941 0.752941 0.752941 1
-0.014 -0.251403 -0.00245414 0.294118 0.294118 0.294118 0
-0.00304309 -0.00155678 -0.0505269 0.752941 0.752941 0.752941 1
-0.00794833 -0.125729 0.0114894 0.294118 0.294118 0.294118 0
0.0100008 0.0198247 -0.0201897 0.752941 0.752941 0.752941 1
-0.0137419 -0.26806 -0.00612088 0.294118 0.294118 0.294118 0
-0.00547516 4.30198e-05 -0.0586489 0.752941 0.752941 0.752941 1
-0.000599486 0.0375477 0.0215156 0.752941 0.752941 0.752941 1
0.00922726 -0.158205 -0.0140272 0.294118 0.294118 0.294118 0
-0.00964029 -0.101559 -0.00196769 0.294118 0.294118 0.294118 0
-0.00382454 0.0247562 -0.0410972 0.752941 0.752941 0.752941 1
0.011033 -0.197234 0.0121177 0.294118 0.294118 0.294118 0
0.011753 0.0171953 -0.0358727 0.752941 0.752941 0.752941 1
-0.000990305 -0.16388 0.0174142 0.294118 0.294118 0.294118 0
-0.0088535 0.0367844 -0.0180297 0.752941 0.752941 0.752941 1
-0.0139362 -0.177424 0.00458375 0.294118 0.294118 0.294118 0
-0.0121077 -0.130667 0.0047714 0.294118 0.294118 0.294118 0
0.0137563 -0.186721 -0.00608116 0.294118 0.294118 0.294118 0
-0.014 -0.236609 0.0010329 0.294118 0.294118 0.294118 0
-0.00913188 -0.134154 0.0116584 0.294118 0.294118 0.294118 0
-0.00496964 0.0285635 -0.0361422 0.752941 0.752941 0.752941 1
-0.00705404 -0.00236665 -0.0511927 0.752941 0.752941 0.752941 1
0.00811935 0.0125244 -0.018999 0.752941 0.752941 0.752941 1
-0.00016194 0.0142502 -0.0238136 0.752941 0.752941 0.752941 1
-0.00169065 0.04 0.00780849 0.752941 0.752941 0.752941 1
0.00732959 -0.0309295 -0.0038675 0.898039 0.917647 0.929412 2
-0.0094532 0.0271454 0.0452262 0.752941 0.752941 0.752941 1
0.00910239 0.0212708 0.0473815 0.752941 0.752941 0.752941 1
0.000446175 -0.0626696 0.0094775 0.898039 0.917647 0.929412 2
0.00551207 -0.0154727 0.00670492 0.898039 0.917647 0.929412 2
-0.01 0.0297772 -0.0127967 0.752941 0.752941 0.752941 1
0.0075 -0.0739487 -0.00169868 0.898039 0.917647 0.929412 2
-0.0126693 -0.204555 0.00933765 0.294118 0.294118 0.294118 0
0.00214308 -0.0492916 -0.00917121 0.898039 0.917647 0.929412 2
-0.0123687 -0.186568 0.00996379 0.294118 0.294118 0.294118 0
0.01 0.0180364 0.0156377 0.752941 0.752941 0.752941 1
-0.00845599 -0.00279162 -0.0596768 0.752941 0.752941 0.752941 1
-0.0100636 0.0165688 -0.0489925 0.752941 0.752941 0.752941 1
-0.00250393 0.0139034 -0.051068 0.752941 0.752941 0.752941 1
0.00897836 -0.145454 0.0135501 0.294118 0.294118 0.294118 0
0.014157 -0.02462 -0.0621633 0.752941 0.752941 0.752941 1
-0.009287 0.00174143 0.00145308 0.752941 0.752941 0.752941 1
0.00558151 -0.120721 -0.0125015 0.294118 0.294118 0.294118 0
-0.0114095 0.0149285 -0.0336765 0.752941 0.752941 0.752941 1
0.0136498 -0.00653566 -0.0607993 0.752941 0.752941 0.752941 1
0.00735891 -0.00747724 -0.0610707 0.752941 0.752941 0.752941 1
0.014 -0.248747 0.00217948 0.294118 0.294118 0.294118 0
-0.00400453 -0.208271 -0.016868 0.294118 0.294118 0.294118 0
-0.00115741 -0.189094 -0.0173998 0.294118 0.294118 0.294118 0
0.00875229 0.0296371 0.0426841 0.752941 0.752941 0.752941 1
0.00531695 0.0321533 0.0330945 0.752941 0.752941 0.752941 1
-0.00579996 -0.167368 0.016207 0.294118 0.294118 0.294118 0
0.0118644 -0.0103299 -0.0617051 0.752941 0.752941 0.752941 1
-0.00982553 0.0231258 0.061 0.752941 0.752941 0.752941 1
0.0136479 -0.174966 -0.00661977 0.294118 0.294118 0.294118 0
-0.01 0.0294584 -0.0143174 0.752941 0.752941 0.752941 1
-0.01 0.0155136 -0.0117465 0.752941 0.752941 0.752941 1
0.0134153 0.0129166 -0.0465031 0.752941 0.752941 0.752941 1
-0.0113062 0.0243982 -0.0330157 0.752941 0.752941 0.752941 1
0.00995148 0.0193273 0.0506787 0.752941 0.752941 0.752941 1
-3.82222e-05 -0.134118 -0.0155904 0.294118 0.294118 0.294118 0
-0.0113823 -0.180265 -0.0115615 0.294118 0.294118 0.294118 0
0.00722378 -0.0412861 0.00401342 0.898039 0.917647 0.929412 2
-0.00921622 -0.21141 -0.0140272 0.294118 0.294118 0.294118 0
0.00421392 -0.0673111 -0.00819492 0.898039 0.917647 0.929412 2
0.014 -0.228423 0.00158119 0.294118 0.294118 0.294118 0
-0.00840309 -0.00314455 0.000310504 0.898039 0.917647 0.929412 2
0.00176781 -0.0295968 -0.00902765 0.898039 0.917647 0.929412 2
-0.014 -0.16174 0.001141 0.294118 0.294118 0.294118 0
-0.01 0.0247562 0.012007 0.752941 0.752941 0.752941 1
-0.00512555 8.9407e-10 -0.0104931 0.752941 0.752941 0.752941 1
0.014 -0.22428 -0.00162224 0.294118 0.294118 0.294118 0
-0.0118583 -0.128705 0.00513027 0.294118 0.294118 0.294118 0
0.00611801 -0.135591 0.0141768 0.294118 0.294118 0.294118 0
-0.00801323 -0.0145254 0.00166198 0.898039 0.917647 0.929412 2
-0.00982461 0.022214 0.061 0.752941 0.752941 0.752941 1
0.0134483 0.0130214 -0.0467141 0.752941 0.752941 0.752941 1
0.00318986 -0.234143 -0.017084 0.294118 0.294118 0.294118 0
-0.00808657 -0.100362 0.00705443 0.294118 0.294118 0.294118 0
-0.0138056 -0.241617 -0.00563863 0.294118 0.294118 0.294118 0
0.00560027 -0.228584 0.0162768 0.294118 0.294118 0.294118 0
0.0067103 0.0272219 -0.0380396 0.752941 0.752941 0.752941 1
-0.00400238 0.0211069 -0.0449587 0.752941 0.752941 0.752941 1
-3.82222e-05 0.0370934 -0.0188822 0.752941 0.752941 0.752941 1
-0.00759753 -0.100008 -0.00767797 0.294118 0.294118 0.294118 0
-0.0129473 -0.196015 -0.00875883 0.294118 0.294118 0.294118 0
0.0059286 -0.010954 0.00623102 0.898039 0.917647 0.929412 2
0.00815465 -0.0132817 0.000526376 0.898039 0.917647 0.929412 2
0.0079089 -0.0197031 -0.00169868 0.898039 0.917647 0.929412 2
0.0120985 0.00768998 -0.0425013 0.752941 0.752941 0.752941 1
0.013322 -0.179898 0.00765432 0.294118 0.294118 0.294118 0
0.00523987 -0.110774 0.0113798 0.294118 0.294118 0.294118 0
0.00876062 0.0156806 0.0155827 0.752941 0.752941 0.752941 1
-3.82222e-05 -0.27 0.000767025 0.294118 0.294118 0.294118 0
0.01 0.00527358 -0.0123284 0.752941 0.752941 0.752941 1
0.00496964 -0.189837 0.0165675 0.294118 0.294118 0.294118 0
-0.00894144 0.00184059 -0.0131891 0.752941 0.752941 0.752941 1
0.0121936 0.0331699 0.0486504 0.752941 0.752941 0.752941 1
0.012062 -0.268108 0.0105407 0.294118 0.294118 0.294118 0
0.01 0.0222904 -0.00972939 0.752941 0.752941 0.752941 1
-0.0102927 0.000693746 -0.0484276 0.752941 0.752941 0.752941 1
-0.0131038 -0.166457 0.00713825 0.294118 0.294118 0.294118 0
-0.00785061 -0.226786 0.015029 0.294118 0.294118 0.294118 0
0.0100083 0.034619 -0.0204154 0.752941 0.752941 0.752941 1
0.00497495 -0.00220552 -0.0594764 0.752941 0.752941 0.752941 1
-0.00231292 0.0136942 0.0537616 0.752941 0.752941 0.752941 1
-0.014 -0.15684 0.00111561 0.294118 0.294118 0.294118 0
-0.0121173 -0.130316 -0.00448615 0.294118 0.294118 0.294118 0
-0.014 -0.256411 0.001141 0.294118 0.294118 0.294118 0
0.0107745 -0.132248 -0.00909581 0.294118 0.294118 0.294118 0
0.00741054 -0.180697 0.0153332 0.294118 0.294118 0.294118 0
-0.00741372 -0.0716087 0.00306076 0.898039 0.917647 0.929412 2
0.0138717 -0.156684 0.00538919 0.294118 0.294118 0.294118 0
0.01 0.00988545 -0.00286342 0.752941 0.752941 0.752941 1
0.00681528 -0.255995 -0.00506871 0.898039 0.917647 0.929412 2
-0.00954944 0.0197483 0.0181034 0.752941 0.752941 0.752941 1
-0.01 0.022214 0.0205691 0.752941 0.752941 0.752941 1
0.0123668 -0.133126 0.00464253 0.294118 0.294118 0.294118 0
-0.0103398 -0.244963 0.0129381 0.294118 0.294118 0.294118 0
-0.0146589 0.00248833 -0.0558678 0.752941 0.752941 0.752941 1
-0.00242749 0.0222904 -0.043799 0.752941 0.752941 0.752941 1
0.00222458 -0.0178936 0.00862533 0.898039 0.917647 0.929412 2
-0.0142339 0.00768231 -0.0517375 0.752941 0.752941 0.752941 1
-0.00534367 0.0145606 0.0492909 0.752941 0.752941 0.752941 1
0.00809415 0.0345518 0.0476444 0.752941 0.752941 0.752941 1
0.00063559 0.0370083 0.061 0.752941 0.752941 0.752941 1
0.0126945 -0.266058 0.00938571 0.294118 0.294118 0.294118 0
-0.0121076 -0.0017005 -0.0593027 0.752941 0.752941 0.752941 1
0.01 0.0349134 1.20959e-07 0.752941 0.752941 0.752941 1
0.00803417 -0.0153043 -0.00138813 0.898039 0.917647 0.929412 2
-0.01 0.0171142 0.0106299 0.752941 0.752941 0.752941 1
0.01 0.00766502 -0.00169878 0.752941 0.752941 0.752941 1
3.82222e-05 0.0393814 0.0184272 0.752941 0.752941 0.752941 1
0.00756212 -0.0125986 -0.00364378 0.898039 0.917647 0.929412 2
-3.82222e-05 0.0200016 -0.046005 0.752941 0.752941 0.752941 1
-0.01 0.0227704 -0.0122942 0.752941 0.752941 0.752941 1
-0.011985 0.0347219 0.0570258 0.752941 0.752941 0.752941 1
-0.00746589 -0.0572744 0.00267461 0.898039 0.917647 0.929412 2
0.01 0.00931873 -0.00474696 0.752941 0.752941 0.752941 1
-0.0121317 -0.129964 -0.00407283 0.294118 0.294118 0.294118 0
-0.01 0.00798925 0.00366472 0.752941 0.752941 0.752941 1
0.00743535 -0.0270237 -0.00363526 0.898039 0.917647 0.929412 2
-0.01 0.0326574 0.00113396 0.752941 0.752941 0.752941 1
0.01 0.0370847 0.00748925 0.752941 0.752941 0.752941 1
0.01 0.0148933 -0.00297187 0.752941 0.752941 0.752941 1
0.0108233 0.029492 -0.0299278 0.752941 0.752941 0.752941 1
-0.0131865 -0.174973 0.00816415 0.294118 0.294118 0.294118 0
-0.00214881 -0.240583 0.0173175 0.294118 0.294118 0.294118 0
-0.0123668 -0.142912 0.00829645 0.294118 0.294118 0.294118 0
-0.0077963 -0.024558 -0.00169868 0.898039 0.917647 0.929412 2
-0.0017005 -0.0924176 0.00929126 0.898039 0.917647 0.929412 2
0.00100294 -0.0269474 -0.00909581 0.898039 0.917647 0.929412 2
-0.00231292 0.0191301 0.0266681 0.752941 0.752941 0.752941 1
0.0093153 -0.22428 -0.0139508 0.294118 0.294118 0.294118 0
-0.0085908 0.000968729 0.0100372 0.752941 0.752941 0.752941 1
0.00783427 0.00769516 0.0160012 0.752941 0.752941 0.752941 1
-0.0148279 -0.00319831 -0.0555359 0.752941 0.752941 0.752941 1
-0.0139653 -0.188832 -0.00404124 0.294118 0.294118 0.294118 0
-0.00231292 -0.27 -0.00296493 0.294118 0.294118 0.294118 0
-0.0048193 -0.120601 -0.0128969 0.294118 0.294118 0.294118 0
-0.0136274 -0.172577 0.00670742 0.294118 0.294118 0.294118 0
-0.00225886 0.0347611 0.0336963 0.752941 0.752941 0.752941 1
0.00587247 0.0148169 0.0568402 0.752941 0.752941 0.752941 1
0.0139354 -0.162988 0.004559 0.294118 0.294118 0.294118 0
0.00948074 0.0290168 0.0230349 0.752941 0.752941 0.752941 1
-0.00267907 0.03979 -0.00508137 0.752941 0.752941 0.752941 1
-0.00338997 -0.170822 -0.0170309 0.294118 0.294118 0.294118 0
0.000527481 0.0159133 0.061 0.752941 0.752941 0.752941 1
-0.0138461 -0.14829 -0.000568099 0.294118 0.294118 0.294118 0
-0.0148375 -0.000932227 -0.0555972 0.752941 0.752941 0.752941 1
-0.0135486 -0.144984 0.00133144 0.294118 0.294118 0.294118 0
-0.00743535 0.0226945 0.0254241 0.752941 0.752941 0.752941 1
-0.0123668 -0.226823 -0.00996772 0.294118 0.294118 0.294118 0
0.0139963 -0.159032 -0.0037528 0.294118 0.294118 0.294118 0
0.0109854 -0.197565 0.0121783 0.294118 0.294118 0.294118 0
-0.0075 -0.0646925 0.000558817 0.898039 0.917647 0.929412 2
-0.00250393 -0.27 0.000767025 0.294118 0.294118 0.294118 0
-0.01 0.00748925 -0.0140272 0.752941 0.752941 0.752941 1
-0.012774 -0.269737 0.0057459 0.294118 0.294118 0.294118 0
-0.00693106 0.0175323 0.0609852 0.752941 0.752941 0.752941 1
-0.0128937 -0.182885 0.00887038 0.294118 0.294118 0.294118 0
0.01 0.0284433 0.00421877 0.752941 0.752941 0.752941 1
0.00156786 -0.00553684 -0.0595988 0.752941 0.752941 0.752941 1
-0.00408999 -0.238028 -0.0168453 0.294118 0.294118 0.294118 0
3.82222e-05 0.04 0.00292921 0.752941 0.752941 0.752941 1
0.00690163 -0.0491723 0.00492557 0.898039 0.917647 0.929412 2
-0.00344402 -0.254203 0.0170407 0.294118 0.294118 0.294118 0
0.00986947 0.00240999 -0.0116783 0.752941 0.752941 0.752941 1
-0.00954434 -0.100493 0.000491359 0.294118 0.294118 0.294118 0
-0.000164913 -0.172619 0.0174857 0.294118 0.294118 0.294118 0
-0.00838078 -0.00204836 0.00084347 0.898039 0.917647 0.929412 2
0.0065758 -0.0771345 -0.00557595 0.898039 0.917647 0.929412 2
0.00665983 0.0239238 0.061 0.752941 0.752941 0.752941 1
0.00389026 0.00401472 -0.0447745 0.752941 0.752941 0.752941 1
0.00117412 -0.2656 0.0174449 0.294118 0.294118 0.294118 0
0.0059431 0.04 0.0168774 0.752941 0.752941 0.752941 1
-0.01 0.0366029 -0.00226771 0.752941 0.752941 0.752941 1
0.00145235 0.0330657 -0.0287382 0.752941 0.752941 0.752941 1
-0.0123414 -0.262557 0.0100829 0.294118 0.294118 0.294118 0
0.00662817 0.0240319 0.061 0.752941 0.752941 0.752941 1
0.00286359 0.0392057 -0.00989172 0.752941 0.752941 0.752941 1
0.00640468 -0.130869 0.0133969 0.294118 0.294118 0.294118 0
-0.0119731 0.0174242 -0.0372803 0.752941 0.752941 0.752941 1
-0.00242749 -0.0271002 0.00878351 0.898039 0.917647 0.929412 2
-0.0053786 0.0386246 -0.0130224 0.752941 0.752941 0.752941 1
-0.00435159 -0.0295659 0.00789269 0.898039 0.917647 0.929412 2
0.00915778 -0.134208 -0.0116391 0.294118 0.294118 0.294118 0
0.00491424 -0.0729969 0.00766231 0.898039 0.917647 0.929412 2
0.0129147 -0.137942 0.00139984 0.294118 0.294118 0.294118 0
0.0127373 -0.221815 -0.00919617 0.294118 0.294118 0.294118 0
0.00399868 -0.216883 0.0168695 0.294118 0.294118 0.294118 0
-0.0132634 -0.256937 0.00793752 0.294118 0.294118 0.294118 0
-0.00656854 -0.256411 -0.0158368 0.294118 0.294118 0.294118 0
0.01 0.0180364 0.00577489 0.752941 0.752941 0.752941 1
-0.00136654 -0.197623 0.0173816 0.294118 0.294118 0.294118 0
0.0135332 -0.174431 -0.00708465 0.294118 0.294118 0.294118 0
0.00950626 0.00256477 0.013172 0.752941 0.752941 0.752941 1
0.00573687 0.0363224 -0.0211814 0.752941 0.752941 0.752941 1
-0.0128281 -0.0224943 -0.0630002 0.752941 0.752941 0.752941 1
0.00250393 -0.174489 0.0172658 0.294118 0.294118 0.294118 0
0.00244899 -0.184893 -0.0172804 0.294118 0.294118 0.294118 0
0.0103741 -0.110318 0.00330429 0.294118 0.294118 0.294118 0
0.00743535 0.0323852 0.0428143 0.752941 0.752941 0.752941 1
0.0093458 -0.183796 0.0139176 0.294118 0.294118 0.294118 0
-0.00990106 -0.194692 0.0133976 0.294118 0.294118 0.294118 0
0.00610598 0.00124734 0.0111258 0.752941 0.752941 0.752941 1
-0.0129734 0.0191677 -0.0436771 0.752941 0.752941 0.752941 1
0.00358411 -0.0178956 -0.00809362 0.898039 0.917647 0.929412 2
-0.011254 0.0233848 -0.032682 0.752941 0.752941 0.752941 1
0.0129761 -0.190963 0.00869889 0.294118 0.294118 0.294118 0
-0.00518754 -0.0591812 0.00740853 0.898039 0.917647 0.929412 2
0.00987688 -0.16682 -0.0134218 0.294118 0.294118 0.294118 0
0.00440161 -0.0522055 0.00806681 0.898039 0.917647 0.929412 2
0.00341256 -0.000330504 -0.00778847 0.898039 0.917647 0.929412 2
0.01 0.0124276 -0.0164165 0.752941 0.752941 0.752941 1
-0.00518754 -0.0493147 0.00741225 0.898039 0.917647 0.929412 2
-0.0104181 -0.120907 0.00717258 0.294118 0.294118 0.294118 0
-0.00607417 -0.0785259 0.00638278 0.898039 0.917647 0.929412 2
-0.0138531 -0.158395 0.00546342 0.294118 0.294118 0.294118 0
-0.0101938 -0.187979 0.0130956 0.294118 0.294118 0.294118 0
0.00242749 -0.140588 0.0161394 0.294118 0.294118 0.294118 0
-0.01272 -0.199548 -0.00923216 0.294118 0.294118 0.294118 0
-0.00735891 -0.249014 0.0153715 0.294118 0.294118 0.294118 0
0.00718943 -0.268663 0.0153564 0.294118 0.294118 0.294118 0
0.01 0.0304229 -0.00635046 0.752941 0.752941 0.752941 1
-0.00909532 0.0273712 0.0444031 0.752941 0.752941 0.752941 1
-0.014 -0.169551 0.001141 0.294118 0.294118 0.294118 0
-0.00405644 0.0141315 0.0556372 0.752941 0.752941 0.752941 1
-0.010706 -0.1134 0.00084347 0.294118 0.294118 0.294118 0
0.00496964 -0.024558 -0.0630045 0.752941 0.752941 0.752941 1
-0.00225886 0.0390104 -0.0110824 0.752941 0.752941 0.752941 1
-0.00698511 0.00728845 -0.0174295 0.752941 0.752941 0.752941 1
-0.00982461 -0.23422 0.0134728 0.294118 0.294118 0.294118 0
0.00419412 0.0253681 0.061 0.752941 0.752941 0.752941 1
0.0134328 -0.00341398 -0.0598892 0.752941 0.752941 0.752941 1
0.0075 -0.0761565 0.000526376 0.898039 0.917647 0.929412 2
0.0133753 -0.236609 0.00759407 0.294118 0.294118 0.294118 0
-0.00765391 -0.030967 0.002104 0.898039 0.917647 0.929412 2
0.0137831 -0.205482 -0.00581994 0.294118 0.294118 0.294118 0
-0.00895851 -0.00499648 -0.0603843 0.752941 0.752941 0.752941 1
-0.00842275 0.0186634 0.0500147 0.752941 0.752941 0.752941 1
-0.0110305 -0.00225912 -0.0511048 0.752941 0.752941 0.752941 1
0.00755187 0.0398595 -0.00390432 0.752941 0.752941 0.752941 1
-1.10346e-05 4.30198e-05 -0.0119461 0.752941 0.752941 0.752941 1
-0.01 0.0247562 -0.0109763 0.752941 0.752941 0.752941 1
0.00922838 -0.194009 -0.0140272 0.294118 0.294118 0.294118 0
-0.0138242 -0.258182 -0.00565728 0.294118 0.294118 0.294118 0
-0.0122903 -0.244006 -0.0101494 0.294118 0.294118 0.294118 0
-0.00571072 -0.229288 0.0162259 0.294118 0.294118 0.294118 0
-0.00349807 -0.191744 -0.0170022 0.294118 0.294118 0.294118 0
0.00358411 -0.18477 -0.0169794 0.294118 0.294118 0.294118 0
-0.00496964 -0.168921 0.0165764 0.294118 0.294118 0.294118 0
0.0116893 -0.242021 -0.0111419 0.294118 0.294118 0.294118 0
0.00273239 -0.0694651 -0.00897077 0.898039 0.917647 0.929412 2
-0.00715094 0.0283437 0.0321172 0.752941 0.752941 0.752941 1
0.01 0.0196065 0.00562631 0.752941 0.752941 0.752941 1
-0.0130092 -0.155184 0.00567291 0.294118 0.294118 0.294118 0
0.00579823 -0.266198 -0.0162053 0.294118 0.294118 0.294118 0
0.00112007 -0.1341 -0.0155032 0.294118 0.294118 0.294118 0
0.00699443 -0.0439822 0.00470024 0.898039 0.917647 0.929412 2
0.0139293 -0.176355 -0.0044476 0.294118 0.294118 0.294118 0
