ply
format ascii 1.0
comment Created by Open3D
element vertex 652
property float32 x
property float32 y
property float32 z
property float32 red
property float32 green
property float32 blue
property float32 volume
property uint8 segmentation
end_header
0.0172 0.00495782 0.00796714 0.735683 0.215906 0.330245 5.16466e-05 2
0.0162548 0.00226535 0.00961578 0.735683 0.215906 0.330245 2.46363e-05 2
0.0225455 0.00889457 0.0110584 0.735683 0.215906 0.330245 2.23263e-06 2
0.0148577 0.00529788 0.00913171 0.735683 0.215906 0.330245 0.000121899 2
0.0277456 0.000679695 0.0114106 0.735683 0.215906 0.330245 1.75556e-07 2
0.017122 0.00489315 0.00998858 0.735683 0.215906 0.330245 3.13733e-05 2
0.0183028 -0.000174595 0.0104649 0.735683 0.215906 0.330245 4.59313e-06 2
0.0180356 0.00552458 0.0108695 0.735683 0.215906 0.330245 2.41223e-05 2
0.0239093 0.00797554 0.0102166 0.735683 0.215906 0.330245 1.42366e-05 2
0.023741 0.00291595 0.0108227 0.735683 0.215906 0.330245 1.26569e-05 2
0.019547 0.00177558 0.00965069 0.735683 0.215906 0.330245 1.04104e-05 2
0.0159161 0.00752443 0.0108619 0.735683 0.215906 0.330245 2.68497e-05 2
0.0216241 0.00105646 0.00922334 0.735683 0.215906 0.330245 2.74075e-05 2
0.023586 0.00717487 0.0100812 0.735683 0.215906 0.330245 1.00172e-05 2
0.0246422 0.00436257 0.0109026 0.735683 0.215906 0.330245 6.58252e-06 2
0.0190816 -8.66719e-05 0.00925619 0.735683 0.215906 0.330245 6.84371e-06 2
0.0203061 0.00684945 0.0108472 0.735683 0.215906 0.330245 1.34621e-05 2
0.0226847 0.00572825 0.0100012 0.735683 0.215906 0.330245 3.6179e-05 2
0.0226796 -0.000754894 0.00593345 0.735683 0.215906 0.330245 7.12537e-06 2
0.0204142 0.00440338 0.0100235 0.735683 0.215906 0.330245 3.61332e-05 2
0.0269625 0.0036298 0.0108125 0.735683 0.215906 0.330245 5.36867e-06 2
0.0101141 0.00652856 0.00997754 0.735683 0.215906 0.330245 3.31041e-05 2
0.00389631 0.00232265 0.0103258 0.735683 0.215906 0.330245 1.79317e-05 2
0.00681531 0.00648037 0.00572606 0.735683 0.215906 0.330245 5.7611e-05 2
0.0017808 0.00163824 0.00987963 0.735683 0.215906 0.330245 1.31433e-05 2
0.00324529 0.00937225 0.0106368 0.735683 0.215906 0.330245 4.01906e-05 2
0.00547984 0.00103786 0.0101617 0.735683 0.215906 0.330245 7.09632e-06 2
0.00679177 0.00570109 0.00727902 0.735683 0.215906 0.330245 4.76055e-05 2
0.00534113 0.00466882 0.0107252 0.735683 0.215906 0.330245 1.81249e-05 2
0.00288606 0.00646914 0.00839946 0.735683 0.215906 0.330245 1.73165e-05 2
-0.000217966 0.0104473 0.0100799 0.735683 0.215906 0.330245 4.28336e-06 2
0.0123783 0.00612383 0.0108344 0.735683 0.215906 0.330245 2.09367e-05 2
0.00814046 0.00099203 0.00934431 0.735683 0.215906 0.330245 1.84593e-05 2
0.00438754 0.00692499 0.00985716 0.735683 0.215906 0.330245 4.29348e-05 2
0.00157516 0.00709151 0.00855248 0.735683 0.215906 0.330245 1.70281e-05 2
0.000741136 0.0085501 0.00905622 0.735683 0.215906 0.330245 9.06781e-06 2
0.00182793 0.00481208 0.00860775 0.735683 0.215906 0.330245 6.28445e-06 2
0.000759756 0.00337499 0.00959336 0.735683 0.215906 0.330245 1.29558e-05 2
0.000391886 0.0122755 0.00925595 0.735683 0.215906 0.330245 1.44491e-07 2
0.00887927 0.00706931 0.000175936 0.735683 0.215906 0.330245 8.78051e-05 2
0.000909785 0.010375 0.00968286 0.735683 0.215906 0.330245 1.82366e-05 2
0.0040452 0.00962004 0.00264591 0.735683 0.215906 0.330245 2.43478e-05 2
0.00264859 0.0155687 0.000551135 0.735683 0.215906 0.330245 6.26742e-05 2
0.00305283 0.0171572 0.00446458 0.735683 0.215906 0.330245 3.16131e-05 2
0.00762139 0.00754526 0.0042549 0.735683 0.215906 0.330245 9.81603e-05 2
0.000764746 0.0184336 0.000758665 0.735683 0.215906 0.330245 4.16283e-05 2
0.00203504 0.0100104 0.00555477 0.735683 0.215906 0.330245 2.59777e-05 2
0.000858021 0.00849744 0.00413036 0.735683 0.215906 0.330245 3.45142e-05 2
8.02184e-05 0.00736184 0.00624419 0.735683 0.215906 0.330245 2.88814e-05 2
0.00323912 0.00855515 0.00411706 0.735683 0.215906 0.330245 1.42899e-05 2
0.00125724 0.0088748 0.0076686 0.735683 0.215906 0.330245 1.33698e-05 2
0.00132584 0.00693164 0.00103669 0.735683 0.215906 0.330245 1.29534e-05 2
0.0020621 0.00704219 0.00269265 0.735683 0.215906 0.330245 1.43896e-05 2
0.00144644 0.00489139 0.00198173 0.735683 0.215906 0.330245 1.40069e-05 2
0.0021827 0.00500194 0.00363768 0.735683 0.215906 0.330245 1.54739e-05 2
0.000195935 0.0131 0.00757036 0.735683 0.215906 0.330245 6.02041e-06 2
0.00293082 0.0120694 0.000240278 0.735683 0.215906 0.330245 2.31169e-05 2
0.00104336 0.0125062 0.00526783 0.735683 0.215906 0.330245 2.41665e-05 2
0.00938368 0.018757 0.000421343 0.735683 0.215906 0.330245 0.000530508 2
0.00268346 0.0121125 0.00329293 0.735683 0.215906 0.330245 2.83544e-05 2
0.000234224 0.0133127 0.00846527 0.735683 0.215906 0.330245 7.66544e-06 2
0.00240123 0.0156118 0.00360379 0.735683 0.215906 0.330245 7.33338e-05 2
0.00104698 0.0149343 0.000447808 0.735683 0.215906 0.330245 9.05214e-06 2
0.00317916 0.00595345 -0.000158096 0.735683 0.215906 0.330245 1.76156e-05 2
0.00105033 0.0106212 -0.00784881 0.735683 0.215906 0.330245 1.35322e-05 2
0.00255755 0.00633667 -0.00270522 0.735683 0.215906 0.330245 4.38894e-05 2
0.00321519 0.00800601 0.000426225 0.735683 0.215906 0.330245 9.80693e-06 2
0.00520915 0.0100057 -0.0051273 0.735683 0.215906 0.330245 2.54654e-05 2
0.000295815 0.00759441 -0.00510208 0.735683 0.215906 0.330245 1.44083e-05 2
7.01837e-05 0.00891926 -0.00745895 0.735683 0.215906 0.330245 1.26397e-05 2
0.00427919 0.0107967 -0.00716283 0.735683 0.215906 0.330245 2.54654e-05 2
0.00235333 0.0108674 -0.00632491 0.735683 0.215906 0.330245 1.28677e-05 2
0.00163256 0.0177937 -0.00246109 0.735683 0.215906 0.330245 3.0791e-05 2
0.000298181 0.0124292 -0.00738817 0.735683 0.215906 0.330245 1.4148e-05 2
-0.000417764 0.0138485 -0.00834769 0.735683 0.215906 0.330245 9.22242e-06 2
0.00450397 0.0195603 -0.00445963 0.735683 0.215906 0.330245 0.000166111 2
-0.00139355 0.0177967 -0.0073749 0.735683 0.215906 0.330245 8.41726e-06 2
0.00312126 0.00886761 -0.00326802 0.735683 0.215906 0.330245 2.18707e-05 2
0.00291456 0.0053644 -0.00450475 0.735683 0.215906 0.330245 1.96036e-05 2
0.00174094 0.00890088 -0.00447418 0.735683 0.215906 0.330245 1.89383e-05 2
-0.000634832 0.00366744 -0.00684635 0.735683 0.215906 0.330245 1.1358e-05 2
0.00526704 0.00709153 -0.00201738 0.735683 0.215906 0.330245 1.37066e-05 2
0.00448879 0.00746245 -0.00609386 0.735683 0.215906 0.330245 5.09307e-05 2
0.00451774 0.00600537 -0.0045389 0.735683 0.215906 0.330245 2.74131e-05 2
0.000370702 0.00939108 -0.010328 0.735683 0.215906 0.330245 3.05962e-06 2
0.00160118 0.0126753 -0.00586427 0.735683 0.215906 0.330245 1.02681e-05 2
0.000399542 0.00525713 -0.00835734 0.735683 0.215906 0.330245 1.19436e-05 2
0.00103495 0.014633 -0.0022857 0.735683 0.215906 0.330245 5.42303e-05 2
0.00153847 0.0118014 -0.00369939 0.735683 0.215906 0.330245 1.53165e-05 2
0.00318625 0.00946309 -0.00112873 0.735683 0.215906 0.330245 1.41519e-05 2
0.00180593 0.00949635 -0.00233489 0.735683 0.215906 0.330245 1.16071e-05 2
0.000647435 0.00542572 -0.0043509 0.735683 0.215906 0.330245 1.6862e-05 2
0.00100444 0.00445345 -0.00615043 0.735683 0.215906 0.330245 2.14774e-05 2
-2.99293e-05 0.00286376 -0.00463944 0.735683 0.215906 0.330245 2.3667e-05 2
-0.000386939 0.00383603 -0.00283991 0.735683 0.215906 0.330245 1.83703e-05 2
0.000799112 0.0197267 -0.00320163 0.735683 0.215906 0.330245 2.44519e-05 2
5.17867e-05 0.0160275 -0.00756434 0.735683 0.215906 0.330245 1.06137e-05 2
0.00109765 0.0155069 -0.00445058 0.735683 0.215906 0.330245 2.46496e-05 2
0.00221797 0.0172573 -0.00442693 0.735683 0.215906 0.330245 7.29847e-06 2
0.00026421 0.0174398 -0.00519113 0.735683 0.215906 0.330245 2.19576e-05 2
-0.00118113 0.019209 -0.00500169 0.735683 0.215906 0.330245 3.2433e-05 2
-0.00176038 0.0194057 -0.00792025 0.735683 0.215906 0.330245 4.18152e-06 2
0.00580239 0.0172319 -0.00270132 0.735683 0.215906 0.330245 0.000130237 2
8.93088e-05 0.00682907 -0.00922225 0.735683 0.215906 0.330245 6.64507e-06 2
0.0113758 0.00682743 -0.00908831 0.735683 0.215906 0.330245 1.50911e-05 2
0.00420432 0.0194529 -0.00960478 0.735683 0.215906 0.330245 1.80548e-05 2
0.000936307 0.0107579 -0.00951427 0.735683 0.215906 0.330245 6.43922e-06 2
0.00374728 0.0157719 -0.0108181 0.735683 0.215906 0.330245 3.19585e-05 2
0.000369191 0.0162588 -0.00892241 0.735683 0.215906 0.330245 1.48108e-05 2
0.00050156 0.0127971 -0.0104117 0.735683 0.215906 0.330245 5.49336e-06 2
0.00164777 0.0130497 -0.0107723 0.735683 0.215906 0.330245 9.93951e-06 2
0.00847031 0.0157814 -0.00696429 0.735683 0.215906 0.330245 8.38363e-05 2
0.00151691 0.00964364 -0.0106886 0.735683 0.215906 0.330245 6.06671e-06 2
0.00909843 0.0136092 -0.00911704 0.735683 0.215906 0.330245 1.20801e-05 2
0.00401035 0.0184853 -0.0107538 0.735683 0.215906 0.330245 2.03917e-05 2
0.00802828 0.0111126 -0.00721736 0.735683 0.215906 0.330245 1.455e-05 2
0.011904 0.0126279 -0.00998229 0.735683 0.215906 0.330245 5.75383e-05 2
0.0023851 0.0071933 -0.0106387 0.735683 0.215906 0.330245 1.21334e-05 2
0.00835847 0.0171973 -0.00914144 0.735683 0.215906 0.330245 0.00010091 2
0.00874087 0.0189366 -0.00801501 0.735683 0.215906 0.330245 1.6116e-05 2
0.010308 0.0143824 -0.00520716 0.735683 0.215906 0.330245 0.000113091 2
0.00208252 0.0110105 -0.00987486 0.735683 0.215906 0.330245 1.18858e-05 2
0.00895824 0.0103215 -0.00518182 0.735683 0.215906 0.330245 1.455e-05 2
0.00530123 0.00945516 -0.00990892 0.735683 0.215906 0.330245 1.99721e-05 2
0.0041224 0.0108032 -0.00904732 0.735683 0.215906 0.330245 2.17173e-05 2
0.00578522 0.0143737 -0.00995483 0.735683 0.215906 0.330245 4.46487e-05 2
0.00473766 0.00690547 -0.008991 0.735683 0.215906 0.330245 2.16531e-05 2
0.00859075 0.0133923 -0.0108201 0.735683 0.215906 0.330245 6.543e-05 2
0.0115953 0.00897545 -0.00621755 0.735683 0.215906 0.330245 3.20785e-05 2
0.0116434 0.0109259 -0.00520338 0.735683 0.215906 0.330245 4.48325e-05 2
0.00326013 0.00891675 -0.0107141 0.735683 0.215906 0.330245 1.57561e-05 2
0.00210676 0.0179216 -0.0095947 0.735683 0.215906 0.330245 2.73893e-05 2
-0.000877474 0.0182064 -0.00898152 0.735683 0.215906 0.330245 1.19202e-05 2
0.0043686 0.0198883 -0.00883529 0.735683 0.215906 0.330245 1.14905e-05 2
-0.00010036 0.0140798 -0.00970576 0.735683 0.215906 0.330245 1.29194e-05 2
0.0110283 0.00859068 -0.00995103 0.735683 0.215906 0.330245 1.95014e-05 2
0.00618432 0.0134784 -0.00693159 0.735683 0.215906 0.330245 6.04761e-05 2
0.00645488 0.0166336 -0.00798231 0.735683 0.215906 0.330245 3.4238e-05 2
0.0106445 0.0195003 -0.00917414 0.735683 0.215906 0.330245 4.43762e-05 2
0.00823445 0.00994321 -0.0107998 0.735683 0.215906 0.330245 1.77014e-05 2
-0.00217869 0.0232254 0.00404549 0.735683 0.215906 0.330245 2.48818e-05 2
6.21869e-05 0.0228015 -0.00264719 0.735683 0.215906 0.330245 2.44519e-05 2
-0.0027095 0.0315937 0.00703699 0.735683 0.215906 0.330245 3.15665e-05 2
-0.000944187 0.0255809 0.00445195 0.735683 0.215906 0.330245 3.00009e-05 2
-0.00310613 0.0325758 0.0079105 0.735683 0.215906 0.330245 1.20418e-05 2
-0.00144102 0.0233368 0.00588297 0.735683 0.215906 0.330245 3.28244e-05 2
-0.00104018 0.0201585 0.00535271 0.735683 0.215906 0.330245 3.43603e-05 2
0.00187404 0.029182 0.00505425 0.735683 0.215906 0.330245 4.08108e-05 2
-0.000517305 0.0221441 0.0046087 0.735683 0.215906 0.330245 8.99827e-06 2
-0.00253732 0.0265005 0.00239414 0.735683 0.215906 0.330245 2.82203e-05 2
-0.00251936 0.0245606 0.00206122 0.735683 0.215906 0.330245 1.82316e-05 2
-0.00137869 0.0243689 -0.000901665 0.735683 0.215906 0.330245 2.1999e-05 2
-0.00124929 0.0276785 0.00606688 0.735683 0.215906 0.330245 5.52851e-05 2
0.000283362 0.0270373 0.00502529 0.735683 0.215906 0.330245 1.76088e-05 2
-0.00133314 0.0262199 0.00841136 0.735683 0.215906 0.330245 4.68477e-05 2
0.00218517 0.0222326 0.00448484 0.735683 0.215906 0.330245 3.16131e-05 2
-0.00215177 0.0232665 0.0083277 0.735683 0.215906 0.330245 2.41583e-05 2
0.00377584 0.0243773 0.00451379 0.735683 0.215906 0.330245 9.36311e-05 2
0.000544313 0.0185178 0.00809353 0.735683 0.215906 0.330245 3.99458e-05 2
-0.00114198 0.0206398 0.00803012 0.735683 0.215906 0.330245 8.93229e-06 2
8.35566e-05 0.0210143 0.00382144 0.735683 0.215906 0.330245 1.2233e-05 2
0.00125506 0.0185881 0.0056488 0.735683 0.215906 0.330245 3.97876e-05 2
0.00954952 0.0221886 0.00992674 0.735683 0.215906 0.330245 3.63099e-05 2
-0.00216644 0.0287468 0.00928123 0.735683 0.215906 0.330245 3.01969e-05 2
0.00307509 0.0285651 0.0098875 0.735683 0.215906 0.330245 3.46802e-05 2
0.00847215 0.0207839 0.00456354 0.735683 0.215906 0.330245 3.92754e-05 2
0.00691082 0.0192863 0.00615578 0.735683 0.215906 0.330245 0.000237892 2
0.00660782 0.017153 0.0090277 0.735683 0.215906 0.330245 9.86412e-05 2
0.00574016 0.0222284 0.00904796 0.735683 0.215906 0.330245 9.86412e-05 2
0.0100026 0.0211727 0.00910784 0.735683 0.215906 0.330245 5.10624e-05 2
0.00816705 0.0228815 0.00617848 0.735683 0.215906 0.330245 0.000124294 2
0.00699639 0.0258235 0.00907066 0.735683 0.215906 0.330245 4.94143e-05 2
0.000303754 0.0251044 0.00982175 0.735683 0.215906 0.330245 1.76466e-05 2
0.00562822 0.0249301 0.0107436 0.735683 0.215906 0.330245 3.91723e-05 2
-0.000163874 0.0293514 0.0107212 0.735683 0.215906 0.330245 2.41828e-05 2
0.000644937 0.0267903 0.0106985 0.735683 0.215906 0.330245 1.47621e-05 2
0.00117142 0.020029 0.0098015 0.735683 0.215906 0.330245 1.76466e-05 2
0.00669032 0.0152781 0.010713 0.735683 0.215906 0.330245 4.07752e-05 2
0.00301299 0.0164437 0.0106853 0.735683 0.215906 0.330245 2.06831e-05 2
-0.00159763 0.01827 0.00885492 0.735683 0.215906 0.330245 2.44336e-05 2
8.86627e-05 0.016148 0.00891833 0.735683 0.215906 0.330245 4.61238e-05 2
0.00258183 0.014108 0.010663 0.735683 0.215906 0.330245 5.51662e-05 2
-0.00145207 0.0154347 0.00840186 0.735683 0.215906 0.330245 9.23647e-06 2
0.00641259 0.01279 0.0107306 0.735683 0.215906 0.330245 3.01009e-05 2
0.0164762 0.0107735 0.0108299 0.735683 0.215906 0.330245 2.25882e-05 2
0.0115082 0.00907698 0.00582885 0.735683 0.215906 0.330245 0.000238527 2
0.0127035 0.0119306 0.00993583 0.735683 0.215906 0.330245 4.99874e-05 2
0.0110486 0.00723614 0.007919 0.735683 0.215906 0.330245 4.33587e-05 2
0.0154106 0.0169752 0.0112109 0.735683 0.215906 0.330245 2.25574e-05 2
0.00872712 0.0160557 0.00989392 0.735683 0.215906 0.330245 4.04579e-05 2
0.0102258 0.0133395 0.0107359 0.735683 0.215906 0.330245 2.61513e-05 2
0.00916048 0.00878473 0.00910952 0.735683 0.215906 0.330245 8.82315e-05 2
0.011034 0.0103181 0.00994957 0.735683 0.215906 0.330245 1.11978e-05 2
0.014912 0.0082759 0.00172951 0.735683 0.215906 0.330245 0.000357826 2
0.0111733 0.0182307 0.00621566 0.735683 0.215906 0.330245 0.000128439 2
0.0178882 0.0155663 0.0104108 0.735683 0.215906 0.330245 1.42184e-05 2
0.00777849 0.0142109 0.00613552 0.735683 0.215906 0.330245 0.000237892 2
0.0122626 0.0141172 0.00991685 0.735683 0.215906 0.330245 3.28878e-05 2
0.013551 0.00763391 0.0108617 0.735683 0.215906 0.330245 1.36796e-05 2
0.0125558 0.0175378 0.00996392 0.735683 0.215906 0.330245 2.49141e-05 2
0.0160913 0.0155992 0.00998686 0.735683 0.215906 0.330245 1.53056e-05 2
0.015984 0.0132836 0.00209488 0.735683 0.215906 0.330245 0.000230459 2
0.0225993 0.0228169 2.69129e-05 0.978422 0.557937 0.034931 0.000360897 3
0.0183543 0.022297 -0.00415232 0.978422 0.557937 0.034931 0.000304532 3
0.0144753 0.0173192 -0.0100127 0.978422 0.557937 0.034931 1.56612e-05 3
0.0128204 0.00438994 -0.00993114 0.978422 0.557937 0.034931 1.5591e-05 3
0.0178577 0.015509 -0.0100061 0.978422 0.557937 0.034931 3.19465e-05 3
0.0215103 0.0137089 -0.0100058 0.978422 0.557937 0.034931 5.19262e-06 3
0.0170811 0.0107802 -0.00999231 0.978422 0.557937 0.034931 7.35384e-06 3
0.0242698 0.0172201 -0.00916621 0.978422 0.557937 0.034931 8.66224e-06 3
0.016273 0.00758433 -0.00997038 0.978422 0.557937 0.034931 1.30126e-05 3
0.0155717 0.00547196 -0.0107928 0.978422 0.557937 0.034931 3.00677e-05 3
0.0265724 0.0217813 -0.0100006 0.978422 0.557937 0.034931 1.60702e-05 3
0.0124729 0.00615319 -0.0107939 0.978422 0.557937 0.034931 3.48409e-05 3
0.0189969 0.0188326 -0.00415323 0.978422 0.557937 0.034931 0.000141398 3
0.0235444 0.0147564 -0.0108508 0.978422 0.557937 0.034931 5.11063e-06 3
0.025555 0.0201553 -0.0100027 0.978422 0.557937 0.034931 4.7328e-06 3
0.0133479 0.00522826 -0.00794074 0.978422 0.557937 0.034931 4.97083e-06 3
0.0152321 0.0178342 -0.0108579 0.978422 0.557937 0.034931 3.54177e-05 3
0.0140696 0.0165165 -0.00917129 0.978422 0.557937 0.034931 2.90147e-05 3
0.0162235 0.019955 -0.0108601 0.978422 0.557937 0.034931 4.82873e-05 3
0.0201977 0.0111869 -0.00999864 0.978422 0.557937 0.034931 1.08654e-05 3
0.0215086 0.0158076 -0.0100067 0.978422 0.557937 0.034931 1.01136e-05 3
0.0223253 0.0171286 2.83432e-05 0.978422 0.557937 0.034931 7.58042e-05 3
0.0179049 0.0171794 -0.00415111 0.978422 0.557937 0.034931 0.000151648 3
0.0134709 0.00878517 -0.00911835 0.978422 0.557937 0.034931 1.32759e-05 3
0.0145892 0.0132322 -0.0100039 0.978422 0.557937 0.034931 2.60249e-05 3
0.021299 0.0122442 -0.00414136 0.978422 0.557937 0.034931 7.28986e-05 3
0.0149948 0.0140348 -0.0108453 0.978422 0.557937 0.034931 4.22425e-05 3
0.0219385 0.0122363 -0.00915975 0.978422 0.557937 0.034931 1.46883e-05 3
0.0129995 0.0140199 -0.00727162 0.978422 0.557937 0.034931 3.57565e-05 3
0.0193264 0.0229373 -0.00916531 0.978422 0.557937 0.034931 6.13349e-05 3
0.0233105 0.0236894 -0.00916277 0.978422 0.557937 0.034931 3.79397e-05 3
0.0227996 0.016688 -0.0108497 0.978422 0.557937 0.034931 6.99007e-06 3
0.0263533 0.0232012 -0.010836 0.978422 0.557937 0.034931 1.81626e-05 3
0.0205919 0.0128772 -0.0108451 0.978422 0.557937 0.034931 5.71428e-06 3
0.019969 0.0194729 -0.00916623 0.978422 0.557937 0.034931 2.84683e-05 3
0.0244325 0.0171628 -0.00414417 0.978422 0.557937 0.034931 4.30151e-05 3
0.0155592 0.0110005 -0.00207447 0.978422 0.557937 0.034931 0.000129716 3
0.0254548 0.0215004 -0.00916398 0.978422 0.557937 0.034931 1.48802e-05 3
0.0138893 0.0159075 -0.0020845 0.978422 0.557937 0.034931 0.000474444 3
0.018877 0.0178197 -0.0091641 0.978422 0.557937 0.034931 3.05319e-05 3
0.018849 0.0176297 -0.0100083 0.978422 0.557937 0.034931 2.82582e-05 3
0.0199996 0.0145555 2.82726e-05 0.978422 0.557937 0.034931 6.3111e-05 3
0.0269673 0.0225534 -0.00414488 0.978422 0.557937 0.034931 7.39398e-05 3
0.0231347 0.0178262 -0.0100067 0.978422 0.557937 0.034931 6.96276e-06 3
0.017198 0.00897507 -0.0108228 0.978422 0.557937 0.034931 2.03074e-05 3
0.0245595 0.0190553 -0.0108445 0.978422 0.557937 0.034931 1.36726e-05 3
0.0231128 0.0137714 -0.0108493 0.978422 0.557937 0.034931 4.44004e-06 3
0.0299129 0.0174801 0.0113713 0.978422 0.557937 0.034931 2.15663e-05 3
0.0261277 0.012937 0.0112376 0.978422 0.557937 0.034931 7.67668e-06 3
0.0238472 0.0213326 0.00919832 0.978422 0.557937 0.034931 3.58768e-05 3
0.0244914 0.013104 0.00933481 0.978422 0.557937 0.034931 1.51145e-05 3
0.0304783 0.0201153 0.0113005 0.978422 0.557937 0.034931 3.59318e-05 3
0.020526 0.0133908 0.0114126 0.978422 0.557937 0.034931 1.48249e-05 3
0.0328486 0.0207613 0.00416425 0.978422 0.557937 0.034931 0.000115607 3
0.027533 0.0170829 0.0105841 0.978422 0.557937 0.034931 1.61547e-05 3
0.0196 0.0238279 0.0117114 0.978422 0.557937 0.034931 3.95086e-05 3
0.0188189 0.011209 0.0108187 0.978422 0.557937 0.034931 1.58385e-05 3
0.0221546 0.0114247 0.0111377 0.978422 0.557937 0.034931 3.8798e-06 3
0.0218673 0.0098833 0.0109597 0.978422 0.557937 0.034931 4.94152e-06 3
0.0242659 0.0213251 0.011962 0.978422 0.557937 0.034931 3.59132e-05 3
0.0254031 0.0132545 0.0103265 0.978422 0.557937 0.034931 9.04385e-06 3
0.0208927 0.0175746 0.0110974 0.978422 0.557937 0.034931 8.86931e-06 3
0.026383 0.0200925 0.0104842 0.978422 0.557937 0.034931 5.07214e-05 3
0.0254909 0.0147118 0.0114297 0.978422 0.557937 0.034931 6.53818e-06 3
0.0279694 0.0161363 0.0093034 0.978422 0.557937 0.034931 1.44635e-05 3
0.0303494 0.0165335 0.0100906 0.978422 0.557937 0.034931 1.95481e-05 3
0.0238243 0.0168492 0.0120238 0.978422 0.557937 0.034931 2.12211e-05 3
0.0227769 0.0190891 0.0123726 0.978422 0.557937 0.034931 5.45627e-05 3
0.0214539 0.0146528 0.0106069 0.978422 0.557937 0.034931 3.41e-05 3
0.0176692 0.0236781 0.013664 0.978422 0.557937 0.034931 1.28875e-05 3
0.0208136 0.0203413 0.0106784 0.978422 0.557937 0.034931 2.51484e-05 3
0.0264136 0.0144471 0.0102907 0.978422 0.557937 0.034931 8.59325e-06 3
0.0230825 0.0126867 0.0103321 0.978422 0.557937 0.034931 1.06186e-05 3
0.0228518 0.0154853 0.0117403 0.978422 0.557937 0.034931 2.12211e-05 3
0.0185285 0.0137736 0.0112249 0.978422 0.557937 0.034931 1.45167e-05 3
0.0216969 0.0181888 0.00919847 0.978422 0.557937 0.034931 1.89602e-05 3
0.0239108 0.0194706 0.00420595 0.978422 0.557937 0.034931 0.00018256 3
0.0267127 0.0198599 0.00421659 0.978422 0.557937 0.034931 8.73287e-05 3
0.0305441 0.0144744 0.0108876 0.978422 0.557937 0.034931 1.80689e-05 3
0.0264634 0.0160757 0.0117131 0.978422 0.557937 0.034931 6.53818e-06 3
0.0223818 0.0198107 0.0106869 0.978422 0.557937 0.034931 2.95227e-05 3
0.0319463 0.0170207 0.00914326 0.978422 0.557937 0.034931 1.35134e-05 3
0.0227528 0.0130673 3.76195e-05 0.978422 0.557937 0.034931 0.000111182 3
0.0310061 0.016923 0.00417522 0.978422 0.557937 0.034931 6.85147e-05 3
0.032141 0.0149616 0.00994021 0.978422 0.557937 0.034931 1.26756e-05 3
0.0193245 0.0181052 0.011089 0.978422 0.557937 0.034931 2.94452e-05 3
0.0292236 0.017318 3.04881e-05 0.978422 0.557937 0.034931 5.44465e-05 3
0.0277838 0.0170185 0.00421131 0.978422 0.557937 0.034931 6.59815e-05 3
0.0214534 0.0153786 0.00420725 0.978422 0.557937 0.034931 9.63524e-05 3
0.0317807 0.0151397 -6.5499e-06 0.978422 0.557937 0.034931 7.92663e-05 3
0.0247548 0.0107709 0.0012395 0.978422 0.557937 0.034931 0.000129293 3
0.0442699 0.00224661 -0.0011286 0.978422 0.557937 0.034931 6.11401e-07 3
0.0466656 0.00238422 -0.00831426 0.978422 0.557937 0.034931 5.21913e-06 3
0.0316521 0.00175213 -0.00956763 0.978422 0.557937 0.034931 3.78232e-06 3
0.0437807 0.00343431 -0.000948629 0.978422 0.557937 0.034931 5.15557e-06 3
0.0297066 0.0014919 -0.00942181 0.978422 0.557937 0.034931 5.01967e-06 3
0.0459068 0.000231891 -0.00579914 0.978422 0.557937 0.034931 9.53037e-06 3
0.04514 0.00184371 -0.00866823 0.978422 0.557937 0.034931 7.96351e-06 3
0.0452905 0.000641848 -0.00199897 0.978422 0.557937 0.034931 2.64776e-06 3
0.0445087 0.00420216 -0.00102734 0.978422 0.557937 0.034931 4.72869e-06 3
0.0404749 0.00109286 -0.00748446 0.978422 0.557937 0.034931 2.07079e-06 3
0.0448145 -0.000410252 -0.0051755 0.978422 0.557937 0.034931 6.73195e-06 3
0.0293607 0.000107796 -0.00740628 0.978422 0.557937 0.034931 4.54872e-06 3
0.0439455 0.00391633 0.000358547 0.978422 0.557937 0.034931 6.09152e-06 3
0.0455397 0.00216957 -0.00503197 0.978422 0.557937 0.034931 3.74812e-06 3
0.0381128 0.000692222 -0.00888425 0.978422 0.557937 0.034931 8.49735e-06 3
0.0445495 0.00118374 -0.00205808 0.978422 0.557937 0.034931 1.21113e-06 3
0.0449922 0.00393549 -0.00975863 0.978422 0.557937 0.034931 4.51594e-06 3
0.0460167 0.00147139 -0.00720056 0.978422 0.557937 0.034931 6.66325e-06 3
0.0460186 0.000183233 -0.000940807 0.978422 0.557937 0.034931 3.15195e-06 3
0.0399605 0.00274398 -0.00313124 0.978422 0.557937 0.034931 1.134e-05 3
0.0297502 0.000702413 -0.00894111 0.978422 0.557937 0.034931 3.11999e-06 3
0.0477921 0.00244781 -0.00194243 0.978422 0.557937 0.034931 9.31572e-06 3
0.0478057 0.00405987 -0.00124471 0.978422 0.557937 0.034931 1.49712e-06 3
0.0434369 0.00365889 -0.00549606 0.978422 0.557937 0.034931 7.50898e-06 3
0.0300192 0.00110601 -0.00753929 0.978422 0.557937 0.034931 2.72704e-06 3
0.0457889 0.00275654 -0.00978193 0.978422 0.557937 0.034931 5.83232e-06 3
0.0473119 0.00318307 -0.00475696 0.978422 0.557937 0.034931 9.72491e-07 3
0.0468759 0.00241237 -2.48865e-05 0.978422 0.557937 0.034931 5.37944e-06 3
0.0444274 -0.000485675 -0.00105291 0.978422 0.557937 0.034931 4.93472e-06 3
0.0452012 0.00377791 -0.00665742 0.978422 0.557937 0.034931 1.23107e-06 3
0.0381729 0.00165171 -0.0104943 0.978422 0.557937 0.034931 1.20947e-05 3
0.0473794 0.00324887 -0.00557215 0.978422 0.557937 0.034931 4.60345e-06 3
0.0354139 0.00111551 -0.00753236 0.978422 0.557937 0.034931 3.96762e-06 3
0.0441594 0.00360044 -0.00314952 0.978422 0.557937 0.034931 4.39349e-06 3
0.0442857 0.000342395 -0.00298408 0.978422 0.557937 0.034931 1.63563e-07 3
0.0431304 0.00100172 -0.0096814 0.978422 0.557937 0.034931 1.97137e-05 3
0.0466106 0.00358332 -0.000331212 0.978422 0.557937 0.034931 3.21723e-06 3
0.0369734 0.000681565 -0.0100964 0.978422 0.557937 0.034931 1.24209e-05 3
0.0474057 0.00199229 -0.00350459 0.978422 0.557937 0.034931 7.38437e-06 3
0.0378792 -0.000639039 -0.00678875 0.978422 0.557937 0.034931 2.68724e-05 3
0.0392995 0.000953916 -0.00262648 0.978422 0.557937 0.034931 9.66671e-06 3
0.0373789 0.000948453 -0.0034426 0.978422 0.557937 0.034931 1.67846e-05 3
0.0443199 0.00181389 -0.00866895 0.978422 0.557937 0.034931 2.06664e-06 3
0.0410044 0.00188987 -0.00567989 0.978422 0.557937 0.034931 7.4691e-07 3
0.0443433 0.00302265 -0.00864494 0.978422 0.557937 0.034931 4.47138e-06 3
0.0280227 0.000304674 -0.00767353 0.978422 0.557937 0.034931 1.06457e-06 3
0.0311631 9.7895e-05 -0.00551825 0.978422 0.557937 0.034931 7.71477e-06 3
0.0367076 0.00274434 -0.0087541 0.978422 0.557937 0.034931 5.97379e-06 3
0.0431252 0.000762923 -0.00835505 0.978422 0.557937 0.034931 1.03739e-05 3
0.0415082 0.00187723 -0.0104977 0.978422 0.557937 0.034931 1.15093e-05 3
0.0423849 0.00323192 -0.0050352 0.978422 0.557937 0.034931 6.41639e-06 3
0.0355764 0.00124955 -0.00892846 0.978422 0.557937 0.034931 1.40422e-05 3
0.0380894 0.000267076 -0.00841083 0.978422 0.557937 0.034931 1.90736e-06 3
0.03671 0.00119301 -0.00761833 0.978422 0.557937 0.034931 1.98381e-06 3
0.0364881 0.000152509 -0.00580031 0.978422 0.557937 0.034931 2.82132e-05 3
0.0346478 -0.000373132 -0.0107376 0.978422 0.557937 0.034931 2.24787e-06 3
0.0272799 8.90266e-05 -0.00737429 0.978422 0.557937 0.034931 4.21093e-06 3
0.0313038 0.00155637 -0.0106059 0.978422 0.557937 0.034931 7.54638e-06 3
0.0315675 0.00304954 -0.00597758 0.978422 0.557937 0.034931 3.25802e-06 3
0.0368784 0.00155062 -0.00919393 0.978422 0.557937 0.034931 2.71792e-06 3
0.0401378 0.00196579 -0.00844251 0.978422 0.557937 0.034931 6.47947e-06 3
0.0402362 0.00205327 -0.00965682 0.978422 0.557937 0.034931 8.8469e-06 3
0.0414046 0.00155096 -0.00795709 0.978422 0.557937 0.034931 1.10985e-05 3
0.0354055 0.00244327 -0.00848863 0.978422 0.557937 0.034931 4.24181e-06 3
0.0345368 -0.000698206 -0.00475308 0.978422 0.557937 0.034931 3.45581e-05 3
0.0320828 -0.000701475 -0.00641387 0.978422 0.557937 0.034931 2.16294e-05 3
0.04473 0.00319567 -0.00698733 0.978422 0.557937 0.034931 3.11226e-06 3
0.0286544 0.000311863 -0.00771899 0.978422 0.557937 0.034931 8.2715e-07 3
0.0465286 -0.000321342 -0.00490202 0.978422 0.557937 0.034931 1.01433e-06 3
0.0446676 0.00255915 -0.000265018 0.978422 0.557937 0.034931 3.69439e-07 3
0.0459725 0.00261435 -0.00636137 0.978422 0.557937 0.034931 3.97255e-06 3
0.044405 0.000353736 -0.00382209 0.978422 0.557937 0.034931 4.14111e-06 3
0.0464437 0.00319659 -0.00603146 0.978422 0.557937 0.034931 1.12188e-06 3
0.0452761 0.00176024 -0.00190005 0.978422 0.557937 0.034931 3.40754e-06 3
0.029714 8.63154e-05 -0.00553173 0.978422 0.557937 0.034931 7.71477e-06 3
0.0455279 0.0020286 -0.00104393 0.978422 0.557937 0.034931 2.05901e-06 3
0.0445385 0.00229176 -0.00433528 0.978422 0.557937 0.034931 3.84689e-07 3
0.0468132 0.00395228 -0.00101886 0.978422 0.557937 0.034931 1.97469e-06 3
0.0456845 -4.74259e-05 0.000100703 0.978422 0.557937 0.034931 5.40988e-06 3
0.0423877 0.0027501 -0.00203652 0.978422 0.557937 0.034931 4.84326e-06 3
0.0445351 0.00230213 -0.00195915 0.978422 0.557937 0.034931 3.057e-07 3
0.0472193 0.00155794 -0.000829363 0.978422 0.557937 0.034931 7.93481e-06 3
0.0439361 0.00110427 -0.00390158 0.978422 0.557937 0.034931 9.95183e-07 3
0.0400543 -0.00058893 -0.00509743 0.978422 0.557937 0.034931 2.70317e-05 3
0.0459475 0.00124632 -0.000156714 0.978422 0.557937 0.034931 3.0298e-06 3
0.0294121 0.00324203 -0.00630377 0.978422 0.557937 0.034931 3.97225e-06 3
0.0415489 0.0002603 -0.00660953 0.978422 0.557937 0.034931 1.97344e-05 3
0.0432753 -0.000460541 -0.00710546 0.978422 0.557937 0.034931 1.99767e-05 3
0.0442843 0.00112822 -0.00122752 0.978422 0.557937 0.034931 2.42225e-06 3
0.0440205 0.000286874 -0.00215352 0.978422 0.557937 0.034931 4.08873e-06 3
0.0462294 0.00153715 -0.000831245 0.978422 0.557937 0.034931 1.93415e-06 3
0.0456148 0.00210638 -0.00325975 0.978422 0.557937 0.034931 2.93946e-06 3
0.0461614 0.00161634 -0.00413485 0.978422 0.557937 0.034931 1.34868e-06 3
0.04647 0.00194001 -0.0039639 0.978422 0.557937 0.034931 2.1161e-06 3
0.0452372 0.000576175 -0.00368993 0.978422 0.557937 0.034931 2.64776e-06 3
0.0460925 0.00040981 -0.00439409 0.978422 0.557937 0.034931 1.64759e-06 3
0.0457695 0.00120453 -0.00446611 0.978422 0.557937 0.034931 4.03076e-06 3
0.0336684 0.00283176 -0.000653173 0.978422 0.557937 0.034931 1.64112e-05 3
0.0437049 0.00323259 -0.00332793 0.978422 0.557937 0.034931 1.08787e-06 3
0.0361627 0.00381705 -0.00105828 0.978422 0.557937 0.034931 2.27039e-05 3
0.0326777 0.00113135 -0.00761285 0.978422 0.557937 0.034931 2.85356e-06 3
0.043383 0.00312177 -0.00181221 0.978422 0.557937 0.034931 6.57682e-06 3
0.0317295 -0.000679994 -0.00828842 0.978422 0.557937 0.034931 7.24883e-06 3
0.0335707 0.00133838 -0.00910019 0.978422 0.557937 0.034931 7.88533e-06 3
0.0323038 0.00318972 -0.00616678 0.978422 0.557937 0.034931 2.5438e-06 3
0.0354276 9.77375e-05 -0.00239538 0.978422 0.557937 0.034931 1.82201e-05 3
0.0335943 0.000902505 -0.00249503 0.978422 0.557937 0.034931 2.3932e-05 3
0.0304375 0.00165585 -0.00956552 0.978422 0.557937 0.034931 5.11396e-07 3
0.0405837 0.000208081 -0.00329286 0.978422 0.557937 0.034931 1.28656e-05 3
0.0293129 0.00131008 -0.00785201 0.978422 0.557937 0.034931 3.32486e-06 3
0.0432494 0.00105628 -0.00395494 0.978422 0.557937 0.034931 3.85668e-06 3
0.0410122 0.00273161 -0.0014432 0.978422 0.557937 0.034931 1.06349e-05 3
0.0401707 0.0028307 -0.00467254 0.978422 0.557937 0.034931 9.01217e-07 3
0.0420783 0.00105731 -0.00480496 0.978422 0.557937 0.034931 8.6602e-06 3
0.0301184 0.00303796 -0.00599106 0.978422 0.557937 0.034931 3.25802e-06 3
0.0380399 0.00273852 -0.00394736 0.978422 0.557937 0.034931 1.96901e-05 3
0.033414 0.00127153 -0.00780206 0.978422 0.557937 0.034931 2.228e-06 3
0.0382619 0.00295963 -0.00568461 0.978422 0.557937 0.034931 2.28533e-06 3
0.0447113 0.00457113 -0.00171499 0.978422 0.557937 0.034931 2.9024e-06 3
0.0369658 0.00288212 -0.00559864 0.978422 0.557937 0.034931 4.57067e-06 3
0.0288138 -0.000290035 -0.00945327 0.978422 0.557937 0.034931 2.68451e-06 3
0.0436482 0.00317729 -0.00264276 0.978422 0.557937 0.034931 2.14869e-07 3
0.0439081 0.00424113 -0.00516615 0.978422 0.557937 0.034931 3.23049e-06 3
0.0431374 0.00319594 -0.00421931 0.978422 0.557937 0.034931 5.56608e-06 3
0.0333402 0.00285594 -0.00282134 0.978422 0.557937 0.034931 3.2888e-05 3
0.0358345 0.00384124 -0.00322645 0.978422 0.557937 0.034931 4.01366e-05 3
0.0334094 0.00272799 -0.00886583 0.978422 0.557937 0.034931 2.38197e-06 3
0.0315298 0.00285937 -0.00428342 0.978422 0.557937 0.034931 1.29921e-05 3
0.0430182 0.0031846 -0.00338129 0.978422 0.557937 0.034931 3.7061e-06 3
0.0411345 0.00098061 -0.000699426 0.978422 0.557937 0.034931 8.67042e-06 3
0.0411004 0.0032888 -0.00514518 0.978422 0.557937 0.034931 1.25786e-05 3
0.0419341 0.00234797 -0.00615252 0.978422 0.557937 0.034931 4.89223e-06 3
0.0438518 0.00224377 -0.00438864 0.978422 0.557937 0.034931 2.08216e-06 3
0.0430108 0.0010336 -0.00227891 0.978422 0.557937 0.034931 3.85668e-06 3
0.0424187 0.000234774 -0.0013658 0.978422 0.557937 0.034931 7.30026e-06 3
0.0411626 -0.000591772 -0.00152973 0.978422 0.557937 0.034931 7.69535e-06 3
0.0325471 0.000584749 -0.0100068 0.978422 0.557937 0.034931 1.34374e-05 3
0.0326756 0.00250577 -0.00866099 0.978422 0.557937 0.034931 1.83581e-06 3
0.0308099 0.000119376 -0.0073928 0.978422 0.557937 0.034931 4.54872e-06 3
0.032373 0.000146094 -0.00817048 0.978422 0.557937 0.034931 6.6143e-07 3
0.0317838 0.000905931 -0.0039571 0.978422 0.557937 0.034931 9.45413e-06 3
0.0284576 -0.000502671 -0.00847537 0.978422 0.557937 0.034931 4.75173e-06 3
0.0313762 -0.000301024 -0.00952402 0.978422 0.557937 0.034931 5.28794e-06 3
0.0316634 0.000312428 -0.00842818 0.978422 0.557937 0.034931 4.58865e-06 3
0.0410338 7.84978e-05 0.00668663 0.978422 0.557937 0.034931 1.37029e-05 3
0.0305105 6.39178e-05 0.00679554 0.978422 0.557937 0.034931 7.24952e-06 3
0.0380593 0.00220576 0.00720117 0.978422 0.557937 0.034931 3.62987e-06 3
0.0422077 0.002827 0.00605695 0.978422 0.557937 0.034931 8.0561e-06 3
0.0317574 -0.000414619 0.00923207 0.978422 0.557937 0.034931 3.92956e-06 3
0.0441696 0.00247541 0.00693171 0.978422 0.557937 0.034931 3.7104e-07 3
0.043582 0.00128562 0.00844325 0.978422 0.557937 0.034931 2.47217e-06 3
0.0423668 -0.000706979 0.00791718 0.978422 0.557937 0.034931 1.93988e-05 3
0.0371039 1.87187e-05 0.00769801 0.978422 0.557937 0.034931 9.43578e-06 3
0.0422187 0.000163213 0.00375077 0.978422 0.557937 0.034931 1.13453e-05 3
0.0458267 0.000260061 0.00882651 0.978422 0.557937 0.034931 1.2221e-05 3
0.0442594 0.000319022 0.00773639 0.978422 0.557937 0.034931 7.59992e-06 3
0.0442741 0.00122447 0.00442665 0.978422 0.557937 0.034931 2.95673e-06 3
0.044197 0.00126506 0.00660156 0.978422 0.557937 0.034931 4.28861e-06 3
0.0437236 0.00108857 0.00544743 0.978422 0.557937 0.034931 4.57385e-06 3
0.0322859 6.33544e-05 0.00800343 0.978422 0.557937 0.034931 4.71789e-06 3
0.0311421 8.57892e-05 0.00962741 0.978422 0.557937 0.034931 4.3627e-06 3
0.0324377 4.60635e-05 0.00667337 0.978422 0.557937 0.034931 7.24952e-06 3
0.0392671 0.000180807 0.0095706 0.978422 0.557937 0.034931 2.55119e-06 3
0.0332248 -0.000818507 0.00625147 0.978422 0.557937 0.034931 2.36042e-05 3
0.0430349 0.00299237 0.00118587 0.978422 0.557937 0.034931 6.70368e-06 3
0.042453 0.000928009 0.00535171 0.978422 0.557937 0.034931 5.45573e-06 3
0.0465862 0.00204422 0.00553071 0.978422 0.557937 0.034931 4.0746e-06 3
0.0466963 0.00215155 0.00420101 0.978422 0.557937 0.034931 3.74557e-06 3
0.044847 0.00150881 0.00622485 0.978422 0.557937 0.034931 6.4282e-07 3
0.04478 0.00311114 0.00380144 0.978422 0.557937 0.034931 1.82578e-06 3
0.0315812 0.00200428 0.00684652 0.978422 0.557937 0.034931 1.07068e-05 3
0.0353285 1.9282e-05 0.00649011 0.978422 0.557937 0.034931 1.4499e-05 3
0.0375381 3.57344e-05 0.00403108 0.978422 0.557937 0.034931 2.4523e-05 3
0.0342131 4.55002e-05 0.00788126 0.978422 0.557937 0.034931 4.71789e-06 3
0.0445581 0.00245244 0.00105703 0.978422 0.557937 0.034931 3.434e-07 3
0.0446912 0.00035567 -0.00012691 0.978422 0.557937 0.034931 3.02358e-06 3
0.0407995 -0.000686299 0.00508569 0.978422 0.557937 0.034931 2.86699e-05 3
0.0354344 -0.000802055 0.00379243 0.978422 0.557937 0.034931 3.48099e-05 3
0.0390792 -0.000729625 0.00363804 0.978422 0.557937 0.034931 1.66727e-05 3
0.0316739 2.05672e-05 0.00381496 0.978422 0.557937 0.034931 1.63281e-05 3
0.043942 0.00214208 0.0025098 0.978422 0.557937 0.034931 4.22678e-07 3
0.045581 0.00103138 0.00517751 0.978422 0.557937 0.034931 3.3764e-07 3
0.0378204 0.000889435 0.00161344 0.978422 0.557937 0.034931 1.18907e-05 3
0.0339698 -0.000779543 0.000978685 0.978422 0.557937 0.034931 2.5433e-05 3
0.0321365 2.52244e-05 0.00087904 0.978422 0.557937 0.034931 1.58421e-05 3
0.0454616 0.000937238 0.0103219 0.978422 0.557937 0.034931 8.75073e-06 3
0.0425243 0.000998505 0.00923862 0.978422 0.557937 0.034931 4.09354e-06 3
0.0454098 0.00223639 0.0106729 0.978422 0.557937 0.034931 6.3011e-06 3
0.0434783 0.00298755 0.00615268 0.978422 0.557937 0.034931 4.72007e-06 3
0.043577 0.00228758 0.00661559 0.978422 0.557937 0.034931 5.54226e-08 3
0.0442214 0.00222877 0.00444225 0.978422 0.557937 0.034931 1.81469e-07 3
0.0462046 0.00040436 0.00244436 0.978422 0.557937 0.034931 3.82987e-06 3
0.0454288 0.00192783 0.00454904 0.978422 0.557937 0.034931 6.91034e-07 3
0.0455609 0.00206221 0.00391591 0.978422 0.557937 0.034931 1.32627e-06 3
0.0443531 0.00224178 0.00168671 0.978422 0.557937 0.034931 2.3219e-07 3
0.0441283 0.00323131 0.00577596 0.978422 0.557937 0.034931 6.13958e-07 3
0.044009 0.00321996 0.00661398 0.978422 0.557937 0.034931 1.23755e-07 3
0.0435196 0.00223166 0.00730842 0.978422 0.557937 0.034931 8.4452e-07 3
0.0433664 -0.00053396 -0.000219288 0.978422 0.557937 0.034931 9.16008e-06 3
0.0436833 -0.000575533 0.00281352 0.978422 0.557937 0.034931 8.85746e-06 3
0.0443535 0.00236315 0.00380912 0.978422 0.557937 0.034931 3.48285e-07 3
0.0444681 0.000325172 0.00339368 0.978422 0.557937 0.034931 4.42383e-06 3
0.0456029 0.00105844 0.00587408 0.978422 0.557937 0.034931 4.73907e-06 3
0.0431991 0.00428814 0.00510888 0.978422 0.557937 0.034931 1.40624e-05 3
0.0456755 2.42354e-05 0.00350047 0.978422 0.557937 0.034931 6.97339e-06 3
0.044415 0.00120809 0.00128687 0.978422 0.557937 0.034931 1.90282e-06 3
0.0454083 0.000804996 0.00151448 0.978422 0.557937 0.034931 3.4068e-06 3
0.0454815 0.000923538 0.00453344 0.978422 0.557937 0.034931 4.56664e-06 3
0.0453464 0.00183868 0.00191432 0.978422 0.557937 0.034931 1.31287e-06 3
0.0440039 0.00110839 0.00210995 0.978422 0.557937 0.034931 3.46389e-06 3
0.0432191 0.000207687 0.0015298 0.978422 0.557937 0.034931 7.31207e-06 3
0.0393615 0.000124075 0.0012204 0.978422 0.557937 0.034931 9.48975e-06 3
0.0357558 7.35545e-05 -0.000227211 0.978422 0.557937 0.034931 1.44637e-05 3
0.0339225 0.000878322 -0.000326856 0.978422 0.557937 0.034931 1.19421e-05 3
0.0414368 0.000961742 0.0010225 0.978422 0.557937 0.034931 9.31332e-06 3
0.0404983 0.00093928 0.00222235 0.978422 0.557937 0.034931 1.11763e-05 3
0.0384814 0.0026795 0.00110869 0.978422 0.557937 0.034931 1.3949e-05 3
0.039859 0.00448783 0.00334006 0.978422 0.557937 0.034931 4.61194e-05 3
0.0413145 0.00271274 0.000278724 0.978422 0.557937 0.034931 1.14235e-05 3
0.0438927 0.00386492 0.000995424 0.978422 0.557937 0.034931 3.11701e-06 3
0.0423852 0.00413589 0.00245123 0.978422 0.557937 0.034931 2.46751e-05 3
0.0403761 0.00269028 0.00147857 0.978422 0.557937 0.034931 1.37085e-05 3
0.0437734 0.00385358 0.00183344 0.978422 0.557937 0.034931 5.34473e-06 3
0.0398784 0.000154063 -0.000863355 0.978422 0.557937 0.034931 6.32828e-06 3
0.026042 1.82928e-05 -0.00290679 0.978422 0.557937 0.034931 4.81001e-06 3
0.030024 0.000879321 0.00728318 0.978422 0.557937 0.034931 2.70077e-05 3
0.030675 0.00633798 0.00383889 0.978422 0.557937 0.034931 0.000150653 3
0.0213813 5.21458e-05 0.00515212 0.978422 0.557937 0.034931 8.48615e-06 3
0.0292585 -0.000791384 0.00570301 0.978422 0.557937 0.034931 1.17818e-05 3
0.0213368 0.000875152 0.00129556 0.978422 0.557937 0.034931 3.92525e-05 3
0.0297687 0.000365768 0.00990697 0.978422 0.557937 0.034931 4.3627e-06 3
0.0246919 0.00545041 -0.000710951 0.978422 0.557937 0.034931 6.71675e-05 3
0.0268803 -0.000820366 -0.00123928 0.978422 0.557937 0.034931 6.60065e-06 3
0.0283596 6.46002e-05 0.00533212 0.978422 0.557937 0.034931 7.24952e-06 3
0.0310889 0.00313872 0.00157214 0.978422 0.557937 0.034931 3.92441e-05 3
0.0246285 -0.000745639 0.00627618 0.978422 0.557937 0.034931 9.261e-06 3
0.0298059 0.00200484 0.00563863 0.978422 0.557937 0.034931 1.64521e-05 3
0.0284567 -0.000116786 0.00963381 0.978422 0.557937 0.034931 6.83802e-06 3
0.0260977 0.000880567 0.00461187 0.978422 0.557937 0.034931 4.15001e-05 3
0.0282486 0.000879884 0.00607528 0.978422 0.557937 0.034931 4.15001e-05 3
0.0276549 0.00200552 0.00417521 0.978422 0.557937 0.034931 1.64521e-05 3
0.0256267 0.00200616 0.0027953 0.978422 0.557937 0.034931 1.45744e-05 3
0.0250578 0.00458974 -0.00529445 0.978422 0.557937 0.034931 1.81644e-05 3
0.0293936 -0.00079937 -0.000966939 0.978422 0.557937 0.034931 9.77932e-06 3
0.0251313 -0.000805706 0.000937676 0.978422 0.557937 0.034931 1.86817e-05 3
0.0217334 5.936e-05 0.0061572 0.978422 0.557937 0.034931 3.05873e-05 3
0.0237174 0.000873996 0.00222687 0.978422 0.557937 0.034931 3.70775e-05 3
0.0271268 0.00120159 0.00806396 0.978422 0.557937 0.034931 3.62606e-05 3
0.0303475 -0.000812601 0.000759028 0.978422 0.557937 0.034931 1.12418e-05 3
0.0230931 6.90676e-06 -0.0034584 0.978422 0.557937 0.034931 6.96806e-06 3
0.0265282 0.00240988 -0.00615745 0.978422 0.557937 0.034931 4.46847e-06 3
0.0302868 4.67459e-05 0.00520995 0.978422 0.557937 0.034931 7.24952e-06 3
0.0256781 0.00239811 -0.00576332 0.978422 0.557937 0.034931 2.23424e-06 3
0.0234643 3.36163e-05 -0.000605329 0.978422 0.557937 0.034931 2.54791e-05 3
0.0241134 0.00463512 0.00223679 0.978422 0.557937 0.034931 0.000101242 3
0.0214644 0.00463849 0.00478451 0.978422 0.557937 0.034931 0.000235587 3
0.0232462 0.00200732 0.00186399 0.978422 0.557937 0.034931 1.54294e-05 3
0.0266056 3.21557e-05 0.000939053 0.978422 0.557937 0.034931 2.12653e-05 3
0.0289213 -0.000808331 0.00375603 0.978422 0.557937 0.034931 1.78828e-05 3
0.0211198 -0.000790413 -0.000112996 0.978422 0.557937 0.034931 2.99556e-05 3
0.0245681 0.000844689 -0.0033369 0.978422 0.557937 0.034931 3.80465e-06 3
0.0262184 -0.00078044 0.00420702 0.978422 0.557937 0.034931 3.02458e-05 3
0.0252077 -0.000807184 -0.00344789 0.978422 0.557937 0.034931 7.53738e-06 3
0.0258746 0.00281942 -0.00403908 0.978422 0.557937 0.034931 5.15728e-06 3
0.0287847 -0.000756977 -0.00458972 0.978422 0.557937 0.034931 9.84221e-06 3
0.0277456 5.98883e-05 -0.00486069 0.978422 0.557937 0.034931 3.31647e-07 3
0.0291545 3.90994e-05 -0.00222684 0.978422 0.557937 0.034931 4.76012e-06 3
0.0236866 -0.000819423 -0.00371639 0.978422 0.557937 0.034931 8.09674e-06 3
0.0255415 5.43545e-05 -0.00596314 0.978422 0.557937 0.034931 3.817e-06 3
0.0260613 -0.000777358 -0.00500765 0.978422 0.557937 0.034931 1.02523e-05 3
0.0283546 1.74955e-05 -0.00123791 0.978422 0.557937 0.034931 8.47492e-06 3
0.0263758 0.000879831 -0.00542204 0.978422 0.557937 0.034931 2.63456e-06 3
0.0268956 4.81186e-05 -0.00446656 0.978422 0.557937 0.034931 6.81038e-06 3
0.0272258 0.000891601 -0.00581617 0.978422 0.557937 0.034931 5.26912e-06 3
0.0290607 0.00313936 0.000192233 0.978422 0.557937 0.034931 3.47653e-05 3
0.0351502 0.00752357 0.00116112 0.978422 0.557937 0.034931 0.000188575 3
0.0284526 5.13615e-05 -0.00367678 0.978422 0.557937 0.034931 7.4985e-06 3
0.029382 0.000894654 -0.00461878 0.978422 0.557937 0.034931 5.26656e-06 3
0.0283146 0.00374416 -0.00540465 0.978422 0.557937 0.034931 8.36685e-06 3
0.0263261 0.00577084 0.00246455 0.978422 0.557937 0.034931 0.00013024 3
0.0238751 0.00722072 -0.00196632 0.978422 0.557937 0.034931 0.000185636 3
0.0291279 0.00284809 -0.0049451 0.978422 0.557937 0.034931 7.23745e-06 3
0.0269368 0.00352851 -0.00501019 0.978422 0.557937 0.034931 4.77479e-06 3
0.0300838 0.000882392 -0.00316884 0.978422 0.557937 0.034931 1.25627e-05 3
0.0298297 0.00283583 -0.00349516 0.978422 0.557937 0.034931 1.72641e-05 3
0.0386435 0.00492603 0.0107595 0.978422 0.557937 0.034931 3.09218e-05 3
0.0415059 0.0100641 0.00994075 0.978422 0.557937 0.034931 5.16495e-06 3
0.025246 0.00987421 0.00930449 0.978422 0.557937 0.034931 6.83907e-05 3
0.0299083 0.00448068 0.0107995 0.978422 0.557937 0.034931 1.40411e-05 3
0.0368593 0.00588715 0.00913476 0.978422 0.557937 0.034931 5.47068e-05 3
0.0381854 0.00722367 0.00598345 0.978422 0.557937 0.034931 3.33467e-05 3
0.0440563 0.00345308 0.0076251 0.978422 0.557937 0.034931 4.09013e-06 3
0.0287691 0.00864786 0.00996875 0.978422 0.557937 0.034931 1.81579e-05 3
0.0399002 -0.000604448 0.010325 0.978422 0.557937 0.034931 3.20427e-06 3
0.0402712 0.00686511 0.00995021 0.978422 0.557937 0.034931 3.12666e-05 3
0.0343658 0.0017327 0.0096219 0.978422 0.557937 0.034931 9.26732e-06 3
0.0437708 0.00577778 0.00991157 0.978422 0.557937 0.034931 9.69843e-07 3
0.0435448 0.00778004 0.00911605 0.978422 0.557937 0.034931 1.38254e-06 3
0.0428619 0.000915146 0.0103417 0.978422 0.557937 0.034931 5.84915e-06 3
0.0311045 0.00166799 0.00965617 0.978422 0.557937 0.034931 7.22739e-06 3
0.0438679 0.00250141 0.00989729 0.978422 0.557937 0.034931 2.97628e-06 3
0.0449602 0.00517629 0.00807159 0.978422 0.557937 0.034931 3.43939e-07 3
0.044948 0.00726488 0.00705232 0.978422 0.557937 0.034931 1.24705e-06 3
0.0432098 0.00483584 0.0099111 0.978422 0.557937 0.034931 9.24655e-06 3
0.0322419 0.00973753 0.00383298 0.978422 0.557937 0.034931 0.000110001 3
0.0366075 0.000263703 0.00954966 0.978422 0.557937 0.034931 1.76326e-05 3
0.031674 0.0124257 0.00119621 0.978422 0.557937 0.034931 8.58341e-05 3
0.0322328 0.000745611 0.0100864 0.978422 0.557937 0.034931 2.8592e-06 3
0.0329937 0.00520042 0.00600586 0.978422 0.557937 0.034931 9.44457e-05 3
0.0422873 0.0035981 0.0107097 0.978422 0.557937 0.034931 1.12959e-05 3
0.0346482 -0.0004414 0.00904882 0.978422 0.557937 0.034931 7.85912e-06 3
0.0276389 0.00244301 0.0108069 0.978422 0.557937 0.034931 1.23837e-05 3
0.0277287 0.0103676 0.010946 0.978422 0.557937 0.034931 1.98363e-05 3
0.0278782 0.0125671 0.0110473 0.978422 0.557937 0.034931 1.61923e-05 3
0.0460153 0.00560412 0.00964921 0.978422 0.557937 0.034931 5.16747e-06 3
0.0389838 0.00941256 0.0107792 0.978422 0.557937 0.034931 2.14508e-05 3
0.0434398 0.00610065 0.00625754 0.978422 0.557937 0.034931 1.5996e-05 3
0.0258267 0.00415627 0.010901 0.978422 0.557937 0.034931 1.03852e-05 3
0.0392992 0.000903765 0.0101936 0.978422 0.557937 0.034931 4.49872e-06 3
0.0448377 0.00720596 0.00990878 0.978422 0.557937 0.034931 1.0365e-05 3
0.0290503 0.0010171 0.00925824 0.978422 0.557937 0.034931 3.14901e-05 3
0.033495 0.000197258 0.0110013 0.978422 0.557937 0.034931 1.0275e-06 3
0.0291191 0.000399716 0.011131 0.978422 0.557937 0.034931 1.75556e-07 3
0.0353087 -0.000295017 0.0104537 0.978422 0.557937 0.034931 2.47089e-06 3
0.0384191 0.00402962 0.00751181 0.978422 0.557937 0.034931 5.12193e-05 3
0.0316936 0.000604411 0.0112365 0.978422 0.557937 0.034931 4.50215e-07 3
0.0374913 0.00209033 0.00879727 0.978422 0.557937 0.034931 1.12133e-05 3
0.0439196 0.00120226 0.00954629 0.978422 0.557937 0.034931 4.01162e-06 3
0.0321061 0.00359045 0.0107687 0.978422 0.557937 0.034931 3.38832e-05 3
0.0439877 0.00372322 0.00910718 0.978422 0.557937 0.034931 4.6654e-06 3
0.030286 0.00947039 0.00997076 0.978422 0.557937 0.034931 1.84918e-05 3
0.0445487 0.00466516 0.00910765 0.978422 0.557937 0.034931 1.07616e-06 3
0.0348038 0.00940313 0.00911889 0.978422 0.557937 0.034931 0.000102929 3
0.0428101 0.0022143 0.0106927 0.978422 0.557937 0.034931 4.15377e-06 3
0.0406233 0.00166855 0.00960417 0.978422 0.557937 0.034931 2.25849e-06 3
0.0384644 0.00016488 0.00957903 0.978422 0.557937 0.034931 1.5606e-06 3
0.0308593 0.00102559 0.010366 0.978422 0.557937 0.034931 2.8592e-06 3
0.0352316 0.00394808 0.00994404 0.978422 0.557937 0.034931 6.29846e-05 3
0.0292319 0.00566747 0.010805 0.978422 0.557937 0.034931 6.0872e-06 3
0.0450842 0.00455173 0.00886402 0.978422 0.557937 0.034931 3.35918e-06 3
0.0297743 0.00730545 0.0107884 0.978422 0.557937 0.034931 1.29891e-05 3
0.0424737 0.00484558 0.00752016 0.978422 0.557937 0.034931 3.36029e-06 3
0.0270548 0.00827705 0.0101165 0.978422 0.557937 0.034931 2.47443e-05 3
0.0257182 0.00637839 0.0110287 0.978422 0.557937 0.034931 5.1926e-06 3
0.0421138 0.00302172 0.00720951 0.978422 0.557937 0.034931 2.60287e-06 3
0.0363636 0.0075456 0.00749594 0.978422 0.557937 0.034931 9.63671e-05 3
0.0450238 0.00427204 0.00737986 0.978422 0.557937 0.034931 3.59404e-06 3
0.0434637 0.00326525 0.00730899 0.978422 0.557937 0.034931 1.46376e-06 3
0.0391477 0.00973272 0.006768 0.978422 0.557937 0.034931 2.42635e-05 3
0.0433498 0.00915086 0.00911147 0.978422 0.557937 0.034931 1.38254e-06 3
0.041199 -4.57286e-05 0.00942097 0.978422 0.557937 0.034931 1.87892e-05 3
0.0461134 0.00692155 0.00869739 0.978422 0.557937 0.034931 3.87117e-06 3
0.0447215 0.00794073 0.00704795 0.978422 0.557937 0.034931 2.14619e-06 3
0.0429883 0.0061458 0.00911638 0.978422 0.557937 0.034931 3.44483e-06 3
0.0404381 0.002969 0.0107242 0.978422 0.557937 0.034931 9.77538e-06 3
0.0327389 0.0089219 0.00751243 0.978422 0.557937 0.034931 2.59031e-05 3
0.0345607 0.00859997 0.00599995 0.978422 0.557937 0.034931 4.8606e-05 3
0.0311791 0.0107794 0.00913538 0.978422 0.557937 0.034931 3.20504e-05 3
0.031853 0.0128699 0.00996485 0.978422 0.557937 0.034931 8.89224e-06 3
