ply
format ascii 1.0
comment Created by Open3D
element vertex 797
property float32 x
property float32 y
property float32 z
property float32 red
property float32 green
property float32 blue
property uint8 segmentation
end_header
0.0249088 -0.105854 -0.0183549 0.909804 0.443137 0.0313726 5
0.0610503 -0.112449 -0.00502847 0.909804 0.443137 0.0313726 5
-0.276821 -0.0951513 -0.0970479 0.898039 0.898039 0.898039 4
-0.33238 -0.0951513 -0.103418 0.898039 0.898039 0.898039 4
-0.136717 -0.101151 -0.101908 0.898039 0.898039 0.898039 4
-0.0508405 -0.0951513 -0.0967949 0.898039 0.898039 0.898039 4
-0.371838 -0.0986041 -0.0876547 0.898039 0.898039 0.898039 4
-0.108396 -0.0951513 -0.102204 0.898039 0.898039 0.898039 4
-0.388355 -0.101857 1.22508e-05 0 0 0 3
-0.20747 -0.100151 0.00497367 0.529412 0.54902 0.54902 6
-0.358355 -0.0989733 -0.0280655 0.898039 0.898039 0.898039 4
-0.157139 -0.101151 -0.0053905 0.529412 0.54902 0.54902 6
0.0550214 -0.114355 -0.00351746 0.909804 0.443137 0.0313726 5
-0.223678 -0.100151 -0.00297889 0.529412 0.54902 0.54902 6
-0.29182 -0.0952829 -0.086 0.898039 0.898039 0.898039 4
-0.0506799 -0.101151 -0.101002 0.898039 0.898039 0.898039 4
-0.279237 -0.100151 -0.00169356 0.529412 0.54902 0.54902 6
-0.300709 -0.101151 -0.00286112 0.529412 0.54902 0.54902 6
-0.308967 -0.0951513 -0.0875565 0.898039 0.898039 0.898039 4
-0.336057 -0.101151 -0.0996318 0.898039 0.898039 0.898039 4
-0.0904623 -0.0951513 -0.0886817 0.898039 0.898039 0.898039 4
-0.0483552 -0.0997908 -0.030107 0.898039 0.898039 0.898039 4
-0.230019 -0.101151 -0.0985868 0.898039 0.898039 0.898039 4
-0.343561 -0.0982406 -0.006 0.898039 0.898039 0.898039 4
-0.362187 -0.0975022 0.006 0.898039 0.898039 0.898039 4
-0.360728 -0.101151 -0.0620539 0.898039 0.898039 0.898039 4
-0.0778366 -0.101151 -0.0985868 0.898039 0.898039 0.898039 4
-0.186013 -0.0951513 -0.101002 0.898039 0.898039 0.898039 4
0.0227129 -0.0816949 -0.011199 0.909804 0.443137 0.0313726 5
0.00163601 -0.113754 0.00889107 0.909804 0.443137 0.0313726 5
-0.191192 -0.0951513 -0.0865088 0.898039 0.898039 0.898039 4
-0.368384 -0.101151 -0.055106 0.898039 0.898039 0.898039 4
-0.327379 -0.101151 0.00286842 0.529412 0.54902 0.54902 6
0.0381122 -0.106176 -0.0174465 0.909804 0.443137 0.0313726 5
-0.172348 -0.0951513 -0.0889244 0.898039 0.898039 0.898039 4
-0.377961 -0.0984068 -0.0705052 0.898039 0.898039 0.898039 4
0.0592361 -0.0976985 -0.0155859 0.909804 0.443137 0.0313726 5
-0.310298 -0.101151 -0.0937556 0.898039 0.898039 0.898039 4
0.0159418 -0.0795254 -0.00651935 0.909804 0.443137 0.0313726 5
-0.364699 -0.0951513 -0.0109739 0.898039 0.898039 0.898039 4
0.0272696 -0.0838275 -0.0137868 0.909804 0.443137 0.0313726 5
-0.218847 -0.0951513 -0.10388 0.898039 0.898039 0.898039 4
-0.000941231 -0.112192 -0.00841397 0.909804 0.443137 0.0313726 5
0.0238411 -0.0870166 0.0164856 0.909804 0.443137 0.0313726 5
-0.292271 -0.100151 0.00513424 0.529412 0.54902 0.54902 6
-0.13266 -0.101151 0.00144185 0.529412 0.54902 0.54902 6
-0.0848135 -0.100151 0.000437289 0.529412 0.54902 0.54902 6
-0.296438 -0.101151 -0.0949348 0.898039 0.898039 0.898039 4
0.0429434 -0.116769 0.000900131 0.909804 0.443137 0.0313726 5
-0.319397 -0.0937729 0.005 0 0 0 3
-0.0478863 -0.0951513 -0.0121254 0.898039 0.898039 0.898039 4
-0.325877 -0.0979007 -0.106 0.898039 0.898039 0.898039 4
-0.032825 -0.0976985 -0.0840932 0.898039 0.898039 0.898039 4
-0.350256 -0.101151 -0.0934027 0.898039 0.898039 0.898039 4
-0.0642487 -0.101151 -0.0949348 0.898039 0.898039 0.898039 4
-0.249344 -0.101151 -0.0895141 0.898039 0.898039 0.898039 4
-0.167214 -0.101151 -0.0895141 0.898039 0.898039 0.898039 4
-0.351403 -0.101151 -0.103179 0.898039 0.898039 0.898039 4
-0.217847 -0.100151 -0.00198717 0.529412 0.54902 0.54902 6
-0.375774 -0.0921513 0.0016885 0.898039 0.898039 0.898039 4
-0.165808 -0.100151 0.00184273 0.529412 0.54902 0.54902 6
0.0208849 -0.0786005 -0.00366874 0.909804 0.443137 0.0313726 5
-0.361463 -0.0951513 -0.0465346 0.898039 0.898039 0.898039 4
-0.346874 -0.101151 -0.0907949 0.898039 0.898039 0.898039 4
-0.367709 -0.0921513 0.00437838 0.898039 0.898039 0.898039 4
-0.0616574 -0.104151 0.00389027 0.898039 0.898039 0.898039 4
-0.20098 -0.101151 -0.0985868 0.898039 0.898039 0.898039 4
0.0275441 -0.117574 0.00419982 0.909804 0.443137 0.0313726 5
-0.309734 -0.0951513 -0.0946612 0.898039 0.898039 0.898039 4
-0.192275 -0.100151 0.00172261 0.529412 0.54902 0.54902 6
-0.100096 -0.099943 -0.086 0.898039 0.898039 0.898039 4
-0.229272 -0.101151 -0.0887207 0.898039 0.898039 0.898039 4
-0.200546 -0.101151 -0.0964082 0.898039 0.898039 0.898039 4
0.00784022 -0.101237 -0.0188488 0.909804 0.443137 0.0313726 5
-0.357062 -0.0968138 -0.0730264 0.898039 0.898039 0.898039 4
-0.260111 -0.100151 -0.00169811 0.529412 0.54902 0.54902 6
-0.0161053 -0.0989976 0.0108174 0.909804 0.443137 0.0313726 5
-0.19418 -0.100132 -0.106 0.898039 0.898039 0.898039 4
-0.0128983 -0.104573 -0.00743408 0.909804 0.443137 0.0313726 5
-0.0224879 -0.090268 0.0127236 0.909804 0.443137 0.0313726 5
-0.0436048 -0.0951513 -0.0731347 0.898039 0.898039 0.898039 4
-0.0494731 -0.101151 -0.098351 0.898039 0.898039 0.898039 4
-0.0483552 -0.0951654 -0.0206255 0.898039 0.898039 0.898039 4
-0.183694 -0.101151 -0.102346 0.898039 0.898039 0.898039 4
-0.364957 -0.101151 -0.0599372 0.898039 0.898039 0.898039 4
-0.37254 -0.0951513 -0.041518 0.898039 0.898039 0.898039 4
-0.0444181 -0.0951513 -0.0792202 0.898039 0.898039 0.898039 4
-0.0623027 -0.0951513 -0.104981 0.898039 0.898039 0.898039 4
0.00271596 -0.110379 0.01367 0.909804 0.443137 0.0313726 5
-0.0198622 -0.0882441 0.0102091 0.909804 0.443137 0.0313726 5
-0.0916628 -0.101151 -0.00437838 0.529412 0.54902 0.54902 6
-0.15336 -0.0951513 -0.104894 0.898039 0.898039 0.898039 4
-0.116727 -0.101151 -0.000562719 0.529412 0.54902 0.54902 6
-0.198617 -0.101151 -0.105834 0.898039 0.898039 0.898039 4
-0.228407 -0.0951513 -0.104784 0.898039 0.898039 0.898039 4
0.0275 -0.0782858 -0.000329635 0.909804 0.443137 0.0313726 5
-0.0283552 -0.0894336 -0.000424965 0.909804 0.443137 0.0313726 5
-0.371833 -0.104151 -0.00531057 0.898039 0.898039 0.898039 4
-0.0416943 -0.101151 -0.0631941 0.898039 0.898039 0.898039 4
-0.346878 -0.0976985 -0.10497 0.898039 0.898039 0.898039 4
-0.251668 -0.100151 0.0011977 0.529412 0.54902 0.54902 6
-0.346814 -0.102225 0.006 0.898039 0.898039 0.898039 4
-0.284883 -0.0951513 -0.0894246 0.898039 0.898039 0.898039 4
-0.04555 -0.102865 -0.006 0.898039 0.898039 0.898039 4
-0.0195609 -0.111773 -0.00196278 0.909804 0.443137 0.0313726 5
-0.0423347 -0.0951513 -0.0929369 0.898039 0.898039 0.898039 4
-0.0483552 -0.0973031 -0.0216226 0.898039 0.898039 0.898039 4
-0.377735 -0.0921513 0.00286842 0.898039 0.898039 0.898039 4
-0.37254 -0.0951513 -0.0421361 0.898039 0.898039 0.898039 4
-0.36158 -0.101151 -0.0451038 0.898039 0.898039 0.898039 4
0.0517001 -0.0893355 -0.0147955 0.909804 0.443137 0.0313726 5
-0.223832 -0.100151 0.00274659 0.529412 0.54902 0.54902 6
-0.348384 -0.101151 -0.103418 0.898039 0.898039 0.898039 4
-0.285578 -0.0996109 -0.106 0.898039 0.898039 0.898039 4
-0.375871 -0.101151 -0.0688862 0.898039 0.898039 0.898039 4
-0.233341 -0.101151 0.000718054 0.529412 0.54902 0.54902 6
-0.0945504 -0.100151 0.00515907 0.529412 0.54902 0.54902 6
-0.0252999 -0.0932568 0.01312 0.909804 0.443137 0.0313726 5
-0.0632713 -0.0951513 -0.103371 0.898039 0.898039 0.898039 4
-0.0468186 -0.101151 -0.0816207 0.898039 0.898039 0.898039 4
-0.0283552 -0.0984409 0.0102608 0.909804 0.443137 0.0313726 5
-0.336306 -0.0951513 -0.0874144 0.898039 0.898039 0.898039 4
-0.231972 -0.0968746 -0.106 0.898039 0.898039 0.898039 4
-0.188714 -0.100151 -0.00639506 0.529412 0.54902 0.54902 6
0.0586339 -0.0926763 0.0147446 0.909804 0.443137 0.0313726 5
-0.346541 -0.0921513 -0.00522741 0.898039 0.898039 0.898039 4
-0.388727 -0.0842251 -0.000452822 0.898039 0.898039 0.898039 1
0.0164228 -0.106709 0.0177924 0.909804 0.443137 0.0313726 5
0.0598576 -0.0828418 0.0019467 0.909804 0.443137 0.0313726 5
-0.244957 -0.101151 -0.00280412 0.529412 0.54902 0.54902 6
-0.307961 -0.097271 -0.106 0.898039 0.898039 0.898039 4
-0.195429 -0.101151 -0.0922456 0.898039 0.898039 0.898039 4
0.0477746 -0.0845831 -0.0117102 0.909804 0.443137 0.0313726 5
-0.289039 -0.101151 -0.0959447 0.898039 0.898039 0.898039 4
-0.377547 -0.0951513 -0.0399862 0.898039 0.898039 0.898039 4
-0.209094 -0.101151 -0.08983 0.898039 0.898039 0.898039 4
-0.0883702 -0.0951513 -0.0877298 0.898039 0.898039 0.898039 4
0.0334493 -0.0946968 -0.0192762 0.909804 0.443137 0.0313726 5
-0.354758 -0.101421 0.006 0.898039 0.898039 0.898039 4
-0.366199 -0.104151 -0.00228194 0.898039 0.898039 0.898039 4
0.0637781 -0.103435 -0.013393 0.909804 0.443137 0.0313726 5
-0.37516 -0.0969224 -0.081359 0.898039 0.898039 0.898039 4
-0.00241994 -0.0962157 0.0146214 0.909804 0.443137 0.0313726 5
0.0381122 -0.11662 0.00528402 0.909804 0.443137 0.0313726 5
-0.308601 -0.100151 0.00163026 0.529412 0.54902 0.54902 6
-0.0368878 -0.0951513 -0.0499121 0.898039 0.898039 0.898039 4
-0.373446 -0.101151 -0.0729208 0.898039 0.898039 0.898039 4
-0.0437651 -0.0951513 -0.0111284 0.898039 0.898039 0.898039 4
0.0543392 -0.081585 -0.00223878 0.909804 0.443137 0.0313726 5
-0.0320862 -0.0951513 -0.0700998 0.898039 0.898039 0.898039 4
-0.219353 -0.101151 -0.08983 0.898039 0.898039 0.898039 4
-0.0163995 -0.0871928 0.00132176 0.909804 0.443137 0.0313726 5
-0.00144307 -0.0947069 0.0154945 0.909804 0.443137 0.0313726 5
-0.0283552 -0.0919488 0.00718479 0.909804 0.443137 0.0313726 5
-0.261422 -0.101151 -0.0895141 0.898039 0.898039 0.898039 4
-0.203322 -0.0951513 -0.101477 0.898039 0.898039 0.898039 4
-0.051265 -0.0921513 0.00288571 0.898039 0.898039 0.898039 4
0.021203 -0.115307 0.0101152 0.909804 0.443137 0.0313726 5
-0.360462 -0.0951513 -0.0113905 0.898039 0.898039 0.898039 4
-0.243877 -0.101151 -0.103174 0.898039 0.898039 0.898039 4
0.072061 -0.0935852 0.0110036 0.909804 0.443137 0.0313726 5
-0.0912411 -0.0968746 -0.106 0.898039 0.898039 0.898039 4
-0.0222778 -0.0946843 -0.0145927 0.909804 0.443137 0.0313726 5
0.0602632 -0.0878784 -0.0113878 0.909804 0.443137 0.0313726 5
-0.362174 -0.101103 -0.0979668 0.898039 0.898039 0.898039 4
-0.380495 -0.0988809 -0.0097963 0.898039 0.898039 0.898039 1
-0.122223 -0.101151 -0.0946612 0.898039 0.898039 0.898039 4
-0.367939 -0.101151 -0.0530105 0.898039 0.898039 0.898039 4
-0.230019 -0.100151 -0.00169811 0.529412 0.54902 0.54902 6
-0.0386933 -0.101151 -0.0619661 0.898039 0.898039 0.898039 4
-0.174937 -0.101151 -0.00640586 0.529412 0.54902 0.54902 6
-0.279759 -0.100151 -0.00470977 0.529412 0.54902 0.54902 6
-0.0449239 -0.101151 -0.0125308 0.898039 0.898039 0.898039 4
-0.333288 -0.0952938 -0.086 0.898039 0.898039 0.898039 4
-0.325949 -0.0951513 -0.0931043 0.898039 0.898039 0.898039 4
-0.0198622 -0.0872002 -0.00909312 0.909804 0.443137 0.0313726 5
-0.374384 -0.0951513 -0.0246088 0.898039 0.898039 0.898039 4
-0.318422 -0.101151 -0.0994924 0.898039 0.898039 0.898039 4
-0.0319402 -0.0928673 -0.006 0.898039 0.898039 0.898039 4
0.00912497 -0.111242 -0.0140701 0.909804 0.443137 0.0313726 5
-0.329733 -0.0951513 -0.0985398 0.898039 0.898039 0.898039 4
-0.0488494 -0.0921513 -0.00528402 0.898039 0.898039 0.898039 4
-0.249287 -0.101151 -0.0880859 0.898039 0.898039 0.898039 4
-0.196092 -0.0951513 -0.105763 0.898039 0.898039 0.898039 4
-0.201614 -0.100777 -0.0065 0.529412 0.54902 0.54902 6
-0.0472637 -0.101151 -0.0744308 0.898039 0.898039 0.898039 4
-0.313245 -0.0951513 -0.100547 0.898039 0.898039 0.898039 4
-0.0456084 -0.0951513 -0.0818494 0.898039 0.898039 0.898039 4
-0.363895 -0.0951513 -0.0423767 0.898039 0.898039 0.898039 4
-0.238026 -0.101151 -0.0907949 0.898039 0.898039 0.898039 4
0.054599 -0.0887182 -0.0137273 0.909804 0.443137 0.0313726 5
-0.291315 -0.101151 -0.00286842 0.529412 0.54902 0.54902 6
-0.0894261 -0.100151 3.48058e-05 0.529412 0.54902 0.54902 6
0.0691421 -0.089474 -0.00938249 0.909804 0.443137 0.0313726 5
-0.288464 -0.100687 -0.106 0.898039 0.898039 0.898039 4
-0.234851 -0.101151 -0.0865088 0.898039 0.898039 0.898039 4
-0.0579853 -0.104151 0.000256548 0.898039 0.898039 0.898039 4
0.0464103 -0.0865464 0.0139358 0.909804 0.443137 0.0313726 5
-0.359399 -0.101151 -0.0360182 0.898039 0.898039 0.898039 4
0.027101 -0.115513 0.00971684 0.909804 0.443137 0.0313726 5
-0.172951 -0.10102 -0.106 0.898039 0.898039 0.898039 4
-0.0288814 -0.0990366 -0.0720152 0.898039 0.898039 0.898039 4
-0.134301 -0.101151 -0.0949348 0.898039 0.898039 0.898039 4
-0.247104 -0.0960326 -0.106 0.898039 0.898039 0.898039 4
-0.308999 -0.0951513 -0.0945431 0.898039 0.898039 0.898039 4
-0.229408 -0.0951513 -0.0989525 0.898039 0.898039 0.898039 4
-0.108583 -0.0951513 -0.0967949 0.898039 0.898039 0.898039 4
-0.184624 -0.100151 0.000441841 0.529412 0.54902 0.54902 6
-0.149926 -0.0951513 -0.0993236 0.898039 0.898039 0.898039 4
-0.128223 -0.100151 -0.00297889 0.529412 0.54902 0.54902 6
-0.338505 -0.103151 -0.00115905 0 0 0 3
0.0694574 -0.0886714 -0.00841955 0.909804 0.443137 0.0313726 5
0.0195132 -0.0787959 0.00437838 0.909804 0.443137 0.0313726 5
-0.0291712 -0.0951513 -0.0694655 0.898039 0.898039 0.898039 4
0.0504262 -0.0816012 -0.00560945 0.909804 0.443137 0.0313726 5
-0.212627 -0.100151 -0.00639506 0.529412 0.54902 0.54902 6
-0.0276349 -0.0932568 0.0106237 0.909804 0.443137 0.0313726 5
0.00206894 -0.0813515 -0.00682861 0.909804 0.443137 0.0313726 5
-0.00257282 -0.0962726 0.0144293 0.909804 0.443137 0.0313726 5
-0.358412 -0.0951513 -0.082293 0.898039 0.898039 0.898039 4
0.03581 -0.0911659 0.0180887 0.909804 0.443137 0.0313726 5
-0.365603 -0.0951513 -0.0641171 0.898039 0.898039 0.898039 4
0.0468689 -0.116019 0.00264455 0.909804 0.443137 0.0313726 5
-0.342035 -0.100602 -0.105678 0.898039 0.898039 0.898039 4
-0.226094 -0.100151 0.00528402 0.529412 0.54902 0.54902 6
0.0683726 -0.0912371 -0.0110543 0.909804 0.443137 0.0313726 5
0.0501902 -0.090045 0.0155296 0.909804 0.443137 0.0313726 5
-0.172215 -0.0951513 -0.092351 0.898039 0.898039 0.898039 4
0.0398152 -0.111096 -0.0139232 0.909804 0.443137 0.0313726 5
-0.367709 -0.104151 0.000452822 0.898039 0.898039 0.898039 4
-0.233587 -0.0951513 -0.0911601 0.898039 0.898039 0.898039 4
-0.112561 -0.101151 0.00144185 0.529412 0.54902 0.54902 6
-0.271417 -0.0951513 -0.0937556 0.898039 0.898039 0.898039 4
-0.368911 -0.100149 -0.0917972 0.898039 0.898039 0.898039 4
-0.29733 -0.101151 -0.0895141 0.898039 0.898039 0.898039 4
-0.253497 -0.101151 -0.0901611 0.898039 0.898039 0.898039 4
0.0381122 -0.0886109 0.0166746 0.909804 0.443137 0.0313726 5
-0.368695 -0.101151 -0.0210598 0.898039 0.898039 0.898039 4
-0.37103 -0.101151 -0.0342712 0.898039 0.898039 0.898039 4
-0.363767 -0.101151 -0.0463846 0.898039 0.898039 0.898039 4
0.0115179 -0.078891 0.00248128 0.909804 0.443137 0.0313726 5
-0.0399862 -0.101151 -0.0167134 0.898039 0.898039 0.898039 4
-0.233341 -0.101151 -0.00286842 0.529412 0.54902 0.54902 6
-0.201938 -0.101151 -0.00528402 0.529412 0.54902 0.54902 6
0.0392262 -0.079084 0.00100787 0.909804 0.443137 0.0313726 5
-0.0485267 -0.101151 -0.0873501 0.898039 0.898039 0.898039 4
-0.189485 -0.100573 0.00587751 0.529412 0.54902 0.54902 6
-0.334417 -0.0951513 -0.0959253 0.898039 0.898039 0.898039 4
-0.360199 -0.0921513 -0.00414198 0.898039 0.898039 0.898039 4
-0.087664 -0.101151 0.00223735 0.529412 0.54902 0.54902 6
-0.372122 -0.0921513 0.00160494 0.898039 0.898039 0.898039 4
-0.37712 -0.0951513 -0.0411126 0.898039 0.898039 0.898039 4
-0.0604955 -0.101151 -0.100614 0.898039 0.898039 0.898039 4
-0.378355 -0.0984409 -0.0251817 0.898039 0.898039 0.898039 4
-0.202694 -0.101151 -0.00399026 0.529412 0.54902 0.54902 6
-0.139055 -0.101151 -0.0945969 0.898039 0.898039 0.898039 4
0.028019 -0.0806168 -0.00929508 0.909804 0.443137 0.0313726 5
0.0255074 -0.0788234 0.00468433 0.909804 0.443137 0.0313726 5
-0.147288 -0.101151 -0.100102 0.898039 0.898039 0.898039 4
-0.238765 -0.0951513 -0.0878127 0.898039 0.898039 0.898039 4
-0.34915 -0.101151 -0.0969935 0.898039 0.898039 0.898039 4
-0.389449 -0.106809 0.001524 0.898039 0.898039 0.898039 1
0.0154661 -0.0784546 0.000522954 0.909804 0.443137 0.0313726 5
-0.074148 -0.101151 -0.104259 0.898039 0.898039 0.898039 4
-0.0645398 -0.0958189 -0.105666 0.898039 0.898039 0.898039 4
-0.11793 -0.100089 -0.086 0.898039 0.898039 0.898039 4
-0.0913429 -0.0951513 -0.100351 0.898039 0.898039 0.898039 4
-0.251349 -0.101151 0.000838757 0.529412 0.54902 0.54902 6
-0.245419 -0.100151 0.00286842 0.529412 0.54902 0.54902 6
-0.26887 -0.101151 0.00504699 0.529412 0.54902 0.54902 6
-0.0541158 -0.103435 -0.006 0.898039 0.898039 0.898039 4
-0.0993275 -0.0951513 -0.104324 0.898039 0.898039 0.898039 4
-0.00267848 -0.112192 -0.00331887 0.909804 0.443137 0.0313726 5
-0.286815 -0.100151 0.000437289 0.529412 0.54902 0.54902 6
-0.0280728 -0.100005 0.0110865 0.909804 0.443137 0.0313726 5
-0.0587752 -0.104151 -5.98274e-05 0.898039 0.898039 0.898039 4
0.00466493 -0.109444 -0.0149464 0.909804 0.443137 0.0313726 5
-0.141548 -0.0951513 -0.102346 0.898039 0.898039 0.898039 4
-0.257595 -0.101151 0.00166766 0.529412 0.54902 0.54902 6
-0.0686533 -0.101151 -0.096623 0.898039 0.898039 0.898039 4
-0.378355 -0.0960328 -0.0647075 0.898039 0.898039 0.898039 4
-0.181306 -0.101151 -0.0884293 0.898039 0.898039 0.898039 4
-0.297656 -0.100151 0.00437838 0.529412 0.54902 0.54902 6
-0.110036 -0.101151 -0.101908 0.898039 0.898039 0.898039 4
-0.0449239 -0.0951513 -0.0237032 0.898039 0.898039 0.898039 4
-0.363943 -0.101151 -0.0332148 0.898039 0.898039 0.898039 4
-0.155496 -0.0951513 -0.101503 0.898039 0.898039 0.898039 4
-0.0483552 -0.0969444 -0.05315 0.898039 0.898039 0.898039 4
-0.0758561 -0.101151 -0.0939926 0.898039 0.898039 0.898039 4
-0.0912288 -0.101151 -0.0905885 0.898039 0.898039 0.898039 4
-0.367471 -0.101151 -0.0262988 0.898039 0.898039 0.898039 4
-0.187319 -0.101151 0.00144185 0.529412 0.54902 0.54902 6
-0.0780093 -0.101151 -0.0961712 0.898039 0.898039 0.898039 4
-0.199806 -0.100151 0.00110814 0.529412 0.54902 0.54902 6
0.0501902 -0.0816949 0.00600951 0.909804 0.443137 0.0313726 5
-0.0283552 -0.0974274 -0.0584272 0.898039 0.898039 0.898039 4
-0.0490646 -0.0921513 0.00281843 0.898039 0.898039 0.898039 4
-0.25176 -0.101151 -0.101002 0.898039 0.898039 0.898039 4
-0.285082 -0.0951513 -0.0937556 0.898039 0.898039 0.898039 4
0.0221331 -0.0783114 0.00170723 0.909804 0.443137 0.0313726 5
-0.36483 -0.0951513 -0.038226 0.898039 0.898039 0.898039 4
-0.0571313 -0.0921513 -0.00311286 0.898039 0.898039 0.898039 4
-0.0842525 -0.101151 -0.0996318 0.898039 0.898039 0.898039 4
0.0255615 -0.0910787 -0.0186136 0.909804 0.443137 0.0313726 5
-0.180416 -0.0956976 -0.086 0.898039 0.898039 0.898039 4
-0.0984163 -0.101151 0.000718054 0.529412 0.54902 0.54902 6
-0.319397 -0.0986041 0.005 0 0 0 3
-0.304099 -0.0951513 -0.0894246 0.898039 0.898039 0.898039 4
-0.295648 -0.101151 -0.0900368 0.898039 0.898039 0.898039 4
-0.24086 -0.101151 -0.103296 0.898039 0.898039 0.898039 4
-0.306882 -0.101151 -0.0985868 0.898039 0.898039 0.898039 4
-0.0468518 -0.0951513 -0.0511038 0.898039 0.898039 0.898039 4
-0.362815 -0.101151 -0.079499 0.898039 0.898039 0.898039 4
-0.349627 -0.0988949 -0.0824299 0.898039 0.898039 0.898039 4
-0.135387 -0.101151 -0.0895141 0.898039 0.898039 0.898039 4
-0.28179 -0.101151 0.00239243 0.529412 0.54902 0.54902 6
-0.2735 -0.0951513 -0.0922456 0.898039 0.898039 0.898039 4
0.0315736 -0.0880361 -0.0168932 0.909804 0.443137 0.0313726 5
-0.375974 -0.0951513 -0.0765509 0.898039 0.898039 0.898039 4
-0.230726 -0.100151 -0.00286842 0.529412 0.54902 0.54902 6
-0.143471 -0.0951513 -0.0991834 0.898039 0.898039 0.898039 4
-0.185029 -0.0951513 -0.100464 0.898039 0.898039 0.898039 4
-0.2159 -0.0951513 -0.103627 0.898039 0.898039 0.898039 4
0.045359 -0.105113 0.0169324 0.909804 0.443137 0.0313726 5
0.00694932 -0.101352 0.0187229 0.909804 0.443137 0.0313726 5
-0.370624 -0.0944283 0.006 0.898039 0.898039 0.898039 4
-0.197107 -0.0951513 -0.0970479 0.898039 0.898039 0.898039 4
-0.0483552 -0.100089 -0.041124 0.898039 0.898039 0.898039 4
-0.190298 -0.101151 -0.0952854 0.898039 0.898039 0.898039 4
-0.00924065 -0.10663 -0.00518409 0.909804 0.443137 0.0313726 5
-0.351784 -0.0944342 -0.006 0.898039 0.898039 0.898039 4
0.0284498 -0.079721 0.00734093 0.909804 0.443137 0.0313726 5
-0.0506743 -0.101157 -0.006 0.898039 0.898039 0.898039 4
-0.0559678 -0.101151 -0.094211 0.898039 0.898039 0.898039 4
-0.37232 -0.101151 -0.0108112 0.898039 0.898039 0.898039 4
-0.0284692 -0.0926165 -0.006 0.898039 0.898039 0.898039 4
-0.0133874 -0.0973692 0.00988541 0.909804 0.443137 0.0313726 5
-0.386988 -0.108066 0.001524 0.898039 0.898039 0.898039 1
-0.338721 -0.101151 -0.103179 0.898039 0.898039 0.898039 4
-0.0480849 -0.0951513 -0.0680896 0.898039 0.898039 0.898039 4
-0.0995063 -0.100151 0.00196278 0.529412 0.54902 0.54902 6
-0.175238 -0.0951513 -0.0899625 0.898039 0.898039 0.898039 4
-0.0188803 -0.085163 0.000452822 0.909804 0.443137 0.0313726 5
-0.359399 -0.101151 -0.0752157 0.898039 0.898039 0.898039 4
-0.0715204 -0.0951513 -0.0867994 0.898039 0.898039 0.898039 4
-0.358168 -0.0951513 -0.0739854 0.898039 0.898039 0.898039 4
-0.385854 -0.0913573 0.00528402 0.898039 0.898039 0.898039 1
0.0469154 -0.0844874 -0.0118059 0.909804 0.443137 0.0313726 5
-0.139132 -0.101151 -0.00528402 0.529412 0.54902 0.54902 6
-0.110145 -0.101151 -0.00528402 0.529412 0.54902 0.54902 6
-0.271085 -0.0951513 -0.0970768 0.898039 0.898039 0.898039 4
-0.0144306 -0.108227 -0.00140625 0.909804 0.443137 0.0313726 5
-0.161245 -0.101151 -0.101822 0.898039 0.898039 0.898039 4
-0.309224 -0.100151 0.00495263 0.529412 0.54902 0.54902 6
-0.0112308 -0.104573 -0.00729033 0.909804 0.443137 0.0313726 5
-0.0393914 -0.0951513 -0.0647685 0.898039 0.898039 0.898039 4
-0.248469 -0.100151 0.00172261 0.529412 0.54902 0.54902 6
-0.28824 -0.101151 -0.00302132 0.529412 0.54902 0.54902 6
0.0147175 -0.0891972 0.0174933 0.909804 0.443137 0.0313726 5
-0.210129 -0.101151 -0.0997626 0.898039 0.898039 0.898039 4
-0.0662895 -0.0951513 -0.0929785 0.898039 0.898039 0.898039 4
-0.187923 -0.0983301 -0.106 0.898039 0.898039 0.898039 4
-0.0283552 -0.0959186 -0.0318556 0.898039 0.898039 0.898039 4
-0.377273 -0.100149 -0.0747163 0.898039 0.898039 0.898039 4
-0.37307 -0.101151 -0.041518 0.898039 0.898039 0.898039 4
-0.00627428 -0.0986041 -0.0110435 0.909804 0.443137 0.0313726 5
-0.257497 -0.0951513 -0.0920979 0.898039 0.898039 0.898039 4
-0.27453 -0.0957483 -0.086 0.898039 0.898039 0.898039 4
-0.365863 -0.101151 -0.00953047 0.898039 0.898039 0.898039 4
-0.319684 -0.101151 -0.100634 0.898039 0.898039 0.898039 4
0.0163718 -0.117769 0.00225956 0.909804 0.443137 0.0313726 5
-0.0283552 -0.0956651 -0.0245414 0.898039 0.898039 0.898039 4
-0.0677528 -0.101151 0.00144185 0.529412 0.54902 0.54902 6
-0.323063 -0.0961885 -0.106 0.898039 0.898039 0.898039 4
-0.165317 -0.0951513 -0.0929369 0.898039 0.898039 0.898039 4
-0.016868 -0.0962338 -0.0111508 0.909804 0.443137 0.0313726 5
-0.318404 -0.101151 0.00549175 0.529412 0.54902 0.54902 6
-0.226094 -0.101151 0.00144185 0.529412 0.54902 0.54902 6
-0.258634 -0.101151 -0.0909519 0.898039 0.898039 0.898039 4
-0.385543 -0.10253 -0.00769962 0.898039 0.898039 0.898039 1
0.0139562 -0.115513 0.00908853 0.909804 0.443137 0.0313726 5
-0.0222778 -0.0839744 0.00476203 0.909804 0.443137 0.0313726 5
-0.247503 -0.101151 -0.0963464 0.898039 0.898039 0.898039 4
-0.377318 -0.0951513 -0.0140408 0.898039 0.898039 0.898039 4
-0.265466 -0.101151 0.00567214 0.529412 0.54902 0.54902 6
0.0356966 -0.115513 0.00864961 0.909804 0.443137 0.0313726 5
-0.0547309 -0.0951513 -0.0816306 0.898039 0.898039 0.898039 4
-0.136918 -0.101151 -0.103048 0.898039 0.898039 0.898039 4
-0.115576 -0.101151 0.00286842 0.529412 0.54902 0.54902 6
-0.02975 -0.104151 0.00267215 0.898039 0.898039 0.898039 4
-0.290847 -0.0951513 -0.0881963 0.898039 0.898039 0.898039 4
0.0782717 -0.105851 -0.00325989 0.909804 0.443137 0.0313726 5
-0.358355 -0.0953824 -0.0306492 0.898039 0.898039 0.898039 4
-0.374771 -0.101151 -0.0816207 0.898039 0.898039 0.898039 4
-0.175462 -0.0951513 -0.100955 0.898039 0.898039 0.898039 4
-0.0328459 -0.104151 0.00455041 0.898039 0.898039 0.898039 4
-0.179409 -0.0954851 -0.106 0.898039 0.898039 0.898039 4
-0.139722 -0.0996109 -0.106 0.898039 0.898039 0.898039 4
-0.314348 -0.100151 -0.000700214 0.529412 0.54902 0.54902 6
0.0345292 -0.0829528 -0.0122458 0.909804 0.443137 0.0313726 5
0.0128045 -0.0863216 -0.0155233 0.909804 0.443137 0.0313726 5
-0.358355 -0.100902 -0.0496375 0.898039 0.898039 0.898039 4
-0.201921 -0.0951513 -0.100464 0.898039 0.898039 0.898039 4
-0.0594156 -0.0951513 -0.0942558 0.898039 0.898039 0.898039 4
-0.0283552 -0.0986041 -0.0584272 0.898039 0.898039 0.898039 4
-0.305151 -0.101151 -0.102426 0.898039 0.898039 0.898039 4
0.021203 -0.103435 0.019189 0.909804 0.443137 0.0313726 5
-0.374143 -0.0951513 -0.0647214 0.898039 0.898039 0.898039 4
-0.0359173 -0.101151 -0.0450555 0.898039 0.898039 0.898039 4
0.0299597 -0.0832049 0.0129493 0.909804 0.443137 0.0313726 5
0.0643422 -0.111578 -0.00475419 0.909804 0.443137 0.0313726 5
-0.378355 -0.0957061 -0.063441 0.898039 0.898039 0.898039 4
-0.06772 -0.0951513 -0.0933177 0.898039 0.898039 0.898039 4
-0.194691 -0.100151 -0.00510974 0.529412 0.54902 0.54902 6
-0.0521004 -0.0976985 -0.102387 0.898039 0.898039 0.898039 4
-0.369019 -0.0951513 -0.0399611 0.898039 0.898039 0.898039 4
-0.296146 -0.100151 -0.00510974 0.529412 0.54902 0.54902 6
-0.185191 -0.101151 0.00437838 0.529412 0.54902 0.54902 6
-0.224274 -0.101151 -0.0943343 0.898039 0.898039 0.898039 4
-0.350705 -0.0943245 -0.006 0.898039 0.898039 0.898039 4
-0.00295303 -0.086381 -0.00769962 0.909804 0.443137 0.0313726 5
-0.146509 -0.101151 -0.0906444 0.898039 0.898039 0.898039 4
-0.315763 -0.101151 0.00567214 0.529412 0.54902 0.54902 6
-0.123683 -0.101151 -0.086745 0.898039 0.898039 0.898039 4
0.0284498 -0.0791352 0.00565331 0.909804 0.443137 0.0313726 5
0.0251285 -0.117343 -0.00522514 0.909804 0.443137 0.0313726 5
-0.0298019 -0.0951513 -0.0445246 0.898039 0.898039 0.898039 4
-0.27199 -0.101151 -0.101767 0.898039 0.898039 0.898039 4
-0.0272715 -0.0928673 -0.010831 0.909804 0.443137 0.0313726 5
-0.303393 -0.0961885 -0.106 0.898039 0.898039 0.898039 4
-0.0303037 -0.0951513 -0.0404031 0.898039 0.898039 0.898039 4
0.0452154 -0.0925218 -0.0174361 0.909804 0.443137 0.0313726 5
-0.309707 -0.101151 -0.101961 0.898039 0.898039 0.898039 4
-0.0482249 -0.0951513 -0.0579362 0.898039 0.898039 0.898039 4
-0.0343558 -0.0951513 -0.0680896 0.898039 0.898039 0.898039 4
-0.358355 -0.101137 -0.0417024 0.898039 0.898039 0.898039 4
0.0645463 -0.0844645 -0.00371567 0.909804 0.443137 0.0313726 5
0.0349113 -0.101417 -0.019209 0.909804 0.443137 0.0313726 5
-0.0283552 -0.0898262 -0.00518628 0.909804 0.443137 0.0313726 5
-0.251195 -0.0951513 -0.103659 0.898039 0.898039 0.898039 4
-0.372423 -0.0951513 -0.0861046 0.898039 0.898039 0.898039 4
-0.0283552 -0.101082 -0.0607039 0.898039 0.898039 0.898039 4
-0.246143 -0.101151 -0.093056 0.898039 0.898039 0.898039 4
-0.319153 -0.101151 -0.0881025 0.898039 0.898039 0.898039 4
-0.260329 -0.101151 -0.0873501 0.898039 0.898039 0.898039 4
-0.169852 -0.0951513 -0.0879867 0.898039 0.898039 0.898039 4
0.016632 -0.107392 -0.0174778 0.909804 0.443137 0.0313726 5
-0.321838 -0.101151 -0.0946612 0.898039 0.898039 0.898039 4
-0.165757 -0.100151 0.00576651 0.529412 0.54902 0.54902 6
0.0669375 -0.0942924 -0.0129201 0.909804 0.443137 0.0313726 5
-0.271327 -0.101151 -0.0881025 0.898039 0.898039 0.898039 4
-0.0602331 -0.0951513 -0.0931043 0.898039 0.898039 0.898039 4
-0.21897 -0.101151 -0.10303 0.898039 0.898039 0.898039 4
-0.0279433 -0.109171 0.00286842 0.909804 0.443137 0.0313726 5
-0.0728682 -0.0951513 -0.0957672 0.898039 0.898039 0.898039 4
0.031089 -0.0930732 0.0190447 0.909804 0.443137 0.0313726 5
-0.231732 -0.101151 -0.0885363 0.898039 0.898039 0.898039 4
-0.143964 -0.101151 -0.0061143 0.529412 0.54902 0.54902 6
-0.354873 -0.0951513 -0.101436 0.898039 0.898039 0.898039 4
0.0296618 -0.0881878 -0.0170733 0.909804 0.443137 0.0313726 5
0.0255615 -0.0994871 -0.0198676 0.909804 0.443137 0.0313726 5
-0.244002 -0.100546 -0.086 0.898039 0.898039 0.898039 4
-0.03765 -0.0951513 -0.018825 0.898039 0.898039 0.898039 4
-0.0743663 -0.0960326 -0.106 0.898039 0.898039 0.898039 4
-0.367311 -0.0951513 -0.0212406 0.898039 0.898039 0.898039 4
-0.172589 -0.096673 -0.086 0.898039 0.898039 0.898039 4
-0.0304303 -0.0951513 -0.00920958 0.898039 0.898039 0.898039 4
-0.0615632 -0.0951513 -0.0931043 0.898039 0.898039 0.898039 4
-0.262483 -0.101151 -0.101002 0.898039 0.898039 0.898039 4
-0.0416943 -0.101151 -0.0746678 0.898039 0.898039 0.898039 4
-0.181571 -0.101151 -0.087086 0.898039 0.898039 0.898039 4
0.0785382 -0.104945 -0.00437838 0.909804 0.443137 0.0313726 5
-0.350581 -0.0951513 -0.0937277 0.898039 0.898039 0.898039 4
-0.00270499 -0.0840575 0.00286638 0.909804 0.443137 0.0313726 5
-0.324076 -0.0931513 -0.00437838 0 0 0 3
0.033281 -0.087007 -0.0161186 0.909804 0.443137 0.0313726 5
-0.265781 -0.101151 -0.090916 0.898039 0.898039 0.898039 4
-0.321812 -0.101151 0.00626963 0.529412 0.54902 0.54902 6
-0.208272 -0.0951513 -0.0985868 0.898039 0.898039 0.898039 4
-0.0473395 -0.101151 -0.0439336 0.898039 0.898039 0.898039 4
-0.366199 -0.101151 -0.0342712 0.898039 0.898039 0.898039 4
-0.2889 -0.0951513 -0.10388 0.898039 0.898039 0.898039 4
-0.114976 -0.0951513 -0.103418 0.898039 0.898039 0.898039 4
-0.257981 -0.0951513 -0.0966714 0.898039 0.898039 0.898039 4
-0.000537431 -0.0980124 0.0166646 0.909804 0.443137 0.0313726 5
-0.0483552 -0.0953922 -0.0459552 0.898039 0.898039 0.898039 4
-0.0475874 -0.0951513 -0.0920219 0.898039 0.898039 0.898039 4
-0.0261932 -0.108267 0.0083523 0.909804 0.443137 0.0313726 5
-0.375412 -0.0951513 -0.0536509 0.898039 0.898039 0.898039 4
-0.0378364 -0.0951513 -0.0584272 0.898039 0.898039 0.898039 4
-0.371795 -0.101151 -0.0257307 0.898039 0.898039 0.898039 4
-0.0673156 -0.0971569 -0.085909 0.898039 0.898039 0.898039 4
-0.34575 -0.0951513 -0.0888965 0.898039 0.898039 0.898039 4
-0.27741 -0.101151 -0.00219981 0.529412 0.54902 0.54902 6
-0.323991 -0.10074 -0.086 0.898039 0.898039 0.898039 4
-0.208027 -0.0951513 -0.0955141 0.898039 0.898039 0.898039 4
-0.279558 -0.0992902 -0.106 0.898039 0.898039 0.898039 4
-0.178982 -0.0951513 -0.0895208 0.898039 0.898039 0.898039 4
-0.118694 -0.0951513 -0.1026 0.898039 0.898039 0.898039 4
0.0249211 -0.10373 0.0190997 0.909804 0.443137 0.0313726 5
-0.262826 -0.0951513 -0.0867994 0.898039 0.898039 0.898039 4
-0.0817634 -0.101151 -0.0861207 0.898039 0.898039 0.898039 4
0.069515 -0.0928673 -0.0115174 0.909804 0.443137 0.0313726 5
-0.104248 -0.101151 0.00413423 0.529412 0.54902 0.54902 6
-0.0550085 -0.101151 -0.0987783 0.898039 0.898039 0.898039 4
-0.154996 -0.0951513 -0.0959639 0.898039 0.898039 0.898039 4
-0.0328459 -0.101151 -0.0532169 0.898039 0.898039 0.898039 4
-0.0255991 -0.111769 -0.00160503 0.909804 0.443137 0.0313726 5
-0.109203 -0.0951513 -0.0961712 0.898039 0.898039 0.898039 4
-0.281467 -0.0979007 -0.106 0.898039 0.898039 0.898039 4
-0.384951 -0.0892989 0.00295439 0.898039 0.898039 0.898039 1
-0.174264 -0.101151 -0.0885363 0.898039 0.898039 0.898039 4
-0.0758948 -0.10102 -0.106 0.898039 0.898039 0.898039 4
-0.211528 -0.0990488 -0.086 0.898039 0.898039 0.898039 4
-0.281983 -0.100151 -0.00639506 0.529412 0.54902 0.54902 6
-0.211831 -0.101151 -0.00426891 0.529412 0.54902 0.54902 6
-0.320812 -0.100256 -0.0065 0.529412 0.54902 0.54902 6
-0.39428 -0.108267 0.001524 0.898039 0.898039 0.898039 1
-0.0417122 -0.101151 -0.0560116 0.898039 0.898039 0.898039 4
-0.348419 -0.0961885 -0.104557 0.898039 0.898039 0.898039 4
0.0343503 -0.0873374 -0.0162519 0.909804 0.443137 0.0313726 5
-0.118902 -0.100151 -0.00286842 0.529412 0.54902 0.54902 6
0.0202973 -0.0827195 0.0125308 0.909804 0.443137 0.0313726 5
-0.0848626 -0.0988592 -0.106 0.898039 0.898039 0.898039 4
-0.322718 -0.101151 0.00413423 0.529412 0.54902 0.54902 6
-0.307411 -0.0986041 -0.086 0.898039 0.898039 0.898039 4
-0.0126154 -0.0893926 0.00437838 0.909804 0.443137 0.0313726 5
-0.368614 -0.0951513 -0.0784332 0.898039 0.898039 0.898039 4
0.0620673 -0.112761 0.00277337 0.909804 0.443137 0.0313726 5
-0.350582 -0.0961885 -0.103977 0.898039 0.898039 0.898039 4
-0.367222 -0.101151 -0.0539407 0.898039 0.898039 0.898039 4
0.0228197 -0.0785726 0.00365251 0.909804 0.443137 0.0313726 5
0.0668271 -0.0846274 -0.000524851 0.909804 0.443137 0.0313726 5
0.0547201 -0.0854984 -0.0107948 0.909804 0.443137 0.0313726 5
-0.0108428 -0.107871 -0.000452822 0.909804 0.443137 0.0313726 5
-0.0406266 -0.0951513 -0.0725154 0.898039 0.898039 0.898039 4
-0.228993 -0.101151 -0.102819 0.898039 0.898039 0.898039 4
-0.121828 -0.101151 -0.0909519 0.898039 0.898039 0.898039 4
-0.370468 -0.0951513 -0.0574746 0.898039 0.898039 0.898039 4
0.0257381 -0.0826339 -0.0124802 0.909804 0.443137 0.0313726 5
0.0133772 -0.106142 0.0178683 0.909804 0.443137 0.0313726 5
-0.378277 -0.101151 -0.053596 0.898039 0.898039 0.898039 4
-0.0521707 -0.0921513 0.000452822 0.898039 0.898039 0.898039 4
0.0202973 -0.0904517 0.0183201 0.909804 0.443137 0.0313726 5
0.0281842 -0.0904332 0.0182685 0.909804 0.443137 0.0313726 5
0.0347909 -0.0961427 -0.0193669 0.909804 0.443137 0.0313726 5
-0.363783 -0.0952829 0.006 0.898039 0.898039 0.898039 4
-0.0922965 -0.100151 0.00271596 0.529412 0.54902 0.54902 6
0.0522505 -0.0931466 0.0163671 0.909804 0.443137 0.0313726 5
-0.319397 -0.101151 -0.0929303 0.898039 0.898039 0.898039 4
-0.0570671 -0.101151 -0.101239 0.898039 0.898039 0.898039 4
-0.150028 -0.100151 -0.000357169 0.529412 0.54902 0.54902 6
-0.349087 -0.104151 -0.00394197 0.898039 0.898039 0.898039 4
-0.0410539 -0.0951513 -0.0451105 0.898039 0.898039 0.898039 4
0.015589 -0.0899638 -0.0179324 0.909804 0.443137 0.0313726 5
-0.157538 -0.0990488 -0.086 0.898039 0.898039 0.898039 4
-0.226992 -0.0951513 -0.0965369 0.898039 0.898039 0.898039 4
-0.0391436 -0.101151 -0.0498867 0.898039 0.898039 0.898039 4
0.0300454 -0.101661 0.0194462 0.909804 0.443137 0.0313726 5
-0.368614 -0.0951513 -0.0253083 0.898039 0.898039 0.898039 4
-0.0787974 -0.0951513 -0.0896587 0.898039 0.898039 0.898039 4
-0.290409 -0.101151 -0.0929303 0.898039 0.898039 0.898039 4
-0.0283552 -0.0969531 -0.0476071 0.898039 0.898039 0.898039 4
-0.0376377 -0.0951513 -0.0314502 0.898039 0.898039 0.898039 4
-0.0224613 -0.0855818 0.00817439 0.909804 0.443137 0.0313726 5
-0.386492 -0.108066 0.001524 0.898039 0.898039 0.898039 1
-0.378188 -0.104151 -0.00161541 0.898039 0.898039 0.898039 4
-0.132223 -0.101151 -0.00176791 0.529412 0.54902 0.54902 6
-0.316068 -0.0988084 -0.086 0.898039 0.898039 0.898039 4
-0.169356 -0.100151 0.00550951 0.529412 0.54902 0.54902 6
0.0795799 -0.103362 0.00423735 0.909804 0.443137 0.0313726 5
-0.156576 -0.101151 -0.00640586 0.529412 0.54902 0.54902 6
-0.042762 -0.0951513 -0.0775641 0.898039 0.898039 0.898039 4
-0.318417 -0.101151 0.00325654 0.529412 0.54902 0.54902 6
-0.119865 -0.101151 -0.0918957 0.898039 0.898039 0.898039 4
-0.0483552 -0.0979489 -0.0209768 0.898039 0.898039 0.898039 4
-0.355288 -0.0975963 0.006 0.898039 0.898039 0.898039 4
-0.325042 -0.097271 -0.106 0.898039 0.898039 0.898039 4
0.0033441 -0.0995475 0.0184483 0.909804 0.443137 0.0313726 5
-0.251912 -0.101151 -0.0907949 0.898039 0.898039 0.898039 4
-0.331627 -0.0951513 -0.0946612 0.898039 0.898039 0.898039 4
-0.0472637 -0.101151 -0.0816776 0.898039 0.898039 0.898039 4
-0.300977 -0.101151 -0.098351 0.898039 0.898039 0.898039 4
-0.000363985 -0.0899586 -0.0146691 0.909804 0.443137 0.0313726 5
-0.0570019 -0.0951513 -0.0970479 0.898039 0.898039 0.898039 4
0.00515127 -0.10459 -0.0176623 0.909804 0.443137 0.0313726 5
-0.360039 -0.0951513 -0.0314458 0.898039 0.898039 0.898039 4
-0.0416026 -0.0921513 -0.00394664 0.898039 0.898039 0.898039 4
-0.00648379 -0.0885532 0.00528402 0.909804 0.443137 0.0313726 5
-0.261326 -0.101151 -0.00640586 0.529412 0.54902 0.54902 6
-0.0187404 -0.0863007 0.00495292 0.909804 0.443137 0.0313726 5
-0.221908 -0.101151 -0.0927994 0.898039 0.898039 0.898039 4
-0.15703 -0.0951513 -0.103418 0.898039 0.898039 0.898039 4
0.00676027 -0.0792835 0.00187402 0.909804 0.443137 0.0313726 5
-0.0440182 -0.101151 -0.0893833 0.898039 0.898039 0.898039 4
-0.3508 -0.0951513 -0.103627 0.898039 0.898039 0.898039 4
-0.279237 -0.0956976 -0.086 0.898039 0.898039 0.898039 4
-0.378355 -0.0964973 -0.0458706 0.898039 0.898039 0.898039 4
-0.0266831 -0.0900358 -0.00967365 0.909804 0.443137 0.0313726 5
-0.366199 -0.101151 -0.0907949 0.898039 0.898039 0.898039 4
-0.244316 -0.100151 0.00442405 0.529412 0.54902 0.54902 6
0.0504203 -0.0967878 0.01742 0.909804 0.443137 0.0313726 5
0.0632748 -0.0842281 -0.00413661 0.909804 0.443137 0.0313726 5
-0.103084 -0.0951513 -0.100211 0.898039 0.898039 0.898039 4
-0.173346 -0.101151 0.00325654 0.529412 0.54902 0.54902 6
-0.342757 -0.0964895 -0.105615 0.898039 0.898039 0.898039 4
-0.165996 -0.101151 0.00567214 0.529412 0.54902 0.54902 6
0.0444533 -0.108286 0.0154086 0.909804 0.443137 0.0313726 5
-0.376082 -0.0978395 -0.0791612 0.898039 0.898039 0.898039 4
0.0420377 -0.0881412 0.0158635 0.909804 0.443137 0.0313726 5
-0.276547 -0.101151 -0.0976025 0.898039 0.898039 0.898039 4
-0.213112 -0.101151 -0.094211 0.898039 0.898039 0.898039 4
-0.370124 -0.101151 -0.0620539 0.898039 0.898039 0.898039 4
-0.236076 -0.0991138 -0.086 0.898039 0.898039 0.898039 4
-0.117392 -0.0951513 -0.101002 0.898039 0.898039 0.898039 4
0.033281 -0.117021 0.00528402 0.909804 0.443137 0.0313726 5
-0.140971 -0.0951513 -0.0937849 0.898039 0.898039 0.898039 4
-0.365293 -0.104151 -0.00110973 0.898039 0.898039 0.898039 4
-0.108443 -0.101151 0.00485831 0.529412 0.54902 0.54902 6
-0.293057 -0.0951513 -0.0967949 0.898039 0.898039 0.898039 4
-0.114273 -0.0951513 -0.09134 0.898039 0.898039 0.898039 4
-0.13098 -0.100256 -0.0065 0.529412 0.54902 0.54902 6
-0.377846 -0.101151 -0.0566331 0.898039 0.898039 0.898039 4
-0.0484071 -0.100158 -0.0665937 0.898039 0.898039 0.898039 4
-0.330424 -0.0951513 -0.0872356 0.898039 0.898039 0.898039 4
-0.305807 -0.0951513 -0.094645 0.898039 0.898039 0.898039 4
-0.199509 -0.101151 -0.0895512 0.898039 0.898039 0.898039 4
0.0375181 -0.0842647 -0.0133496 0.909804 0.443137 0.0313726 5
-0.026307 -0.0854427 -0.00273742 0.909804 0.443137 0.0313726 5
-0.253497 -0.101151 -0.00521972 0.529412 0.54902 0.54902 6
0.033022 -0.0823679 -0.0116434 0.909804 0.443137 0.0313726 5
-0.11729 -0.101151 -0.100614 0.898039 0.898039 0.898039 4
-0.387855 -0.101604 0.00431334 0.898039 0.898039 0.898039 1
-0.355638 -0.100114 -0.101908 0.898039 0.898039 0.898039 4
-0.287677 -0.101151 -0.0970768 0.898039 0.898039 0.898039 4
-0.111375 -0.0951513 -0.102767 0.898039 0.898039 0.898039 4
-0.34873 -0.0921513 0.00388769 0.898039 0.898039 0.898039 4
-0.127938 -0.0951513 -0.103418 0.898039 0.898039 0.898039 4
-0.0386576 -0.101151 -0.0734597 0.898039 0.898039 0.898039 4
-0.360147 -0.101151 -0.0881025 0.898039 0.898039 0.898039 4
-0.358355 -0.097284 -0.0432411 0.898039 0.898039 0.898039 4
-0.0308689 -0.0951513 -0.0526434 0.898039 0.898039 0.898039 4
-0.0666643 -0.0951513 -0.0867994 0.898039 0.898039 0.898039 4
-0.0286355 -0.0951513 -0.0103628 0.898039 0.898039 0.898039 4
-0.0397874 -0.101151 -0.0916705 0.898039 0.898039 0.898039 4
-0.100483 -0.101151 -0.10446 0.898039 0.898039 0.898039 4
-0.201045 -0.0951513 -0.0955199 0.898039 0.898039 0.898039 4
-0.330127 -0.0931513 0.00402111 0 0 0 3
-0.312499 -0.0989812 -0.086 0.898039 0.898039 0.898039 4
-0.0291096 -0.0951513 -0.0502278 0.898039 0.898039 0.898039 4
-0.0297607 -0.101151 -0.0656422 0.898039 0.898039 0.898039 4
0.0327433 -0.0792304 -0.00528402 0.909804 0.443137 0.0313726 5
-0.224905 -0.101151 -0.0937556 0.898039 0.898039 0.898039 4
7.80487e-05 -0.114164 -0.00604271 0.909804 0.443137 0.0313726 5
-0.0449239 -0.0951513 -0.0237744 0.898039 0.898039 0.898039 4
0.019884 -0.0880361 0.0171082 0.909804 0.443137 0.0313726 5
-0.365559 -0.0951513 -0.0585813 0.898039 0.898039 0.898039 4
-0.364344 -0.0951513 -0.0103628 0.898039 0.898039 0.898039 4
0.0682637 -0.0892203 0.00954831 0.909804 0.443137 0.0313726 5
-0.349572 -0.0952829 -0.104248 0.898039 0.898039 0.898039 4
-0.0485445 -0.101151 -0.0994924 0.898039 0.898039 0.898039 4
-0.173091 -0.0951513 -0.0972947 0.898039 0.898039 0.898039 4
-0.0349316 -0.0951513 -0.0276231 0.898039 0.898039 0.898039 4
-0.210795 -0.101151 -0.0952854 0.898039 0.898039 0.898039 4
0.0601182 -0.0951712 -0.0150796 0.909804 0.443137 0.0313726 5
-0.0826678 -0.0951513 -0.0874144 0.898039 0.898039 0.898039 4
-0.37254 -0.101151 -0.00920958 0.898039 0.898039 0.898039 4
-0.115324 -0.100151 -0.0032304 0.529412 0.54902 0.54902 6
-0.0287493 -0.099729 -0.0705052 0.898039 0.898039 0.898039 4
0.0686093 -0.111105 -0.000452822 0.909804 0.443137 0.0313726 5
0.0379454 -0.0916079 -0.0180843 0.909804 0.443137 0.0313726 5
-0.255205 -0.101151 0.000215793 0.529412 0.54902 0.54902 6
-0.0646127 -0.0934532 0.005 0 0 0 2
-0.0553713 -0.0943245 -0.006 0.898039 0.898039 0.898039 4
-0.312858 -0.101151 -0.0969984 0.898039 0.898039 0.898039 4
-0.0283552 -0.0961158 -0.0496823 0.898039 0.898039 0.898039 4
-0.161669 -0.101151 -0.0905693 0.898039 0.898039 0.898039 4
-0.276136 -0.101151 -0.0865088 0.898039 0.898039 0.898039 4
-0.298324 -0.101151 -0.0976272 0.898039 0.898039 0.898039 4
-0.0328459 -0.0971868 -0.084138 0.898039 0.898039 0.898039 4
-0.172054 -0.100151 0.00267163 0.529412 0.54902 0.54902 6
0.0803849 -0.102925 -0.00233622 0.909804 0.443137 0.0313726 5
0.0722127 -0.105851 0.00901546 0.909804 0.443137 0.0313726 5
-0.0126568 -0.107748 0.00198137 0.909804 0.443137 0.0313726 5
-0.322098 -0.101151 -0.0925738 0.898039 0.898039 0.898039 4
-0.322718 -0.101151 -0.101908 0.898039 0.898039 0.898039 4
-0.0328459 -0.0951513 -0.0716009 0.898039 0.898039 0.898039 4
-0.00606672 -0.0913573 -0.0088425 0.909804 0.443137 0.0313726 5
0.00360593 -0.0881326 0.0156169 0.909804 0.443137 0.0313726 5
-0.363783 -0.0951513 -0.0695996 0.898039 0.898039 0.898039 4
-0.155078 -0.101151 0.0061225 0.529412 0.54902 0.54902 6
0.0183062 -0.091391 -0.0186313 0.909804 0.443137 0.0313726 5
-0.373704 -0.0951513 -0.0826884 0.898039 0.898039 0.898039 4
-0.384392 -0.101577 0.00917187 0.898039 0.898039 0.898039 1
-0.141888 -0.100151 -0.00297889 0.529412 0.54902 0.54902 6
-0.0971614 -0.100151 0.00385802 0.529412 0.54902 0.54902 6
-0.138547 -0.0951513 -0.0902156 0.898039 0.898039 0.898039 4
-0.177701 -0.100151 0.00271596 0.529412 0.54902 0.54902 6
0.0197846 -0.11289 -0.0133131 0.909804 0.443137 0.0313726 5
-0.323886 -0.0951513 -0.0932516 0.898039 0.898039 0.898039 4
-0.274406 -0.101151 -0.0915187 0.898039 0.898039 0.898039 4
0.0229838 -0.0787414 0.00437838 0.909804 0.443137 0.0313726 5
-0.247683 -0.100151 -0.00437838 0.529412 0.54902 0.54902 6
-0.134571 -0.100151 -0.00229417 0.529412 0.54902 0.54902 6
-0.35546 -0.0951513 -0.0815252 0.898039 0.898039 0.898039 4
-0.360755 -0.0951513 -0.0989303 0.898039 0.898039 0.898039 4
-0.133931 -0.101151 -0.0991289 0.898039 0.898039 0.898039 4
-0.0548274 -0.104151 0.00102567 0.898039 0.898039 0.898039 4
-0.0304303 -0.101151 -0.0705052 0.898039 0.898039 0.898039 4
-0.161901 -0.100151 -0.000700214 0.529412 0.54902 0.54902 6
0.0629823 -0.112746 -0.000628136 0.909804 0.443137 0.0313726 5
-0.0570793 -0.0960326 -0.104232 0.898039 0.898039 0.898039 4
-0.0854642 -0.0951513 -0.099087 0.898039 0.898039 0.898039 4
-0.105314 -0.101151 -0.0061143 0.529412 0.54902 0.54902 6
-0.0400927 -0.0952829 0.006 0.898039 0.898039 0.898039 4
0.0390724 -0.109202 0.0155975 0.909804 0.443137 0.0313726 5
0.0103423 -0.100557 -0.0191847 0.909804 0.443137 0.0313726 5
-0.37819 -0.0967328 -0.0678839 0.898039 0.898039 0.898039 4
-0.043842 -0.0943245 -0.006 0.898039 0.898039 0.898039 4
-0.377301 -0.100045 -0.0746123 0.898039 0.898039 0.898039 4
-0.358952 -0.0951513 -0.0816776 0.898039 0.898039 0.898039 4
0.0247109 -0.108603 -0.0169235 0.909804 0.443137 0.0313726 5
0.06102 -0.0901532 -0.012874 0.909804 0.443137 0.0313726 5
-0.0937403 -0.0951513 -0.0896837 0.898039 0.898039 0.898039 4
-0.233 -0.101151 -0.0888804 0.898039 0.898039 0.898039 4
-0.245682 -0.100151 0.0033509 0.529412 0.54902 0.54902 6
-0.170869 -0.0951513 -0.0942558 0.898039 0.898039 0.898039 4
-0.197564 -0.101151 -0.00437838 0.529412 0.54902 0.54902 6
0.00258576 -0.116221 0.00284705 0.909804 0.443137 0.0313726 5
-0.284993 -0.101151 -0.0862141 0.898039 0.898039 0.898039 4
0.000294073 -0.0880361 -0.014011 0.909804 0.443137 0.0313726 5
-0.160267 -0.100151 -0.00196278 0.529412 0.54902 0.54902 6
-0.233039 -0.0989135 -0.106 0.898039 0.898039 0.898039 4
-0.117392 -0.100151 0.000452822 0.529412 0.54902 0.54902 6
0.0661937 -0.099683 0.0136383 0.909804 0.443137 0.0313726 5
0.0296058 -0.117872 -0.00138646 0.909804 0.443137 0.0313726 5
-0.0733054 -0.101151 -0.00157466 0.529412 0.54902 0.54902 6
0.0577337 -0.114032 0.00152597 0.909804 0.443137 0.0313726 5
-0.234207 -0.101151 -0.0935032 0.898039 0.898039 0.898039 4
0.0156931 -0.0799845 0.00769962 0.909804 0.443137 0.0313726 5
-0.0613769 -0.0951513 -0.0961712 0.898039 0.898039 0.898039 4
-0.139132 -0.101151 -0.0922456 0.898039 0.898039 0.898039 4
-0.0320783 -0.101151 -0.0061143 0.898039 0.898039 0.898039 4
-0.371605 -0.0951513 -0.0526377 0.898039 0.898039 0.898039 4
-0.139521 -0.0976985 -0.106 0.898039 0.898039 0.898039 4
-0.358584 -0.0951513 -0.0889244 0.898039 0.898039 0.898039 4
-0.293731 -0.101151 0.00144185 0.529412 0.54902 0.54902 6
-0.347442 -0.101151 -0.0952854 0.898039 0.898039 0.898039 4
-0.248373 -0.101151 -0.00280412 0.529412 0.54902 0.54902 6
-0.0252312 -0.099627 -0.0140408 0.909804 0.443137 0.0313726 5
0.0251285 -0.0939885 -0.0194485 0.909804 0.443137 0.0313726 5
-0.0513024 -0.0951513 -0.0929369 0.898039 0.898039 0.898039 4
-0.37722 -0.0951513 -0.0476877 0.898039 0.898039 0.898039 4
0.0375028 -0.10102 -0.0190466 0.909804 0.443137 0.0313726 5
-0.198838 -0.101151 -0.105961 0.898039 0.898039 0.898039 4
-0.107818 -0.101151 0.00272291 0.529412 0.54902 0.54902 6
-0.216431 -0.100151 -0.00639506 0.529412 0.54902 0.54902 6
-0.178877 -0.0952829 -0.086 0.898039 0.898039 0.898039 4
-0.125184 -0.0951513 -0.0950786 0.898039 0.898039 0.898039 4
-0.0483552 -0.0954397 -0.0589285 0.898039 0.898039 0.898039 4
-0.237496 -0.0951513 -0.100351 0.898039 0.898039 0.898039 4
-0.132668 -0.101151 0.00528402 0.529412 0.54902 0.54902 6
-0.0763267 -0.0932047 -0.005 0 0 0 2
-0.207986 -0.101151 0.00104061 0.529412 0.54902 0.54902 6
-0.12706 -0.0976985 -0.106 0.898039 0.898039 0.898039 4
-0.368833 -0.0951513 -0.0720152 0.898039 0.898039 0.898039 4
-0.304903 -0.100151 0.00437838 0.529412 0.54902 0.54902 6
-0.334796 -0.103151 0.00213424 0 0 0 3
0.0764003 -0.0926979 0.0084019 0.909804 0.443137 0.0313726 5
0.0738152 -0.096082 -0.0111946 0.909804 0.443137 0.0313726 5
-0.280747 -0.101151 -0.0937556 0.898039 0.898039 0.898039 4
-0.0844585 -0.101151 0.00272262 0.529412 0.54902 0.54902 6
-0.0681742 -0.101151 -0.0996318 0.898039 0.898039 0.898039 4
-0.208279 -0.101151 -0.000562719 0.529412 0.54902 0.54902 6
0.0227129 -0.0976985 0.0199112 0.909804 0.443137 0.0313726 5
0.0347909 -0.106019 -0.0178146 0.909804 0.443137 0.0313726 5
-0.367709 -0.101151 -0.0451038 0.898039 0.898039 0.898039 4
-0.0933604 -0.101151 -0.0860979 0.898039 0.898039 0.898039 4
-0.084947 -0.101151 -0.000562719 0.529412 0.54902 0.54902 6
-0.189254 -0.101151 -0.00157466 0.529412 0.54902 0.54902 6
-0.0190405 -0.0991756 0.0131308 0.909804 0.443137 0.0313726 5
-0.0493657 -0.0951513 -0.09134 0.898039 0.898039 0.898039 4
-0.15336 -0.0951513 -0.0918402 0.898039 0.898039 0.898039 4
-0.188156 -0.0951513 -0.0933787 0.898039 0.898039 0.898039 4
-0.164467 -0.0951513 -0.0967836 0.898039 0.898039 0.898039 4
-0.284068 -0.10102 -0.106 0.898039 0.898039 0.898039 4
-0.239832 -0.101151 -0.0935773 0.898039 0.898039 0.898039 4
-0.0745851 -0.101151 0.00144185 0.529412 0.54902 0.54902 6
0.0269258 -0.0884641 -0.017362 0.909804 0.443137 0.0313726 5
-0.0219886 -0.083297 -0.00196278 0.909804 0.443137 0.0313726 5
-0.287659 -0.101151 -0.101844 0.898039 0.898039 0.898039 4
-0.33246 -0.0970925 -0.005 0 0 0 3
-0.0710689 -0.101151 -0.0990386 0.898039 0.898039 0.898039 4
-0.22851 -0.101151 -0.104324 0.898039 0.898039 0.898039 4
0.00448824 -0.0951698 0.0184811 0.909804 0.443137 0.0313726 5
-0.205671 -0.101151 -0.00219981 0.529412 0.54902 0.54902 6
-0.145473 -0.100687 -0.106 0.898039 0.898039 0.898039 4
