ply
format ascii 1.0
comment Created by Open3D
element vertex 707
property float32 x
property float32 y
property float32 z
property float32 red
property float32 green
property float32 blue
property float32 volume
property uint8 segmentation
end_header
0.177064 0.159704 0.15891 0.978422 0.557937 0.034931 2.08609e-08 3
0.160183 0.159773 0.155567 0.978422 0.557937 0.034931 1.00546e-07 3
0.162961 0.160518 0.155143 0.978422 0.557937 0.034931 1.05727e-07 3
0.168787 0.166938 0.158009 0.978422 0.557937 0.034931 1.86471e-06 3
0.182864 0.167661 0.145887 0.978422 0.557937 0.034931 9.53846e-06 3
0.178573 0.159424 0.157854 0.978422 0.557937 0.034931 2.06074e-07 3
0.166873 0.161447 0.145848 0.978422 0.557937 0.034931 2.75843e-06 3
0.1787 0.156493 0.156344 0.978422 0.557937 0.034931 3.83508e-06 3
0.171209 0.163767 0.158591 0.978422 0.557937 0.034931 2.40802e-06 3
0.171908 0.167051 0.145658 0.978422 0.557937 0.034931 1.01497e-05 3
0.173555 0.16305 0.160046 0.978422 0.557937 0.034931 3.6831e-07 3
0.162804 0.16309 0.151641 0.978422 0.557937 0.034931 3.42511e-07 3
0.176637 0.16662 0.151618 0.978422 0.557937 0.034931 7.39123e-06 3
0.179917 0.157642 0.150556 0.978422 0.557937 0.034931 4.00597e-06 3
0.161714 0.160552 0.157589 0.978422 0.557937 0.034931 1.75146e-07 3
0.169604 0.16338 0.159408 0.978422 0.557937 0.034931 1.53487e-06 3
0.166729 0.159281 0.156586 0.978422 0.557937 0.034931 2.78509e-07 3
0.166941 0.166649 0.153884 0.978422 0.557937 0.034931 2.89366e-06 3
0.164038 0.160516 0.154978 0.978422 0.557937 0.034931 1.7553e-07 3
0.16669 0.169234 0.159917 0.978422 0.557937 0.034931 9.925e-06 3
0.16129 0.160595 0.156548 0.978422 0.557937 0.034931 2.75688e-07 3
0.160952 0.165329 0.149101 0.978422 0.557937 0.034931 1.55588e-06 3
0.174675 0.151405 0.154479 0.978422 0.557937 0.034931 1.91345e-05 3
0.158795 0.159832 0.157219 0.978422 0.557937 0.034931 1.51088e-07 3
0.17877 0.164137 0.154704 0.978422 0.557937 0.034931 9.18776e-06 3
0.176653 0.159388 0.156692 0.978422 0.557937 0.034931 3.80482e-07 3
0.167096 0.153751 0.157811 0.978422 0.557937 0.034931 3.2666e-06 3
0.174337 0.159822 0.159152 0.978422 0.557937 0.034931 1.73972e-08 3
0.169877 0.159688 0.155185 0.978422 0.557937 0.034931 2.64191e-07 3
0.176089 0.159944 0.155884 0.978422 0.557937 0.034931 7.13718e-07 3
0.166785 0.163184 0.146322 0.978422 0.557937 0.034931 3.37086e-06 3
0.159907 0.163425 0.159683 0.978422 0.557937 0.034931 4.09449e-07 3
0.162912 0.15346 0.154108 0.978422 0.557937 0.034931 1.09575e-06 3
0.164402 0.159934 0.153857 0.978422 0.557937 0.034931 1.20063e-07 3
0.165422 0.163481 0.143961 0.978422 0.557937 0.034931 2.19449e-07 3
0.166969 0.160539 0.156492 0.978422 0.557937 0.034931 1.40365e-07 3
0.16238 0.16738 0.146744 0.978422 0.557937 0.034931 4.72842e-06 3
0.165188 0.154239 0.152305 0.978422 0.557937 0.034931 2.1126e-06 3
0.160518 0.156236 0.153925 0.978422 0.557937 0.034931 7.13389e-07 3
0.173773 0.152451 0.165508 0.978422 0.557937 0.034931 1.32709e-06 3
0.163343 0.159529 0.15288 0.978422 0.557937 0.034931 2.03439e-08 3
0.161233 0.159585 0.155138 0.978422 0.557937 0.034931 4.01443e-08 3
0.165112 0.156442 0.155209 0.978422 0.557937 0.034931 5.7561e-07 3
0.163977 0.15642 0.154515 0.978422 0.557937 0.034931 2.29058e-07 3
0.164993 0.16372 0.153425 0.978422 0.557937 0.034931 9.21794e-07 3
0.165163 0.159634 0.153752 0.978422 0.557937 0.034931 6.89401e-08 3
0.164241 0.159987 0.15258 0.978422 0.557937 0.034931 7.11934e-08 3
0.176856 0.152401 0.165525 0.978422 0.557937 0.034931 7.21356e-06 3
0.176986 0.153889 0.160368 0.978422 0.557937 0.034931 8.07039e-06 3
0.179743 0.156402 0.15985 0.978422 0.557937 0.034931 3.41432e-06 3
0.172436 0.154047 0.162923 0.978422 0.557937 0.034931 5.16246e-06 3
0.17372 0.156591 0.160895 0.978422 0.557937 0.034931 2.82952e-06 3
0.160865 0.165619 0.150133 0.978422 0.557937 0.034931 2.14966e-06 3
0.16129 0.165956 0.151195 0.978422 0.557937 0.034931 3.15263e-06 3
0.160785 0.159745 0.153054 0.978422 0.557937 0.034931 1.2919e-08 3
0.161867 0.160096 0.155864 0.978422 0.557937 0.034931 9.16418e-08 3
0.159895 0.16354 0.15402 0.978422 0.557937 0.034931 1.21523e-06 3
0.160336 0.160273 0.15489 0.978422 0.557937 0.034931 5.2991e-08 3
0.160301 0.159566 0.153241 0.978422 0.557937 0.034931 8.18664e-09 3
0.168226 0.166661 0.153734 0.978422 0.557937 0.034931 2.89366e-06 3
0.166287 0.160668 0.157023 0.978422 0.557937 0.034931 1.66699e-07 3
0.160648 0.1597 0.15249 0.978422 0.557937 0.034931 1.06347e-08 3
0.163229 0.163426 0.152703 0.978422 0.557937 0.034931 7.93289e-07 3
0.166317 0.163598 0.15282 0.978422 0.557937 0.034931 9.81661e-07 3
0.160164 0.160402 0.154454 0.978422 0.557937 0.034931 7.26384e-08 3
0.16095 0.160078 0.153434 0.978422 0.557937 0.034931 2.85305e-08 3
0.160466 0.159899 0.15362 0.978422 0.557937 0.034931 1.80796e-08 3
0.162553 0.159774 0.152939 0.978422 0.557937 0.034931 2.25885e-08 3
0.162219 0.159499 0.15267 0.978422 0.557937 0.034931 1.82181e-08 3
0.161606 0.159536 0.152845 0.978422 0.557937 0.034931 1.53363e-08 3
0.162105 0.160144 0.153493 0.978422 0.557937 0.034931 2.87886e-08 3
0.160164 0.159521 0.152676 0.978422 0.557937 0.034931 1.13138e-08 3
0.162172 0.159973 0.153979 0.978422 0.557937 0.034931 1.31122e-08 3
0.1628 0.159677 0.154322 0.978422 0.557937 0.034931 3.24615e-08 3
0.162083 0.159115 0.155818 0.978422 0.557937 0.034931 3.22073e-08 3
0.161188 0.159222 0.154471 0.978422 0.557937 0.034931 1.70788e-08 3
0.16143 0.159251 0.154893 0.978422 0.557937 0.034931 1.61036e-08 3
0.162309 0.153504 0.154365 0.978422 0.557937 0.034931 2.00941e-06 3
0.161708 0.153374 0.155596 0.978422 0.557937 0.034931 4.33108e-06 3
0.16303 0.156224 0.157066 0.978422 0.557937 0.034931 1.06385e-06 3
0.160123 0.156262 0.154064 0.978422 0.557937 0.034931 1.04623e-07 3
0.161583 0.159751 0.154216 0.978422 0.557937 0.034931 1.87384e-08 3
0.161516 0.159923 0.15373 0.978422 0.557937 0.034931 2.93156e-08 3
0.162864 0.159319 0.155484 0.978422 0.557937 0.034931 2.41667e-08 3
0.166618 0.16216 0.149515 0.978422 0.557937 0.034931 2.6833e-06 3
0.167046 0.165016 0.148352 0.978422 0.557937 0.034931 2.99099e-06 3
0.165004 0.164934 0.14843 0.978422 0.557937 0.034931 1.5677e-06 3
0.168005 0.160228 0.152912 0.978422 0.557937 0.034931 1.63516e-07 3
0.168787 0.159829 0.152733 0.978422 0.557937 0.034931 2.05776e-07 3
0.16605 0.16069 0.15526 0.978422 0.557937 0.034931 1.30833e-07 3
0.164817 0.16026 0.158069 0.978422 0.557937 0.034931 1.76531e-07 3
0.165021 0.160008 0.157372 0.978422 0.557937 0.034931 1.12982e-07 3
0.164091 0.160123 0.157271 0.978422 0.557937 0.034931 6.53574e-08 3
0.162426 0.163573 0.15918 0.978422 0.557937 0.034931 5.62176e-07 3
0.164744 0.166517 0.160168 0.978422 0.557937 0.034931 2.28114e-07 3
0.164731 0.166269 0.160589 0.978422 0.557937 0.034931 3.26252e-06 3
0.163294 0.15607 0.146977 0.978422 0.557937 0.034931 1.5949e-06 3
0.160517 0.154738 0.144511 0.978422 0.557937 0.034931 7.43973e-06 3
0.179482 0.155563 0.14385 0.978422 0.557937 0.034931 3.25596e-06 3
0.159551 0.165685 0.145456 0.978422 0.557937 0.034931 1.08336e-05 3
0.166582 0.158895 0.145823 0.978422 0.557937 0.034931 5.17099e-06 3
0.158755 0.159528 0.1522 0.978422 0.557937 0.034931 5.51284e-08 3
0.177163 0.15798 0.143313 0.978422 0.557937 0.034931 4.11209e-06 3
0.169264 0.164506 0.143912 0.978422 0.557937 0.034931 2.76247e-06 3
0.179396 0.156792 0.143318 0.978422 0.557937 0.034931 2.03178e-06 3
0.156082 0.163553 0.147892 0.978422 0.557937 0.034931 4.14898e-06 3
0.158097 0.160864 0.14881 0.978422 0.557937 0.034931 9.08296e-07 3
0.16773 0.157248 0.150159 0.978422 0.557937 0.034931 9.54304e-07 3
0.174141 0.15395 0.14519 0.978422 0.557937 0.034931 8.79576e-06 3
0.157459 0.153002 0.147057 0.978422 0.557937 0.034931 1.22776e-05 3
0.16782 0.153734 0.152901 0.978422 0.557937 0.034931 4.32087e-06 3
0.179021 0.165704 0.144333 0.978422 0.557937 0.034931 7.67116e-06 3
0.169902 0.154517 0.144633 0.978422 0.557937 0.034931 5.56435e-06 3
0.162246 0.163376 0.143935 0.978422 0.557937 0.034931 8.661e-06 3
0.176959 0.156873 0.146201 0.978422 0.557937 0.034931 4.0937e-06 3
0.157992 0.155942 0.147038 0.978422 0.557937 0.034931 2.02096e-06 3
0.164646 0.148728 0.150482 0.978422 0.557937 0.034931 3.38546e-06 3
0.168856 0.154653 0.148486 0.978422 0.557937 0.034931 2.90117e-06 3
0.177614 0.152214 0.150132 0.978422 0.557937 0.034931 1.93338e-05 3
0.174575 0.155028 0.148404 0.978422 0.557937 0.034931 5.96758e-06 3
0.180074 0.162008 0.143388 0.978422 0.557937 0.034931 7.05194e-06 3
0.174569 0.158686 0.14566 0.978422 0.557937 0.034931 4.66128e-06 3
0.166712 0.159902 0.151965 0.978422 0.557937 0.034931 3.16352e-07 3
0.156273 0.149935 0.145316 0.978422 0.557937 0.034931 6.47485e-06 3
0.159434 0.154225 0.149786 0.978422 0.557937 0.034931 4.89321e-06 3
0.175162 0.160275 0.152567 0.978422 0.557937 0.034931 1.17296e-06 3
0.163182 0.157221 0.149864 0.978422 0.557937 0.034931 2.64899e-07 3
0.152271 0.155105 0.147535 0.978422 0.557937 0.034931 3.9987e-06 3
0.163738 0.158704 0.146164 0.978422 0.557937 0.034931 1.85284e-06 3
0.17486 0.16127 0.145691 0.978422 0.557937 0.034931 5.19557e-06 3
0.161696 0.158623 0.146242 0.978422 0.557937 0.034931 3.8166e-06 3
0.17611 0.164381 0.146645 0.978422 0.557937 0.034931 8.40349e-06 3
0.170618 0.15888 0.143398 0.978422 0.557937 0.034931 3.09734e-06 3
0.156641 0.158181 0.143502 0.978422 0.557937 0.034931 1.29896e-05 3
0.163021 0.164642 0.14151 0.978422 0.557937 0.034931 7.91849e-07 3
0.177454 0.160564 0.143344 0.978422 0.557937 0.034931 4.55558e-06 3
0.159696 0.159595 0.151523 0.978422 0.557937 0.034931 6.53786e-08 3
0.161847 0.154172 0.150145 0.978422 0.557937 0.034931 1.54435e-06 3
0.158124 0.163634 0.147813 0.978422 0.557937 0.034931 3.82865e-06 3
0.16877 0.157634 0.143382 0.978422 0.557937 0.034931 4.2213e-06 3
0.161065 0.154189 0.150029 0.978422 0.557937 0.034931 1.54435e-06 3
0.162591 0.154156 0.150256 0.978422 0.557937 0.034931 1.39089e-06 3
0.169352 0.162769 0.143438 0.978422 0.557937 0.034931 2.24155e-06 3
0.159614 0.161178 0.145978 0.978422 0.557937 0.034931 2.75984e-06 3
0.160097 0.159892 0.143529 0.978422 0.557937 0.034931 8.46041e-06 3
0.16795 0.153524 0.145447 0.978422 0.557937 0.034931 3.65387e-06 3
0.170909 0.161464 0.143429 0.978422 0.557937 0.034931 3.44417e-06 3
0.164631 0.15719 0.15008 0.978422 0.557937 0.034931 2.38576e-07 3
0.160861 0.14853 0.146594 0.978422 0.557937 0.034931 3.38546e-06 3
0.177393 0.157951 0.149415 0.978422 0.557937 0.034931 3.72927e-06 3
0.184481 0.159491 0.143381 0.978422 0.557937 0.034931 6.70438e-06 3
0.161075 0.159516 0.152419 0.978422 0.557937 0.034931 1.39912e-08 3
0.15824 0.156911 0.146216 0.978422 0.557937 0.034931 6.91133e-07 3
0.161212 0.159909 0.148692 0.978422 0.557937 0.034931 1.34182e-07 3
0.163926 0.157205 0.149975 0.978422 0.557937 0.034931 2.38576e-07 3
0.165003 0.159687 0.152475 0.978422 0.557937 0.034931 4.08791e-08 3
0.1624 0.157239 0.149747 0.978422 0.557937 0.034931 2.64899e-07 3
0.163613 0.159618 0.152192 0.978422 0.557937 0.034931 3.03143e-08 3
0.161281 0.159789 0.151936 0.978422 0.557937 0.034931 2.06342e-08 3
0.161707 0.159605 0.151865 0.978422 0.557937 0.034931 2.71466e-08 3
0.162824 0.159864 0.152251 0.978422 0.557937 0.034931 3.36589e-08 3
0.16249 0.159588 0.151982 0.978422 0.557937 0.034931 2.71466e-08 3
0.166667 0.151636 0.150685 0.978422 0.557937 0.034931 9.61476e-06 3
0.167499 0.154429 0.149049 0.978422 0.557937 0.034931 6.00724e-07 3
0.166587 0.158374 0.148747 0.978422 0.557937 0.034931 1.39161e-06 3
0.164782 0.156038 0.147198 0.978422 0.557937 0.034931 1.74567e-06 3
0.166823 0.156119 0.14712 0.978422 0.557937 0.034931 3.08835e-06 3
0.198701 0.170142 0.167194 0.978422 0.557937 0.034931 2.44943e-07 3
0.190363 0.169516 0.162225 0.978422 0.557937 0.034931 8.07761e-06 3
0.182746 0.160085 0.157442 0.978422 0.557937 0.034931 1.83159e-07 3
0.176812 0.168335 0.164639 0.978422 0.557937 0.034931 1.30095e-05 3
0.192138 0.166936 0.157377 0.978422 0.557937 0.034931 5.68989e-06 3
0.194591 0.166742 0.157646 0.978422 0.557937 0.034931 4.64268e-06 3
0.187334 0.163886 0.151434 0.978422 0.557937 0.034931 9.48492e-06 3
0.187946 0.167491 0.164684 0.978422 0.557937 0.034931 8.09964e-06 3
0.191876 0.164487 0.1639 0.978422 0.557937 0.034931 4.14502e-06 3
0.197583 0.166448 0.166372 0.978422 0.557937 0.034931 4.44011e-06 3
0.186712 0.164295 0.158947 0.978422 0.557937 0.034931 6.07281e-07 3
0.182834 0.160418 0.15533 0.978422 0.557937 0.034931 6.27853e-07 3
0.183922 0.160544 0.15837 0.978422 0.557937 0.034931 1.17905e-07 3
0.183396 0.169737 0.150877 0.978422 0.557937 0.034931 1.9219e-05 3
0.18168 0.167112 0.158271 0.978422 0.557937 0.034931 5.98271e-06 3
0.188886 0.167267 0.159601 0.978422 0.557937 0.034931 1.86594e-06 3
0.191866 0.166351 0.161557 0.978422 0.557937 0.034931 1.74009e-06 3
0.197243 0.166249 0.15422 0.978422 0.557937 0.034931 6.268e-06 3
0.199758 0.16909 0.155705 0.978422 0.557937 0.034931 2.27727e-06 3
0.192391 0.164126 0.156608 0.978422 0.557937 0.034931 3.90279e-07 3
0.1853 0.164807 0.162501 0.978422 0.557937 0.034931 7.21706e-06 3
0.188855 0.164286 0.164043 0.978422 0.557937 0.034931 2.28694e-06 3
0.197552 0.168934 0.150994 0.978422 0.557937 0.034931 7.68653e-06 3
0.199255 0.16299 0.151426 0.978422 0.557937 0.034931 1.19048e-05 3
0.197408 0.169382 0.157271 0.978422 0.557937 0.034931 6.94717e-06 3
0.190101 0.164369 0.163984 0.978422 0.557937 0.034931 2.08766e-06 3
0.184193 0.169603 0.167572 0.978422 0.557937 0.034931 7.30684e-06 3
0.202147 0.168686 0.160401 0.978422 0.557937 0.034931 6.1189e-06 3
0.185529 0.167253 0.153963 0.978422 0.557937 0.034931 9.39542e-06 3
0.193642 0.166469 0.161472 0.978422 0.557937 0.034931 3.45494e-06 3
0.190389 0.164102 0.158932 0.978422 0.557937 0.034931 5.12121e-07 3
0.181763 0.167145 0.156046 0.978422 0.557937 0.034931 6.29112e-06 3
0.194374 0.16545 0.166944 0.978422 0.557937 0.034931 1.20428e-05 3
0.185112 0.160192 0.158151 0.978422 0.557937 0.034931 1.69509e-07 3
0.190634 0.170102 0.158045 0.978422 0.557937 0.034931 9.78126e-06 3
0.193591 0.167308 0.146221 0.978422 0.557937 0.034931 8.01257e-06 3
0.1876 0.160657 0.162156 0.978422 0.557937 0.034931 1.46784e-06 3
0.198479 0.169328 0.159535 0.978422 0.557937 0.034931 2.53824e-06 3
0.197751 0.165546 0.144641 0.978422 0.557937 0.034931 8.49615e-06 3
0.195984 0.168972 0.163011 0.978422 0.557937 0.034931 5.38358e-06 3
0.198004 0.169191 0.161448 0.978422 0.557937 0.034931 1.96696e-06 3
0.189041 0.170178 0.154545 0.978422 0.557937 0.034931 1.3171e-05 3
0.199893 0.168942 0.16036 0.978422 0.557937 0.034931 1.30857e-06 3
0.190846 0.16681 0.152016 0.978422 0.557937 0.034931 9.38484e-06 3
0.192693 0.163924 0.154748 0.978422 0.557937 0.034931 7.98187e-06 3
0.189952 0.160654 0.155192 0.978422 0.557937 0.034931 6.40155e-07 3
0.189056 0.160816 0.15708 0.978422 0.557937 0.034931 2.09422e-07 3
0.193608 0.169302 0.14906 0.978422 0.557937 0.034931 7.03152e-06 3
0.180759 0.161117 0.155525 0.978422 0.557937 0.034931 1.75697e-06 3
0.191539 0.161129 0.156275 0.978422 0.557937 0.034931 5.56537e-07 3
0.184865 0.164172 0.159035 0.978422 0.557937 0.034931 1.11429e-06 3
0.188189 0.166544 0.161572 0.978422 0.557937 0.034931 2.48832e-06 3
0.192936 0.160387 0.155725 0.978422 0.557937 0.034931 5.14858e-07 3
0.203192 0.171348 0.161194 0.978422 0.557937 0.034931 3.98089e-07 3
0.197427 0.167989 0.164866 0.978422 0.557937 0.034931 5.04359e-06 3
0.17937 0.166143 0.161807 0.978422 0.557937 0.034931 8.83587e-06 3
0.186963 0.160615 0.158176 0.978422 0.557937 0.034931 9.23809e-08 3
0.188846 0.16074 0.162096 0.978422 0.557937 0.034931 1.33993e-06 3
0.258256 0.159938 0.160834 0.978422 0.557937 0.034931 7.79009e-06 3
0.250498 0.163157 0.168046 0.978422 0.557937 0.034931 4.10514e-06 3
0.245203 0.162096 0.166681 0.978422 0.557937 0.034931 4.37313e-06 3
0.233485 0.159166 0.167841 0.978422 0.557937 0.034931 5.1789e-06 3
0.248486 0.159686 0.169109 0.978422 0.557937 0.034931 1.69232e-06 3
0.239817 0.159314 0.162651 0.978422 0.557937 0.034931 6.12753e-06 3
0.242341 0.157103 0.170089 0.978422 0.557937 0.034931 1.40294e-06 3
0.227621 0.15679 0.170368 0.978422 0.557937 0.034931 2.53126e-07 3
0.239397 0.154265 0.147701 0.978422 0.557937 0.034931 3.4349e-05 3
0.256364 0.163138 0.163725 0.978422 0.557937 0.034931 2.70434e-06 3
0.244 0.157234 0.17015 0.978422 0.557937 0.034931 6.74776e-08 3
0.236059 0.159337 0.148908 0.978422 0.557937 0.034931 7.38604e-06 3
0.249104 0.157792 0.162042 0.978422 0.557937 0.034931 1.74836e-05 3
0.254856 0.154544 0.149551 0.978422 0.557937 0.034931 6.86481e-06 3
0.240963 0.159798 0.166312 0.978422 0.557937 0.034931 3.29937e-06 3
0.228678 0.15453 0.168897 0.978422 0.557937 0.034931 1.7656e-06 3
0.231868 0.156377 0.166236 0.978422 0.557937 0.034931 9.70127e-06 3
0.245572 0.159486 0.167952 0.978422 0.557937 0.034931 2.93135e-06 3
0.245251 0.153913 0.142934 0.978422 0.557937 0.034931 3.70917e-06 3
0.238114 0.15914 0.168201 0.978422 0.557937 0.034931 1.43163e-06 3
0.239518 0.162536 0.167393 0.978422 0.557937 0.034931 2.59429e-06 3
0.242152 0.165351 0.168383 0.978422 0.557937 0.034931 5.12493e-07 3
0.235743 0.155958 0.170499 0.978422 0.557937 0.034931 4.17938e-07 3
0.240782 0.159187 0.170769 0.978422 0.557937 0.034931 6.21822e-07 3
0.25606 0.156476 0.162968 0.978422 0.557937 0.034931 1.7208e-05 3
0.244333 0.163368 0.164609 0.978422 0.557937 0.034931 6.35792e-06 3
0.240098 0.163866 0.168975 0.978422 0.557937 0.034931 1.19744e-06 3
0.240387 0.161264 0.169466 0.978422 0.557937 0.034931 1.62331e-06 3
0.254165 0.157486 0.166619 0.978422 0.557937 0.034931 1.09354e-05 3
0.254467 0.161841 0.167187 0.978422 0.557937 0.034931 4.17698e-06 3
0.231396 0.160941 0.168228 0.978422 0.557937 0.034931 3.43865e-06 3
0.247459 0.15584 0.167051 0.978422 0.557937 0.034931 8.50098e-06 3
0.250272 0.157154 0.167827 0.978422 0.557937 0.034931 1.10143e-05 3
0.24818 0.165412 0.16736 0.978422 0.557937 0.034931 1.53852e-06 3
0.233182 0.158413 0.145758 0.978422 0.557937 0.034931 2.0487e-05 3
0.240437 0.155259 0.166157 0.978422 0.557937 0.034931 3.08897e-06 3
0.246564 0.153911 0.165626 0.978422 0.557937 0.034931 7.0687e-06 3
0.236881 0.154543 0.163451 0.978422 0.557937 0.034931 1.5112e-05 3
0.254003 0.158879 0.159896 0.978422 0.557937 0.034931 1.29206e-05 3
0.242417 0.155456 0.170437 0.978422 0.557937 0.034931 3.36955e-07 3
0.254967 0.157928 0.152369 0.978422 0.557937 0.034931 9.865e-06 3
0.243807 0.158829 0.164454 0.978422 0.557937 0.034931 6.78761e-06 3
0.240009 0.160814 0.166947 0.978422 0.557937 0.034931 1.20014e-06 3
0.24025 0.156747 0.168671 0.978422 0.557937 0.034931 1.34696e-06 3
0.256199 0.162341 0.157761 0.978422 0.557937 0.034931 7.02995e-06 3
0.239228 0.165138 0.166903 0.978422 0.557937 0.034931 1.98029e-06 3
0.226956 0.158909 0.170105 0.978422 0.557937 0.034931 3.71644e-07 3
0.228078 0.157869 0.166301 0.978422 0.557937 0.034931 7.832e-06 3
0.227522 0.153293 0.157303 0.978422 0.557937 0.034931 2.94957e-05 3
0.24841 0.161334 0.168761 0.978422 0.557937 0.034931 1.95621e-06 3
0.229779 0.158153 0.166623 0.978422 0.557937 0.034931 3.68099e-06 3
0.245697 0.165665 0.166771 0.978422 0.557937 0.034931 6.38654e-07 3
0.242201 0.157471 0.145831 0.978422 0.557937 0.034931 1.78845e-05 3
0.241947 0.15918 0.168785 0.978422 0.557937 0.034931 2.63407e-06 3
0.246302 0.161167 0.168682 0.978422 0.557937 0.034931 3.43672e-07 3
0.235986 0.161619 0.143888 0.978422 0.557937 0.034931 1.02678e-05 3
0.247599 0.157285 0.145251 0.978422 0.557937 0.034931 9.0328e-06 3
0.247821 0.160164 0.144103 0.978422 0.557937 0.034931 4.46735e-06 3
0.257689 0.155611 0.147621 0.978422 0.557937 0.034931 9.248e-06 3
0.255456 0.151803 0.147383 0.978422 0.557937 0.034931 6.12659e-06 3
0.255217 0.157115 0.143811 0.978422 0.557937 0.034931 2.1515e-06 3
0.245474 0.156792 0.141787 0.978422 0.557937 0.034931 1.0623e-06 3
0.25709 0.158352 0.149788 0.978422 0.557937 0.034931 8.05858e-06 3
0.229844 0.156273 0.143259 0.978422 0.557937 0.034931 8.30023e-06 3
0.235227 0.153282 0.158413 0.978422 0.557937 0.034931 3.65712e-05 3
0.252911 0.161 0.147695 0.978422 0.557937 0.034931 3.60175e-06 3
0.252688 0.158121 0.148843 0.978422 0.557937 0.034931 5.90645e-06 3
0.244276 0.157757 0.154093 0.978422 0.557937 0.034931 1.94321e-05 3
0.233604 0.163188 0.157592 0.978422 0.557937 0.034931 1.00892e-05 3
0.248109 0.165038 0.145736 0.978422 0.557937 0.034931 4.19029e-06 3
0.240418 0.152915 0.153799 0.978422 0.557937 0.034931 6.62641e-05 3
0.242021 0.162894 0.157907 0.978422 0.557937 0.034931 1.07908e-05 3
0.241881 0.165699 0.146849 0.978422 0.557937 0.034931 3.63375e-06 3
0.244549 0.160843 0.148148 0.978422 0.557937 0.034931 1.42252e-05 3
0.254617 0.159856 0.145979 0.978422 0.557937 0.034931 3.01932e-06 3
0.251617 0.164444 0.149587 0.978422 0.557937 0.034931 6.68336e-07 3
0.231182 0.162068 0.150562 0.978422 0.557937 0.034931 2.71863e-05 3
0.228448 0.153815 0.143134 0.978422 0.557937 0.034931 5.40646e-06 3
0.246348 0.16271 0.160871 0.978422 0.557937 0.034931 1.67229e-05 3
0.259371 0.160466 0.153504 0.978422 0.557937 0.034931 2.68602e-06 3
0.245182 0.162719 0.157829 0.978422 0.557937 0.034931 1.59562e-05 3
0.225855 0.155631 0.144311 0.978422 0.557937 0.034931 2.35721e-06 3
0.257664 0.161609 0.15522 0.978422 0.557937 0.034931 2.95938e-06 3
0.248817 0.15279 0.157973 0.978422 0.557937 0.034931 4.13006e-05 3
0.25213 0.166472 0.150839 0.978422 0.557937 0.034931 1.0696e-06 3
0.234094 0.158064 0.154811 0.978422 0.557937 0.034931 9.52741e-06 3
0.236795 0.164319 0.161357 0.978422 0.557937 0.034931 1.23906e-05 3
0.231503 0.158232 0.156293 0.978422 0.557937 0.034931 1.97239e-05 3
0.25997 0.157725 0.151336 0.978422 0.557937 0.034931 9.29434e-07 3
0.254937 0.163195 0.146948 0.978422 0.557937 0.034931 2.91124e-06 3
0.253716 0.153876 0.155826 0.978422 0.557937 0.034931 3.59056e-05 3
0.251826 0.164399 0.147737 0.978422 0.557937 0.034931 5.11879e-06 3
0.247437 0.157582 0.154015 0.978422 0.557937 0.034931 2.73913e-05 3
0.238863 0.162542 0.147038 0.978422 0.557937 0.034931 4.00443e-06 3
0.237248 0.16489 0.144704 0.978422 0.557937 0.034931 6.0113e-06 3
0.245442 0.163507 0.144495 0.978422 0.557937 0.034931 2.81114e-06 3
0.241211 0.165915 0.149355 0.978422 0.557937 0.034931 2.01718e-06 3
0.250057 0.158861 0.148342 0.978422 0.557937 0.034931 7.29302e-06 3
0.250279 0.16174 0.147194 0.978422 0.557937 0.034931 3.64528e-06 3
0.224795 0.159582 0.167025 0.978422 0.557937 0.034931 3.98558e-06 3
0.22357 0.160294 0.170414 0.978422 0.557937 0.034931 1.5734e-07 3
0.223559 0.15652 0.165988 0.978422 0.557937 0.034931 3.0187e-06 3
0.222233 0.158539 0.169866 0.978422 0.557937 0.034931 8.7745e-07 3
0.227036 0.163126 0.167594 0.978422 0.557937 0.034931 1.43189e-06 3
0.235681 0.165604 0.165453 0.978422 0.557937 0.034931 5.19668e-06 3
0.210139 0.164105 0.16686 0.978422 0.557937 0.034931 1.3733e-06 3
0.211745 0.164923 0.166097 0.978422 0.557937 0.034931 3.24099e-06 3
0.210336 0.165929 0.165393 0.978422 0.557937 0.034931 2.93582e-06 3
0.20873 0.165112 0.166156 0.978422 0.557937 0.034931 2.54746e-07 3
0.206261 0.166338 0.169606 0.978422 0.557937 0.034931 9.06954e-08 3
0.221423 0.16106 0.163904 0.978422 0.557937 0.034931 1.28772e-05 3
0.218532 0.16609 0.163107 0.978422 0.557937 0.034931 4.51645e-06 3
0.199721 0.16643 0.165611 0.978422 0.557937 0.034931 7.3011e-07 3
0.202595 0.169639 0.167148 0.978422 0.557937 0.034931 1.79015e-07 3
0.226266 0.160204 0.170515 0.978422 0.557937 0.034931 8.47738e-08 3
0.227129 0.165513 0.169224 0.978422 0.557937 0.034931 7.61339e-08 3
0.21589 0.164093 0.165651 0.978422 0.557937 0.034931 5.11841e-06 3
0.210473 0.162065 0.167144 0.978422 0.557937 0.034931 4.93592e-06 3
0.213134 0.160959 0.167132 0.978422 0.557937 0.034931 7.09564e-06 3
0.212625 0.157648 0.166257 0.978422 0.557937 0.034931 9.10601e-06 3
0.204073 0.163778 0.163352 0.978422 0.557937 0.034931 1.0805e-05 3
0.23386 0.159548 0.162157 0.978422 0.557937 0.034931 2.12821e-05 3
0.228012 0.166539 0.166623 0.978422 0.557937 0.034931 6.84162e-07 3
0.235856 0.162348 0.165543 0.978422 0.557937 0.034931 9.99484e-06 3
0.232645 0.164541 0.167488 0.978422 0.557937 0.034931 3.51637e-06 3
0.20703 0.164689 0.166405 0.978422 0.557937 0.034931 4.58554e-06 3
0.210736 0.167892 0.155112 0.978422 0.557937 0.034931 1.34725e-05 3
0.220689 0.164019 0.169539 0.978422 0.557937 0.034931 5.86569e-07 3
0.210617 0.167028 0.163375 0.978422 0.557937 0.034931 4.73503e-06 3
0.22709 0.16104 0.170239 0.978422 0.557937 0.034931 1.30449e-07 3
0.207216 0.167724 0.162679 0.978422 0.557937 0.034931 5.60695e-06 3
0.201448 0.166544 0.165296 0.978422 0.557937 0.034931 6.26274e-06 3
0.227193 0.165455 0.167004 0.978422 0.557937 0.034931 1.20113e-06 3
0.223996 0.165745 0.168884 0.978422 0.557937 0.034931 2.33876e-07 3
0.218923 0.166931 0.15627 0.978422 0.557937 0.034931 1.74556e-05 3
0.226 0.160723 0.167535 0.978422 0.557937 0.034931 3.4676e-07 3
0.21796 0.165437 0.168924 0.978422 0.557937 0.034931 4.85576e-07 3
0.21862 0.162675 0.166266 0.978422 0.557937 0.034931 6.18296e-06 3
0.204772 0.16592 0.158457 0.978422 0.557937 0.034931 8.46241e-06 3
0.207527 0.159926 0.167344 0.978422 0.557937 0.034931 7.48294e-06 3
0.214345 0.163422 0.166288 0.978422 0.557937 0.034931 3.7773e-06 3
0.204297 0.165783 0.16037 0.978422 0.557937 0.034931 4.1193e-06 3
0.223774 0.156914 0.169595 0.978422 0.557937 0.034931 3.49228e-07 3
0.221262 0.164673 0.163722 0.978422 0.557937 0.034931 1.37171e-05 3
0.204495 0.167253 0.169177 0.978422 0.557937 0.034931 2.32353e-07 3
0.213022 0.167247 0.161762 0.978422 0.557937 0.034931 6.07494e-06 3
0.213962 0.167534 0.156606 0.978422 0.557937 0.034931 1.20335e-05 3
0.227978 0.161577 0.167535 0.978422 0.557937 0.034931 1.53919e-06 3
0.202639 0.16837 0.16792 0.978422 0.557937 0.034931 7.48137e-07 3
0.224871 0.166477 0.166549 0.978422 0.557937 0.034931 2.10168e-06 3
0.230688 0.165573 0.169104 0.978422 0.557937 0.034931 1.68278e-07 3
0.203917 0.165318 0.161846 0.978422 0.557937 0.034931 6.63414e-06 3
0.230845 0.166273 0.166811 0.978422 0.557937 0.034931 2.02349e-06 3
0.218781 0.159063 0.166448 0.978422 0.557937 0.034931 7.4589e-06 3
0.222456 0.165284 0.16933 0.978422 0.557937 0.034931 3.59628e-07 3
0.227856 0.165839 0.168916 0.978422 0.557937 0.034931 5.68966e-08 3
0.226902 0.160996 0.167461 0.978422 0.557937 0.034931 1.38033e-06 3
0.203571 0.166032 0.156826 0.978422 0.557937 0.034931 2.82838e-06 3
0.206869 0.168438 0.15766 0.978422 0.557937 0.034931 2.2686e-06 3
0.216414 0.164766 0.169561 0.978422 0.557937 0.034931 7.34526e-07 3
0.230731 0.163061 0.167965 0.978422 0.557937 0.034931 1.65755e-06 3
0.208387 0.156638 0.16643 0.978422 0.557937 0.034931 7.92684e-06 3
0.217983 0.166644 0.161426 0.978422 0.557937 0.034931 8.81219e-06 3
0.226318 0.164722 0.169339 0.978422 0.557937 0.034931 1.33662e-07 3
0.206178 0.15268 0.148452 0.978422 0.557937 0.034931 6.98916e-06 3
0.201569 0.164115 0.147114 0.978422 0.557937 0.034931 9.64855e-06 3
0.205491 0.166728 0.145881 0.978422 0.557937 0.034931 2.52032e-06 3
0.20718 0.163868 0.146329 0.978422 0.557937 0.034931 3.97895e-07 3
0.206963 0.165261 0.149843 0.978422 0.557937 0.034931 1.38361e-05 3
0.218377 0.155247 0.142243 0.978422 0.557937 0.034931 2.71292e-06 3
0.224459 0.153173 0.144186 0.978422 0.557937 0.034931 2.04606e-06 3
0.216508 0.164403 0.142569 0.978422 0.557937 0.034931 6.31974e-07 3
0.227305 0.157994 0.149118 0.978422 0.557937 0.034931 2.96102e-05 3
0.209508 0.155761 0.146448 0.978422 0.557937 0.034931 7.37467e-06 3
0.222894 0.162059 0.148361 0.978422 0.557937 0.034931 1.78497e-05 3
0.216 0.152348 0.148993 0.978422 0.557937 0.034931 4.43609e-06 3
0.22032 0.160117 0.143553 0.978422 0.557937 0.034931 3.75526e-06 3
0.210504 0.160692 0.145094 0.978422 0.557937 0.034931 1.24927e-05 3
0.212945 0.165584 0.147729 0.978422 0.557937 0.034931 1.31274e-05 3
0.20392 0.162929 0.15288 0.978422 0.557937 0.034931 2.69738e-05 3
0.207928 0.159867 0.14514 0.978422 0.557937 0.034931 8.36194e-06 3
0.217296 0.160335 0.147512 0.978422 0.557937 0.034931 9.01754e-06 3
0.203814 0.169956 0.14692 0.978422 0.557937 0.034931 5.05257e-06 3
0.199428 0.162318 0.143601 0.978422 0.557937 0.034931 5.9554e-06 3
0.199892 0.167343 0.148153 0.978422 0.557937 0.034931 1.79597e-05 3
0.209756 0.164693 0.146283 0.978422 0.557937 0.034931 9.99936e-06 3
0.224598 0.165264 0.14748 0.978422 0.557937 0.034931 1.25778e-05 3
0.21048 0.16782 0.151242 0.978422 0.557937 0.034931 9.49685e-06 3
0.215585 0.156652 0.146153 0.978422 0.557937 0.034931 1.48444e-05 3
0.223236 0.148992 0.149262 0.978422 0.557937 0.034931 1.8923e-06 3
0.225366 0.160754 0.147092 0.978422 0.557937 0.034931 5.1926e-06 3
0.22039 0.163442 0.142622 0.978422 0.557937 0.034931 1.06331e-06 3
0.221396 0.156355 0.142159 0.978422 0.557937 0.034931 8.81047e-07 3
0.218287 0.164951 0.142693 0.978422 0.557937 0.034931 1.29402e-06 3
0.213877 0.159429 0.145097 0.978422 0.557937 0.034931 6.24634e-06 3
0.213136 0.165667 0.142566 0.978422 0.557937 0.034931 1.26395e-06 3
0.222678 0.164291 0.142796 0.978422 0.557937 0.034931 1.72535e-06 3
0.215588 0.163112 0.146456 0.978422 0.557937 0.034931 6.80924e-06 3
0.21987 0.162277 0.15232 0.978422 0.557937 0.034931 4.15115e-05 3
0.213792 0.153809 0.147459 0.978422 0.557937 0.034931 1.0233e-05 3
0.208456 0.151568 0.152783 0.978422 0.557937 0.034931 1.87448e-05 3
0.211472 0.16705 0.143767 0.978422 0.557937 0.034931 7.4036e-07 3
0.200944 0.16013 0.151874 0.978422 0.557937 0.034931 1.87265e-06 3
0.201 0.159429 0.151607 0.978422 0.557937 0.034931 4.86562e-06 3
0.185735 0.154219 0.145534 0.978422 0.557937 0.034931 6.93991e-06 3
0.181111 0.149759 0.14859 0.978422 0.557937 0.034931 5.43091e-06 3
0.186571 0.164703 0.147439 0.978422 0.557937 0.034931 1.0112e-05 3
0.198588 0.159562 0.143657 0.978422 0.557937 0.034931 4.5206e-06 3
0.184251 0.156234 0.143877 0.978422 0.557937 0.034931 4.46983e-06 3
0.188302 0.156185 0.147499 0.978422 0.557937 0.034931 9.85261e-06 3
0.19063 0.161158 0.143621 0.978422 0.557937 0.034931 1.21224e-05 3
0.207022 0.155143 0.147025 0.978422 0.557937 0.034931 1.18046e-05 3
0.190066 0.165632 0.145182 0.978422 0.557937 0.034931 1.33624e-05 3
0.187135 0.160228 0.145878 0.978422 0.557937 0.034931 1.00337e-05 3
0.184187 0.15482 0.141625 0.978422 0.557937 0.034931 4.76089e-07 3
0.194218 0.155665 0.147423 0.978422 0.557937 0.034931 6.40423e-06 3
0.183414 0.155187 0.149014 0.978422 0.557937 0.034931 2.97631e-06 3
0.203184 0.157424 0.149762 0.978422 0.557937 0.034931 1.56812e-05 3
0.191254 0.168599 0.14376 0.978422 0.557937 0.034931 1.84652e-06 3
0.199937 0.156555 0.144319 0.978422 0.557937 0.034931 1.47546e-06 3
0.207027 0.153817 0.143149 0.978422 0.557937 0.034931 2.11225e-06 3
0.198519 0.157485 0.148308 0.978422 0.557937 0.034931 7.62841e-06 3
0.204607 0.155167 0.141897 0.978422 0.557937 0.034931 9.64995e-07 3
0.196239 0.15294 0.14639 0.978422 0.557937 0.034931 4.13871e-06 3
0.18193 0.156201 0.143866 0.978422 0.557937 0.034931 2.18502e-07 3
0.196669 0.155509 0.144291 0.978422 0.557937 0.034931 4.23689e-06 3
0.19532 0.158516 0.14363 0.978422 0.557937 0.034931 1.01564e-05 3
0.196642 0.154248 0.148879 0.978422 0.557937 0.034931 4.77277e-07 3
0.190864 0.154918 0.148427 0.978422 0.557937 0.034931 1.76553e-06 3
0.192885 0.152193 0.147393 0.978422 0.557937 0.034931 9.60054e-06 3
0.18752 0.153015 0.153663 0.978422 0.557937 0.034931 5.27335e-06 3
0.191048 0.159517 0.155995 0.978422 0.557937 0.034931 1.10016e-07 3
0.220187 0.157998 0.162866 0.978422 0.557937 0.034931 1.06873e-05 3
0.186056 0.160158 0.154252 0.978422 0.557937 0.034931 1.022e-06 3
0.193352 0.159877 0.154994 0.978422 0.557937 0.034931 1.52375e-07 3
0.190934 0.157838 0.156021 0.978422 0.557937 0.034931 8.09866e-08 3
0.195157 0.15623 0.163632 0.978422 0.557937 0.034931 3.42783e-06 3
0.193243 0.159966 0.157488 0.978422 0.557937 0.034931 2.29625e-07 3
0.195013 0.156811 0.160094 0.978422 0.557937 0.034931 1.38392e-06 3
0.193126 0.155381 0.156521 0.978422 0.557937 0.034931 1.32166e-06 3
0.191778 0.156361 0.17012 0.978422 0.557937 0.034931 6.15817e-06 3
0.197676 0.155022 0.149735 0.978422 0.557937 0.034931 3.20112e-06 3
0.189669 0.158761 0.158555 0.978422 0.557937 0.034931 1.60347e-07 3
0.189872 0.157365 0.157375 0.978422 0.557937 0.034931 3.71358e-07 3
0.194002 0.15772 0.167014 0.978422 0.557937 0.034931 1.86303e-05 3
0.193873 0.153735 0.1599 0.978422 0.557937 0.034931 3.56879e-06 3
0.20476 0.151372 0.154469 0.978422 0.557937 0.034931 1.30684e-05 3
0.187824 0.159705 0.155765 0.978422 0.557937 0.034931 2.24633e-07 3
0.18827 0.160088 0.157464 0.978422 0.557937 0.034931 9.30705e-08 3
0.194479 0.159344 0.157165 0.978422 0.557937 0.034931 2.06832e-07 3
0.187594 0.160524 0.153084 0.978422 0.557937 0.034931 1.17828e-06 3
0.194463 0.159725 0.155546 0.978422 0.557937 0.034931 4.30568e-07 3
0.191545 0.156248 0.160885 0.978422 0.557937 0.034931 1.88073e-06 3
0.194233 0.16084 0.164759 0.978422 0.557937 0.034931 5.3576e-06 3
0.196469 0.152935 0.152746 0.978422 0.557937 0.034931 3.47818e-06 3
0.191847 0.157817 0.156157 0.978422 0.557937 0.034931 4.43588e-08 3
0.195388 0.15935 0.161377 0.978422 0.557937 0.034931 1.69728e-06 3
0.207293 0.154479 0.160495 0.978422 0.557937 0.034931 1.28813e-05 3
0.188466 0.160233 0.156485 0.978422 0.557937 0.034931 2.20564e-07 3
0.192068 0.159272 0.156819 0.978422 0.557937 0.034931 4.45082e-08 3
0.191962 0.159226 0.157603 0.978422 0.557937 0.034931 2.45446e-08 3
0.191644 0.159214 0.157337 0.978422 0.557937 0.034931 3.32308e-08 3
0.187612 0.159613 0.157333 0.978422 0.557937 0.034931 1.4409e-07 3
0.188655 0.157326 0.156461 0.978422 0.557937 0.034931 5.03861e-07 3
0.185334 0.158812 0.158889 0.978422 0.557937 0.034931 2.44658e-07 3
0.218114 0.151589 0.160171 0.978422 0.557937 0.034931 1.51728e-06 3
0.184039 0.160013 0.154522 0.978422 0.557937 0.034931 9.02347e-07 3
0.192385 0.159285 0.157084 0.978422 0.557937 0.034931 1.15702e-08 3
0.18929 0.157351 0.156992 0.978422 0.557937 0.034931 2.22717e-07 3
0.188278 0.148901 0.162364 0.978422 0.557937 0.034931 3.83307e-07 3
0.193622 0.158663 0.156761 0.978422 0.557937 0.034931 1.51597e-08 3
0.189739 0.159961 0.15681 0.978422 0.557937 0.034931 1.4959e-07 3
0.189082 0.15929 0.158796 0.978422 0.557937 0.034931 1.41912e-07 3
0.183503 0.155821 0.157782 0.978422 0.557937 0.034931 1.78385e-06 3
0.185122 0.159707 0.1574 0.978422 0.557937 0.034931 3.57955e-07 3
0.189542 0.159815 0.157789 0.978422 0.557937 0.034931 7.93193e-08 3
0.186978 0.159588 0.156801 0.978422 0.557937 0.034931 1.95082e-07 3
0.19305 0.160079 0.156854 0.978422 0.557937 0.034931 9.48658e-08 3
0.190731 0.159234 0.157201 0.978422 0.557937 0.034931 6.067e-08 3
0.190129 0.159286 0.157548 0.978422 0.557937 0.034931 8.9623e-08 3
0.19135 0.159911 0.154643 0.978422 0.557937 0.034931 2.54697e-07 3
0.19039 0.157738 0.164267 0.978422 0.557937 0.034931 1.06058e-05 3
0.222623 0.148806 0.162117 0.978422 0.557937 0.034931 1.30442e-06 3
0.187185 0.159235 0.158913 0.978422 0.557937 0.034931 1.33337e-07 3
0.190588 0.158721 0.158474 0.978422 0.557937 0.034931 8.78267e-08 3
0.187999 0.157298 0.150709 0.978422 0.557937 0.034931 3.94869e-06 3
0.191586 0.15325 0.160634 0.978422 0.557937 0.034931 5.80672e-06 3
0.196337 0.156308 0.163576 0.978422 0.557937 0.034931 1.84355e-06 3
0.223727 0.15024 0.163727 0.978422 0.557937 0.034931 3.32415e-06 3
0.196731 0.161803 0.167803 0.978422 0.557937 0.034931 1.40352e-05 3
0.215744 0.153819 0.164507 0.978422 0.557937 0.034931 4.58564e-06 3
0.191869 0.159405 0.156403 0.978422 0.557937 0.034931 6.02593e-08 3
0.1872 0.158208 0.157538 0.978422 0.557937 0.034931 1.52747e-07 3
0.202535 0.160633 0.164257 0.978422 0.557937 0.034931 1.63462e-05 3
0.184173 0.1583 0.157371 0.978422 0.557937 0.034931 4.147e-07 3
0.215765 0.152572 0.16311 0.978422 0.557937 0.034931 3.80521e-06 3
0.203674 0.153677 0.157039 0.978422 0.557937 0.034931 1.35291e-05 3
0.200839 0.152872 0.164176 0.978422 0.557937 0.034931 2.13433e-05 3
0.183865 0.15227 0.150841 0.978422 0.557937 0.034931 6.26511e-06 3
0.213292 0.151925 0.161924 0.978422 0.557937 0.034931 8.39455e-06 3
0.220319 0.156646 0.159507 0.978422 0.557937 0.034931 2.99369e-05 3
0.197256 0.156269 0.163495 0.978422 0.557937 0.034931 2.74087e-06 3
0.204601 0.151196 0.166582 0.978422 0.557937 0.034931 3.54997e-06 3
0.18783 0.158775 0.158694 0.978422 0.557937 0.034931 1.55459e-07 3
0.187834 0.158233 0.15807 0.978422 0.557937 0.034931 1.12821e-07 3
0.204888 0.153616 0.16406 0.978422 0.557937 0.034931 6.77827e-06 3
0.190333 0.159405 0.156275 0.978422 0.557937 0.034931 1.62519e-07 3
0.215306 0.156375 0.165681 0.978422 0.557937 0.034931 8.15256e-06 3
0.201274 0.159048 0.16089 0.978422 0.557937 0.034931 6.24361e-06 3
0.189135 0.15084 0.163057 0.978422 0.557937 0.034931 8.96086e-06 3
0.205091 0.156672 0.163028 0.978422 0.557937 0.034931 1.31695e-05 3
0.190628 0.155723 0.158223 0.978422 0.557937 0.034931 2.69475e-07 3
0.21348 0.151215 0.154819 0.978422 0.557937 0.034931 1.68727e-05 3
0.185344 0.158327 0.158137 0.978422 0.557937 0.034931 2.80275e-07 3
0.194934 0.151218 0.158768 0.978422 0.557937 0.034931 6.68069e-06 3
0.225497 0.153924 0.152452 0.978422 0.557937 0.034931 2.35801e-05 3
0.199657 0.150898 0.159644 0.978422 0.557937 0.034931 2.01335e-05 3
0.183952 0.15968 0.156634 0.978422 0.557937 0.034931 5.29637e-07 3
0.199015 0.159971 0.155872 0.978422 0.557937 0.034931 2.91409e-06 3
0.184712 0.155716 0.157086 0.978422 0.557937 0.034931 1.80621e-06 3
0.190332 0.15789 0.156368 0.978422 0.557937 0.034931 1.19635e-07 3
0.223691 0.155168 0.162628 0.978422 0.557937 0.034931 6.72906e-06 3
0.187608 0.160155 0.157957 0.978422 0.557937 0.034931 1.07708e-07 3
0.22593 0.154794 0.162358 0.978422 0.557937 0.034931 1.83291e-05 3
0.195393 0.155833 0.15226 0.978422 0.557937 0.034931 4.09247e-06 3
0.202341 0.154961 0.151189 0.978422 0.557937 0.034931 8.81493e-06 3
0.201233 0.154068 0.15352 0.978422 0.557937 0.034931 9.00532e-06 3
0.184444 0.156787 0.152147 0.978422 0.557937 0.034931 2.86853e-06 3
0.192374 0.158402 0.15387 0.978422 0.557937 0.034931 1.98767e-07 3
0.205492 0.161544 0.16731 0.978422 0.557937 0.034931 7.46984e-06 3
0.215641 0.150943 0.158985 0.978422 0.557937 0.034931 9.62049e-06 3
0.193486 0.15825 0.154422 0.978422 0.557937 0.034931 5.61659e-07 3
0.187338 0.154861 0.156775 0.978422 0.557937 0.034931 2.96858e-06 3
0.186278 0.150835 0.160577 0.978422 0.557937 0.034931 5.77267e-06 3
0.215895 0.151483 0.151446 0.978422 0.557937 0.034931 7.31448e-06 3
0.218273 0.151971 0.151196 0.978422 0.557937 0.034931 2.82026e-06 3
0.186461 0.156931 0.151877 0.978422 0.557937 0.034931 3.24889e-06 3
0.184895 0.153869 0.153974 0.978422 0.557937 0.034931 4.76837e-06 3
0.220534 0.156903 0.154385 0.978422 0.557937 0.034931 3.11622e-05 3
0.191882 0.155434 0.156631 0.978422 0.557937 0.034931 4.67726e-07 3
0.19056 0.156031 0.151637 0.978422 0.557937 0.034931 1.69007e-06 3
0.188615 0.152431 0.157216 0.978422 0.557937 0.034931 3.53672e-06 3
0.193507 0.157849 0.155823 0.978422 0.557937 0.034931 1.69632e-07 3
0.191553 0.158515 0.153463 0.978422 0.557937 0.034931 3.62892e-07 3
0.193409 0.157776 0.156312 0.978422 0.557937 0.034931 9.25815e-08 3
0.194187 0.152864 0.155389 0.978422 0.557937 0.034931 2.92473e-06 3
0.190537 0.158009 0.155095 0.978422 0.557937 0.034931 2.19201e-07 3
0.191252 0.158121 0.154815 0.978422 0.557937 0.034931 1.48387e-07 3
0.192271 0.157876 0.155639 0.978422 0.557937 0.034931 6.00314e-08 3
0.192073 0.158009 0.155223 0.978422 0.557937 0.034931 8.1276e-08 3
0.1893 0.158036 0.15491 0.978422 0.557937 0.034931 2.40126e-07 3
0.192083 0.150532 0.153011 0.978422 0.557937 0.034931 4.40154e-06 3
0.189022 0.155664 0.152805 0.978422 0.557937 0.034931 1.43931e-06 3
0.190514 0.15491 0.157284 0.978422 0.557937 0.034931 1.355e-06 3
0.192165 0.15783 0.156423 0.978422 0.557937 0.034931 3.27639e-08 3
0.194365 0.150603 0.150369 0.978422 0.557937 0.034931 5.09533e-06 3
0.188167 0.156379 0.167373 0.978422 0.557937 0.034931 1.49538e-05 3
0.187063 0.151482 0.1659 0.978422 0.557937 0.034931 3.72787e-06 3
0.186974 0.153115 0.166825 0.978422 0.557937 0.034931 5.04178e-06 3
0.188797 0.150585 0.154104 0.978422 0.557937 0.034931 4.71414e-06 3
0.159413 0.163978 0.166161 0.978422 0.557937 0.034931 2.26933e-05 3
0.182938 0.153164 0.162303 0.978422 0.557937 0.034931 7.03627e-06 3
0.164646 0.155103 0.161378 0.978422 0.557937 0.034931 3.01088e-06 3
0.174097 0.155397 0.170598 0.978422 0.557937 0.034931 2.28248e-07 3
0.152415 0.165513 0.165579 0.978422 0.557937 0.034931 1.0499e-05 3
0.183504 0.160972 0.163307 0.978422 0.557937 0.034931 2.01183e-06 3
0.165551 0.158595 0.161592 0.978422 0.557937 0.034931 8.33019e-07 3
0.162518 0.152074 0.161968 0.978422 0.557937 0.034931 1.5371e-05 3
0.173789 0.16239 0.166133 0.978422 0.557937 0.034931 4.22569e-06 3
0.167242 0.159422 0.164778 0.978422 0.557937 0.034931 3.10053e-06 3
0.170029 0.163546 0.162943 0.978422 0.557937 0.034931 4.9922e-06 3
0.160855 0.161428 0.16475 0.978422 0.557937 0.034931 1.37025e-06 3
0.14104 0.161995 0.166318 0.978422 0.557937 0.034931 2.03943e-06 3
0.1691 0.159191 0.164981 0.978422 0.557937 0.034931 3.10053e-06 3
0.169195 0.155937 0.164138 0.978422 0.557937 0.034931 2.9967e-06 3
0.171227 0.158739 0.167931 0.978422 0.557937 0.034931 4.90994e-06 3
0.184895 0.160028 0.163603 0.978422 0.557937 0.034931 5.26624e-06 3
0.179211 0.159423 0.160298 0.978422 0.557937 0.034931 4.19845e-07 3
0.162374 0.166007 0.169168 0.978422 0.557937 0.034931 8.70004e-06 3
0.154456 0.158062 0.164229 0.978422 0.557937 0.034931 7.28879e-06 3
0.167885 0.162976 0.164657 0.978422 0.557937 0.034931 2.89757e-06 3
0.155832 0.163782 0.162994 0.978422 0.557937 0.034931 4.9598e-06 3
0.168376 0.151566 0.161639 0.978422 0.557937 0.034931 3.77661e-06 3
0.180029 0.153021 0.167595 0.978422 0.557937 0.034931 1.64326e-06 3
0.182091 0.158578 0.160523 0.978422 0.557937 0.034931 5.17393e-07 3
0.173334 0.153902 0.168054 0.978422 0.557937 0.034931 3.28653e-06 3
0.176918 0.162825 0.161205 0.978422 0.557937 0.034931 4.43193e-06 3
0.17357 0.159596 0.166337 0.978422 0.557937 0.034931 1.98419e-06 3
0.182626 0.155694 0.160126 0.978422 0.557937 0.034931 3.77921e-06 3
0.151079 0.15691 0.163492 0.978422 0.557937 0.034931 1.75372e-05 3
0.167937 0.153017 0.164186 0.978422 0.557937 0.034931 4.30545e-06 3
0.163084 0.158769 0.161247 0.978422 0.557937 0.034931 1.11018e-06 3
0.157704 0.156421 0.167459 0.978422 0.557937 0.034931 3.23631e-05 3
0.143045 0.163534 0.166109 0.978422 0.557937 0.034931 5.84903e-06 3
0.152038 0.16031 0.160642 0.978422 0.557937 0.034931 3.80731e-06 3
0.164189 0.149962 0.166731 0.978422 0.557937 0.034931 7.93186e-06 3
0.164045 0.158254 0.161127 0.978422 0.557937 0.034931 5.54312e-07 3
0.14967 0.162744 0.163815 0.978422 0.557937 0.034931 9.16467e-06 3
0.183918 0.158752 0.16665 0.978422 0.557937 0.034931 8.18513e-06 3
0.153408 0.15736 0.163641 0.978422 0.557937 0.034931 2.47043e-06 3
0.173744 0.16197 0.169039 0.978422 0.557937 0.034931 2.69789e-06 3
0.151366 0.164928 0.162025 0.978422 0.557937 0.034931 4.48035e-06 3
0.145846 0.152723 0.164368 0.978422 0.557937 0.034931 1.98919e-05 3
0.160523 0.159591 0.164812 0.978422 0.557937 0.034931 2.54102e-06 3
0.160277 0.149361 0.164978 0.978422 0.557937 0.034931 4.75931e-06 3
0.166152 0.155444 0.161843 0.978422 0.557937 0.034931 4.37238e-06 3
0.146374 0.162843 0.1669 0.978422 0.557937 0.034931 6.8703e-06 3
0.178216 0.162565 0.169173 0.978422 0.557937 0.034931 1.05157e-05 3
0.140826 0.155389 0.161901 0.978422 0.557937 0.034931 2.43713e-05 3
0.159099 0.152055 0.164363 0.978422 0.557937 0.034931 1.58637e-05 3
0.182725 0.155488 0.166102 0.978422 0.557937 0.034931 3.20953e-06 3
0.163174 0.159902 0.167878 0.978422 0.557937 0.034931 1.72266e-05 3
0.180689 0.166413 0.166749 0.978422 0.557937 0.034931 2.28654e-05 3
0.160266 0.155599 0.163894 0.978422 0.557937 0.034931 7.53049e-06 3
0.142617 0.160305 0.166783 0.978422 0.557937 0.034931 2.45665e-06 3
0.165513 0.165641 0.165967 0.978422 0.557937 0.034931 8.82831e-06 3
0.178785 0.151295 0.162414 0.978422 0.557937 0.034931 1.16324e-05 3
0.182815 0.153855 0.165177 0.978422 0.557937 0.034931 2.54161e-06 3
0.148167 0.156864 0.167057 0.978422 0.557937 0.034931 1.38325e-05 3
0.14583 0.160363 0.167293 0.978422 0.557937 0.034931 4.1379e-06 3
0.183291 0.158957 0.160579 0.978422 0.557937 0.034931 9.10854e-07 3
0.178193 0.155576 0.169018 0.978422 0.557937 0.034931 9.88654e-07 3
0.178054 0.156836 0.169281 0.978422 0.557937 0.034931 1.21715e-06 3
0.180993 0.159178 0.169332 0.978422 0.557937 0.034931 5.04473e-06 3
0.179939 0.154655 0.168521 0.978422 0.557937 0.034931 2.17624e-06 3
0.139934 0.159473 0.164081 0.978422 0.557937 0.034931 7.27165e-06 3
0.173615 0.160016 0.16343 0.978422 0.557937 0.034931 1.66038e-06 3
0.174384 0.164907 0.164157 0.978422 0.557937 0.034931 3.54034e-06 3
0.184144 0.159164 0.159107 0.978422 0.557937 0.034931 1.70177e-07 3
0.174574 0.156162 0.168985 0.978422 0.557937 0.034931 2.1891e-06 3
0.183247 0.164221 0.163917 0.978422 0.557937 0.034931 8.23783e-06 3
0.173238 0.157759 0.1664 0.978422 0.557937 0.034931 2.60118e-06 3
0.17644 0.156253 0.169005 0.978422 0.557937 0.034931 2.32294e-07 3
0.175429 0.162726 0.161276 0.978422 0.557937 0.034931 1.65444e-07 3
0.177702 0.159734 0.160362 0.978422 0.557937 0.034931 8.76888e-08 3
0.171998 0.155498 0.165469 0.978422 0.557937 0.034931 6.75343e-06 3
0.174992 0.159305 0.16056 0.978422 0.557937 0.034931 1.59217e-07 3
0.17772 0.159187 0.160318 0.978422 0.557937 0.034931 1.90917e-07 3
0.157621 0.156164 0.157899 0.978422 0.557937 0.034931 1.44223e-06 3
0.159815 0.156284 0.154187 0.978422 0.557937 0.034931 3.99264e-07 3
0.158277 0.156108 0.153297 0.978422 0.557937 0.034931 6.23842e-07 3
0.157176 0.156093 0.152697 0.978422 0.557937 0.034931 2.76086e-06 3
0.155618 0.15711 0.160338 0.978422 0.557937 0.034931 2.42145e-06 3
0.149485 0.149681 0.158641 0.978422 0.557937 0.034931 6.80638e-06 3
0.15678 0.153581 0.161235 0.978422 0.557937 0.034931 2.19333e-06 3
0.146167 0.14934 0.156598 0.978422 0.557937 0.034931 1.64132e-05 3
0.157571 0.159076 0.153093 0.978422 0.557937 0.034931 1.40534e-07 3
0.153995 0.152108 0.147022 0.978422 0.557937 0.034931 5.6743e-06 3
0.148612 0.152862 0.154906 0.978422 0.557937 0.034931 8.64557e-06 3
0.15492 0.15615 0.153229 0.978422 0.557937 0.034931 2.17717e-06 3
0.157384 0.152813 0.155368 0.978422 0.557937 0.034931 3.19133e-06 3
0.158827 0.15945 0.156024 0.978422 0.557937 0.034931 5.78882e-07 3
0.152049 0.156046 0.155892 0.978422 0.557937 0.034931 2.53386e-06 3
0.148639 0.149926 0.16186 0.978422 0.557937 0.034931 1.694e-05 3
0.152121 0.153116 0.160658 0.978422 0.557937 0.034931 8.87727e-06 3
0.15538 0.153451 0.160909 0.978422 0.557937 0.034931 5.46303e-06 3
0.159962 0.150249 0.156309 0.978422 0.557937 0.034931 6.08859e-06 3
0.159157 0.150069 0.158369 0.978422 0.557937 0.034931 4.48879e-06 3
0.159666 0.156406 0.152566 0.978422 0.557937 0.034931 2.07223e-07 3
0.149616 0.149734 0.151623 0.978422 0.557937 0.034931 1.89252e-05 3
0.138233 0.149258 0.147271 0.978422 0.557937 0.034931 2.30641e-06 3
0.158459 0.155961 0.154644 0.978422 0.557937 0.034931 2.29871e-06 3
0.153739 0.150254 0.151605 0.978422 0.557937 0.034931 7.07196e-06 3
0.159803 0.156452 0.15313 0.978422 0.557937 0.034931 1.49946e-07 3
0.153713 0.153387 0.150282 0.978422 0.557937 0.034931 6.28028e-06 3
0.154946 0.153016 0.154552 0.978422 0.557937 0.034931 2.64361e-06 3
0.140301 0.152251 0.15735 0.978422 0.557937 0.034931 1.73939e-05 3
0.156579 0.152633 0.157428 0.978422 0.557937 0.034931 2.42819e-06 3
0.146075 0.150175 0.148917 0.978422 0.557937 0.034931 1.02908e-05 3
0.152967 0.15287 0.157439 0.978422 0.557937 0.034931 3.63534e-06 3
0.142207 0.150636 0.167049 0.978422 0.557937 0.034931 1.2361e-05 3
0.135439 0.148955 0.156514 0.978422 0.557937 0.034931 1.55605e-05 3
0.145071 0.153304 0.1522 0.978422 0.557937 0.034931 5.73126e-06 3
0.133028 0.150418 0.160518 0.978422 0.557937 0.034931 1.83307e-05 3
0.135908 0.151729 0.150729 0.978422 0.557937 0.034931 1.71191e-05 3
0.160196 0.156355 0.15221 0.978422 0.557937 0.034931 1.94785e-07 3
0.138691 0.163663 0.153626 0.978422 0.557937 0.034931 1.35647e-05 3
0.150581 0.165418 0.152693 0.978422 0.557937 0.034931 1.02934e-05 3
0.15386 0.163434 0.148294 0.978422 0.557937 0.034931 4.18161e-06 3
0.148364 0.16271 0.155232 0.978422 0.557937 0.034931 4.41175e-06 3
0.146388 0.167835 0.146482 0.978422 0.557937 0.034931 2.45252e-06 3
0.154352 0.159629 0.154718 0.978422 0.557937 0.034931 7.55401e-07 3
