ply
format ascii 1.0
comment Created by Open3D
element vertex 806
property float32 x
property float32 y
property float32 z
property float32 red
property float32 green
property float32 blue
property uint8 segmentation
end_header
-0.119392 -0.002 -0.000825645 0.647059 0.619608 0.588235 1
0.131662 0.00825102 -0.0358524 0.647059 0.619608 0.588235 1
0.0789066 -0.00442624 -0.0127225 0.647059 0.619608 0.588235 1
-0.0284637 -0.002 0.0007805 0.647059 0.619608 0.588235 1
0.0630579 -0.00337234 0.0116686 0.647059 0.619608 0.588235 1
0.0493009 -0.00341481 0.00795534 0.647059 0.619608 0.588235 1
0.106055 -0.01 0.0288566 0.647059 0.619608 0.588235 1
-0.121098 -0.00202148 -0.00475674 0.647059 0.619608 0.588235 1
-0.00839743 0.002 -0.00600753 0.647059 0.619608 0.588235 1
0.122933 0.00666478 -0.0390183 0.647059 0.619608 0.588235 1
0.11017 -0.00833985 0.0304255 0.647059 0.619608 0.588235 1
-0.146314 0.00321533 -0.000123798 0.647059 0.619608 0.588235 1
0.0897756 0.0094854 0.00976657 0.647059 0.619608 0.588235 0
-0.0894584 0.002 -0.00753838 0.647059 0.619608 0.588235 1
-0.11628 0.00383942 0.0114328 0.647059 0.619608 0.588235 1
0.0895299 0.00688867 0.0150445 0.647059 0.619608 0.588235 1
-0.126483 -0.00342011 0.000356892 0.647059 0.619608 0.588235 1
0.081944 0.00476334 -0.0117613 0.647059 0.619608 0.588235 1
-0.0105671 -0.00285057 -0.0133476 0.647059 0.619608 0.588235 1
-0.0759429 0.002 -0.00150274 0.647059 0.619608 0.588235 1
-0.00337067 -0.00216771 -0.00781646 0.647059 0.619608 0.588235 1
0.0560745 -0.002 -0.000735258 0.647059 0.619608 0.588235 1
0.119643 0.01 0.0194852 0.647059 0.619608 0.588235 3
-0.012253 0.00201078 -0.00754916 0.647059 0.619608 0.588235 1
0.140249 0.00939026 -0.028718 0.647059 0.619608 0.588235 1
0.0743616 -0.00430588 -0.000580726 0.647059 0.619608 0.588235 1
-0.0362796 0.000387141 -0.014194 0.647059 0.619608 0.588235 1
0.0844602 -0.00175687 0.000262514 0.647059 0.619608 0.588235 0
0.0923378 -0.00936032 0.00716434 0.647059 0.619608 0.588235 0
-0.0294428 -0.00031474 0.0140815 0.647059 0.619608 0.588235 1
0.052462 0.002 0.0007805 0.647059 0.619608 0.588235 1
-0.0406989 0.002 0.000735258 0.647059 0.619608 0.588235 1
-0.0372433 0.00370295 -0.0128669 0.647059 0.619608 0.588235 1
0.125301 -0.00248236 -0.0126158 0.647059 0.619608 0.588235 1
-0.00832529 0.00127828 0.0137151 0.647059 0.619608 0.588235 1
-0.102188 0.00383036 0.0136656 0.647059 0.619608 0.588235 1
0.0160335 -0.00196611 0.013253 0.647059 0.619608 0.588235 1
0.0366707 1.59952e-05 -0.0129938 0.647059 0.619608 0.588235 1
0.123203 -0.01 -0.0284573 0.647059 0.619608 0.588235 1
0.115707 -0.01 0.00985691 0.647059 0.619608 0.588235 3
0.0839915 -0.00616207 0.0150219 0.647059 0.619608 0.588235 1
0.125066 -0.00896343 -0.0379431 0.647059 0.619608 0.588235 1
0.0834804 0.00180238 -0.0202833 0.647059 0.619608 0.588235 1
-0.0491542 -0.002 -0.00391623 0.647059 0.619608 0.588235 1
0.139172 -0.00125514 -0.0315653 0.647059 0.619608 0.588235 1
0.150142 0.00144198 -0.0156169 0.647059 0.619608 0.588235 1
0.0516063 0.000123798 -0.0127471 0.647059 0.619608 0.588235 1
0.00565927 -0.00378058 -0.00927372 0.647059 0.619608 0.588235 1
-0.0897535 -0.00398904 0.0116847 0.647059 0.619608 0.588235 1
-0.0966722 0.002 -0.000123798 0.647059 0.619608 0.588235 1
0.107004 0.00170776 -0.0376245 0.647059 0.619608 0.588235 1
0.0315692 0.000762001 -0.0130639 0.647059 0.619608 0.588235 1
-0.0964648 -0.002 -0.00574619 0.647059 0.619608 0.588235 1
-0.0724475 -0.00213596 0.00891818 0.647059 0.619608 0.588235 1
-0.0102139 -0.002 -0.00353838 0.647059 0.619608 0.588235 1
0.0711249 0.000557359 0.0136668 0.647059 0.619608 0.588235 1
0.118766 -0.00388423 0.0254705 0.647059 0.619608 0.588235 3
0.144171 -0.01 0.00778446 0.647059 0.619608 0.588235 3
-0.101487 -0.00335917 -0.0104076 0.647059 0.619608 0.588235 1
0.0951691 -0.0068943 0.0292357 0.647059 0.619608 0.588235 1
-0.00839743 0.00208164 0.0136392 0.647059 0.619608 0.588235 1
-0.110126 -0.004 -0.012251 0.647059 0.619608 0.588235 1
-0.121098 0.00164468 -0.0155849 0.647059 0.619608 0.588235 1
0.0379112 -0.002 -0.00217508 0.647059 0.619608 0.588235 1
0.140217 0.00999498 0.0148486 0.647059 0.619608 0.588235 3
0.0934464 0.00889682 -0.00616156 0.647059 0.619608 0.588235 0
-0.115014 0.0039637 0.0118709 0.647059 0.619608 0.588235 1
0.0524257 -0.00370372 0.00832223 0.647059 0.619608 0.588235 1
0.14805 0.00147497 -0.00696811 0.647059 0.619608 0.588235 1
0.137845 -0.01 -0.00953909 0.647059 0.619608 0.588235 1
0.0989192 -0.00666594 -0.0307238 0.647059 0.619608 0.588235 1
-0.0996469 0.00201426 -0.00903987 0.647059 0.619608 0.588235 1
0.0984707 0.00728342 -0.0201018 0.647059 0.619608 0.588235 1
0.0515312 0.00396889 -0.00912938 0.647059 0.619608 0.588235 1
0.138221 0.00887118 -0.0311858 0.647059 0.619608 0.588235 1
0.0871043 -0.00193412 -0.0232335 0.647059 0.619608 0.588235 1
0.0136656 -0.002 0.00261146 0.647059 0.619608 0.588235 1
-0.111927 -0.002 -0.00811208 0.647059 0.619608 0.588235 1
0.134576 0.00928475 0.0207784 0.647059 0.619608 0.588235 3
-0.151389 0.000463877 -0.00524413 0.647059 0.619608 0.588235 1
0.107116 0.00781646 0.0387813 0.647059 0.619608 0.588235 1
-0.0887693 0.00241033 -0.00949742 0.647059 0.619608 0.588235 1
0.0810898 -0.0039904 0.0181909 0.647059 0.619608 0.588235 1
0.0498539 0.002 -0.00166804 0.647059 0.619608 0.588235 1
-0.0842391 -0.002 -0.00399343 0.647059 0.619608 0.588235 1
0.10788 -0.01 0.00652465 0.647059 0.619608 0.588235 1
0.0701122 -0.00408033 -0.00196611 0.647059 0.619608 0.588235 1
-0.150752 -0.00261146 0.00626859 0.647059 0.619608 0.588235 1
-0.11591 0.002 -5.67728e-05 0.647059 0.619608 0.588235 1
-0.00349314 -0.002 -0.00388423 0.647059 0.619608 0.588235 1
-0.0840555 -0.00322218 -0.0142763 0.647059 0.619608 0.588235 1
0.106561 -0.00892109 -0.0276214 0.647059 0.619608 0.588235 1
0.102242 0.0087916 -0.0123763 0.647059 0.619608 0.588235 1
0.10857 -0.01 0.0120857 0.647059 0.619608 0.588235 1
0.144117 0.01 -0.00973458 0.647059 0.619608 0.588235 1
0.109673 -0.00976657 0.0324295 0.647059 0.619608 0.588235 1
0.15085 0.00829626 -0.00827364 0.647059 0.619608 0.588235 1
-0.148368 -0.00391623 0.00727217 0.647059 0.619608 0.588235 1
0.131944 0.00366416 0.0229919 0.647059 0.619608 0.588235 3
-0.122789 0.00154019 -0.0156169 0.647059 0.619608 0.588235 1
0.0727863 0.00406429 -0.0117167 0.647059 0.619608 0.588235 1
0.0508327 -0.00399318 0.00944187 0.647059 0.619608 0.588235 1
0.123595 -0.01 0.0170481 0.647059 0.619608 0.588235 3
-0.138383 -0.004 -0.0125247 0.647059 0.619608 0.588235 1
0.141851 0.01 0.00726474 0.647059 0.619608 0.588235 3
0.149546 0.00994356 -0.0076308 0.647059 0.619608 0.588235 1
0.137748 -0.00707301 0.00445261 0.647059 0.619608 0.588235 3
-0.140776 -0.004 0.0109303 0.647059 0.619608 0.588235 1
-0.130835 0.000970348 0.00708167 0.647059 0.619608 0.588235 1
-0.0118598 0.00386638 -0.00976657 0.647059 0.619608 0.588235 1
0.10985 -0.00415944 0.0317156 0.647059 0.619608 0.588235 1
0.031926 -0.00370148 0.0117167 0.647059 0.619608 0.588235 1
-0.031919 0.002 0.00743097 0.647059 0.619608 0.588235 1
0.0700131 0.00391623 0.0120004 0.647059 0.619608 0.588235 1
0.00361618 0.00150274 -0.0135098 0.647059 0.619608 0.588235 1
-0.0703632 0.000942747 -0.0147548 0.647059 0.619608 0.588235 1
-0.0125116 -0.00381625 0.00965948 0.647059 0.619608 0.588235 1
0.0925164 -0.00699956 1.59952e-05 0.647059 0.619608 0.588235 0
-0.0678685 -0.002 0.00349314 0.647059 0.619608 0.588235 1
0.114082 0.01 -0.00583435 0.647059 0.619608 0.588235 1
0.0876295 -0.00674828 -0.0039496 0.647059 0.619608 0.588235 0
0.125954 -0.00973458 -0.0367831 0.647059 0.619608 0.588235 1
0.112927 0.01 -0.0218758 0.647059 0.619608 0.588235 1
-0.0869614 0.002 0.00749314 0.647059 0.619608 0.588235 1
-0.0797118 -0.004 -0.0122963 0.647059 0.619608 0.588235 1
0.131142 -0.01 -0.0307822 0.647059 0.619608 0.588235 1
0.131464 -0.01 -0.0263635 0.647059 0.619608 0.588235 1
0.135718 0.00102448 -0.0100297 0.647059 0.619608 0.588235 1
0.0878331 0.00807955 -0.00196611 0.647059 0.619608 0.588235 0
0.0455867 -0.004 -0.00976677 0.647059 0.619608 0.588235 1
0.141014 -0.00489801 0.0171424 0.647059 0.619608 0.588235 3
-0.0433908 0.002 -0.00388423 0.647059 0.619608 0.588235 1
0.146286 -0.00690343 0.0065723 0.647059 0.619608 0.588235 3
0.00593743 -0.00225516 -0.0133451 0.647059 0.619608 0.588235 1
-0.0486699 0.004 -0.0116847 0.647059 0.619608 0.588235 1
0.0115096 0.00385526 0.0093484 0.647059 0.619608 0.588235 1
0.0103235 -0.002 -0.00293356 0.647059 0.619608 0.588235 1
0.124616 -0.01 -0.0195171 0.647059 0.619608 0.588235 1
0.112949 0.01 -0.0331096 0.647059 0.619608 0.588235 1
-0.151807 0.00296359 -0.00114371 0.647059 0.619608 0.588235 1
-0.0950487 -0.002 0.00349314 0.647059 0.619608 0.588235 1
0.143957 -0.00401302 0.0059943 0.647059 0.619608 0.588235 3
0.0934144 0.00624871 -0.0200155 0.647059 0.619608 0.588235 1
-0.0249673 -0.0039575 -0.011933 0.647059 0.619608 0.588235 1
0.0407933 0.00314094 -0.00781646 0.647059 0.619608 0.588235 1
-0.0372113 0.002 -1.59952e-05 0.647059 0.619608 0.588235 1
-0.039643 0.00283515 0.013844 0.647059 0.619608 0.588235 1
0.120498 -0.00494249 -0.0394361 0.647059 0.619608 0.588235 1
0.128123 -0.01 -0.0120857 0.647059 0.619608 0.588235 1
0.0657801 0.004 -0.00590215 0.647059 0.619608 0.588235 1
-0.00566218 0.00288168 -0.0132424 0.647059 0.619608 0.588235 1
0.143871 0.01 -0.0127805 0.647059 0.619608 0.588235 1
-0.0625628 -0.00398575 0.012282 0.647059 0.619608 0.588235 1
0.000257413 0.002 0.00629626 0.647059 0.619608 0.588235 1
-0.0966496 -0.002 -0.0029043 0.647059 0.619608 0.588235 1
-0.073185 -0.002 -0.000224961 0.647059 0.619608 0.588235 1
0.126716 0.01 -0.019429 0.647059 0.619608 0.588235 1
-0.00795954 -0.002 -0.00583435 0.647059 0.619608 0.588235 1
-0.0321562 0.002 -0.00184211 0.647059 0.619608 0.588235 1
0.100711 0.00847257 -0.01081 0.647059 0.619608 0.588235 1
-0.0809085 0.00395337 0.012882 0.647059 0.619608 0.588235 1
0.0481391 -0.002192 -0.00699587 0.647059 0.619608 0.588235 1
0.0840376 0.00210264 -0.0207392 0.647059 0.619608 0.588235 1
0.0621544 -0.004 -0.00953838 0.647059 0.619608 0.588235 1
0.00370916 0.00225918 0.00781646 0.647059 0.619608 0.588235 1
-0.138846 0.00196611 0.0156177 0.647059 0.619608 0.588235 1
-0.018973 0.00387117 0.0121674 0.647059 0.619608 0.588235 1
0.140217 -0.00778446 0.01751 0.647059 0.619608 0.588235 3
-0.0345973 -0.000658601 0.0141663 0.647059 0.619608 0.588235 1
0.0688232 -0.00401538 -0.0078284 0.647059 0.619608 0.588235 1
-0.0580393 0.000101177 0.014552 0.647059 0.619608 0.588235 1
-0.0866897 -0.00372838 -0.0136348 0.647059 0.619608 0.588235 1
-0.0899448 -0.002 0.00353838 0.647059 0.619608 0.588235 1
-0.14645 0.00337761 0.000597113 0.647059 0.619608 0.588235 1
0.13967 -0.00903085 0.017535 0.647059 0.619608 0.588235 3
0.140995 -0.00642794 -0.00871948 0.647059 0.619608 0.588235 1
-0.0686482 -0.002 0.00303399 0.647059 0.619608 0.588235 1
-0.0228389 -0.002 0.00473526 0.647059 0.619608 0.588235 1
0.150327 -0.00694008 -0.0136668 0.647059 0.619608 0.588235 1
0.0447849 -0.002 0.00289974 0.647059 0.619608 0.588235 1
0.1212 -0.01 0.0171265 0.647059 0.619608 0.588235 3
0.0977583 -0.00532061 0.0159556 0.647059 0.619608 0.588235 1
-0.0924901 -0.0037965 0.0135795 0.647059 0.619608 0.588235 1
0.12296 0.01 0.0117504 0.647059 0.619608 0.588235 3
-0.00150274 -0.00393294 -0.00986095 0.647059 0.619608 0.588235 1
-0.0442032 -0.002 -0.00197738 0.647059 0.619608 0.588235 1
-0.0762136 -0.00391623 0.0129475 0.647059 0.619608 0.588235 1
-0.0195979 -0.00228564 -0.0137613 0.647059 0.619608 0.588235 1
-0.0387341 -0.00246415 0.0140218 0.647059 0.619608 0.588235 1
-0.0725328 -0.002 0.000797104 0.647059 0.619608 0.588235 1
0.0953646 0.00720344 -0.0099387 0.647059 0.619608 0.588235 1
0.0790102 -0.00452482 0.00781646 0.647059 0.619608 0.588235 1
0.084955 0.00778446 0.00775703 0.647059 0.619608 0.588235 0
-0.122849 -0.00372574 -0.004238 0.647059 0.619608 0.588235 1
-0.103515 0.00383974 -0.0136668 0.647059 0.619608 0.588235 1
0.00246973 -0.00396915 0.0113941 0.647059 0.619608 0.588235 1
0.135035 -0.01 0.00932607 0.647059 0.619608 0.588235 3
0.096914 0.00964026 0.0206944 0.647059 0.619608 0.588235 1
0.0820642 -0.00482094 -0.00973458 0.647059 0.619608 0.588235 1
-0.152005 0.00196611 -0.00270596 0.647059 0.619608 0.588235 1
0.102633 -0.00923136 -0.00770492 0.647059 0.619608 0.588235 1
0.114529 0.01 -0.017535 0.647059 0.619608 0.588235 1
-0.109366 0.004 -0.0125247 0.647059 0.619608 0.588235 1
0.0739453 0.00435629 0.00388423 0.647059 0.619608 0.588235 1
-0.100786 -0.00221246 0.00950616 0.647059 0.619608 0.588235 1
-0.0212909 -0.00111124 0.0139359 0.647059 0.619608 0.588235 1
0.0173278 0.002 0.00388423 0.647059 0.619608 0.588235 1
-0.0207853 0.0037746 0.00970113 0.647059 0.619608 0.588235 1
-0.0586625 0.002 -0.00391623 0.647059 0.619608 0.588235 1
0.0172825 0.002 -0.00583435 0.647059 0.619608 0.588235 1
-0.0902335 0.002 -0.00476193 0.647059 0.619608 0.588235 1
0.141803 -0.000313723 0.0168836 0.647059 0.619608 0.588235 3
-0.113266 -0.002 1.59952e-05 0.647059 0.619608 0.588235 1
0.00912038 0.00387484 -0.0116847 0.647059 0.619608 0.588235 1
-0.0552588 0.002 -0.00607531 0.647059 0.619608 0.588235 1
0.0276938 -0.002 0.00609485 0.647059 0.619608 0.588235 1
-0.063555 -0.002 -0.0029043 0.647059 0.619608 0.588235 1
-0.000159081 -0.00235952 0.0134137 0.647059 0.619608 0.588235 1
-0.0547943 0.00389418 0.0126757 0.647059 0.619608 0.588235 1
0.0881509 0.00770015 -0.00563956 0.647059 0.619608 0.588235 0
0.128054 0.00443451 -0.0378828 0.647059 0.619608 0.588235 1
-0.079104 0.002 0.00360971 0.647059 0.619608 0.588235 1
0.0844135 0.00771182 0.00885807 0.647059 0.619608 0.588235 0
0.0481165 -0.00399284 0.00948289 0.647059 0.619608 0.588235 1
0.0792494 -1.59952e-05 -0.0172538 0.647059 0.619608 0.588235 1
0.0529223 0.002 -0.00501576 0.647059 0.619608 0.588235 1
-0.0645449 -0.004 -0.0117167 0.647059 0.619608 0.588235 1
-0.0618674 -0.00365907 -0.0101529 0.647059 0.619608 0.588235 1
-0.033311 -0.00242472 0.00858418 0.647059 0.619608 0.588235 1
-0.0718286 -0.00261146 0.0144978 0.647059 0.619608 0.588235 1
0.121564 0.01 -0.033126 0.647059 0.619608 0.588235 1
0.111557 -0.01 0.00402272 0.647059 0.619608 0.588235 1
0.0992968 0.00325033 -0.000515075 0.647059 0.619608 0.588235 0
0.119821 -0.01 -0.0160254 0.647059 0.619608 0.588235 1
-0.0288295 0.00398598 0.0117167 0.647059 0.619608 0.588235 1
-0.0352931 -0.00399779 0.0116847 0.647059 0.619608 0.588235 1
-0.144468 0.00329413 0.00583435 0.647059 0.619608 0.588235 1
-0.0697275 -0.002 -0.00781646 0.647059 0.619608 0.588235 1
0.143399 -0.00762009 0.00585564 0.647059 0.619608 0.588235 3
-0.150318 -0.0039381 1.59952e-05 0.647059 0.619608 0.588235 1
0.124573 -0.01 -0.0298908 0.647059 0.619608 0.588235 1
0.117086 -0.01 0.0205829 0.647059 0.619608 0.588235 3
0.110212 0.00825361 0.0302564 0.647059 0.619608 0.588235 1
0.100561 -0.00996714 0.0308102 0.647059 0.619608 0.588235 1
0.112719 0.00580187 -0.0389871 0.647059 0.619608 0.588235 1
0.0598328 -0.00261065 -0.00564037 0.647059 0.619608 0.588235 1
0.129244 -0.000627903 -0.0116368 0.647059 0.619608 0.588235 1
0.112916 -0.01 0.0116847 0.647059 0.619608 0.588235 1
-0.134749 0.004 -0.012251 0.647059 0.619608 0.588235 1
0.109601 0.00862598 0.0327196 0.647059 0.619608 0.588235 1
-0.121493 -0.000180012 -0.015596 0.647059 0.619608 0.588235 1
-0.0109838 0.00252085 -0.0135297 0.647059 0.619608 0.588235 1
0.0205603 -0.002 0.00127776 0.647059 0.619608 0.588235 1
0.116591 0.00145567 0.0255581 0.647059 0.619608 0.588235 3
-0.0118562 -0.00353134 -0.00912094 0.647059 0.619608 0.588235 1
-0.0815621 -0.002 0.00749314 0.647059 0.619608 0.588235 1
0.0412444 -0.00344799 0.00812722 0.647059 0.619608 0.588235 1
-0.14617 0.00302591 1.59952e-05 0.647059 0.619608 0.588235 1
0.052494 -0.004 -0.00976677 0.647059 0.619608 0.588235 1
0.0905393 0.00586634 -0.0163467 0.647059 0.619608 0.588235 1
0.140234 0.00869694 0.00506983 0.647059 0.619608 0.588235 3
0.0149247 -0.00397141 -0.00979536 0.647059 0.619608 0.588235 1
0.133656 0.01 -0.0125343 0.647059 0.619608 0.588235 1
0.1461 0.01 -0.017567 0.647059 0.619608 0.588235 1
0.119376 -0.003 -0.0356329 0.647059 0.619608 0.588235 1
0.128851 0.00906591 0.0233854 0.647059 0.619608 0.588235 3
0.120748 -0.00579046 -0.00973458 0.647059 0.619608 0.588235 1
-0.118006 -0.002 -0.0090089 0.647059 0.619608 0.588235 1
0.0413704 0.00354367 0.00825327 0.647059 0.619608 0.588235 1
0.0673208 -0.00247459 -0.0126351 0.647059 0.619608 0.588235 1
0.114822 -0.01 -0.0155849 0.647059 0.619608 0.588235 1
-0.00442015 -0.002 -0.000224961 0.647059 0.619608 0.588235 1
-0.0277026 0.00303611 -0.00887164 0.647059 0.619608 0.588235 1
0.0979869 0.00678986 -0.0272856 0.647059 0.619608 0.588235 1
0.133036 -0.01 0.0147983 0.647059 0.619608 0.588235 3
0.035706 0.002 0.00172515 0.647059 0.619608 0.588235 1
0.103165 0.01 0.0156169 0.647059 0.619608 0.588235 1
0.103165 -0.0070385 -0.0345947 0.647059 0.619608 0.588235 1
-0.149027 0.000123798 -0.00960803 0.647059 0.619608 0.588235 1
0.124648 0.01 -0.0136668 0.647059 0.619608 0.588235 1
0.122666 0.00778135 0.000514912 0.647059 0.619608 0.588235 3
0.146713 0.000121869 0.00841813 0.647059 0.619608 0.588235 3
-0.019429 0.002 -0.00204332 0.647059 0.619608 0.588235 1
0.137282 -0.01 -0.0147983 0.647059 0.619608 0.588235 1
0.150275 -0.00196611 -0.0152204 0.647059 0.619608 0.588235 1
-0.0939143 -0.004 -0.0119755 0.647059 0.619608 0.588235 1
0.0949323 -0.00371515 -0.029402 0.647059 0.619608 0.588235 1
-0.0621761 -0.002 -0.00704112 0.647059 0.619608 0.588235 1
0.102606 0.00371632 -0.0352651 0.647059 0.619608 0.588235 1
-0.12094 -0.00234445 -0.000569414 0.647059 0.619608 0.588235 1
0.125904 0.01 -0.0340755 0.647059 0.619608 0.588235 1
0.0460469 0.00357227 -0.0116847 0.647059 0.619608 0.588235 1
-0.109366 -0.004 -0.0122963 0.647059 0.619608 0.588235 1
0.0145162 -0.002 0.00696002 0.647059 0.619608 0.588235 1
0.0949053 -0.00632921 -0.0228991 0.647059 0.619608 0.588235 1
-0.0662545 0.002 -0.00284587 0.647059 0.619608 0.588235 1
0.134806 -0.00706425 -0.0342813 0.647059 0.619608 0.588235 1
0.105712 -0.00989426 1.59952e-05 0.647059 0.619608 0.588235 1
0.144149 -0.00388423 -0.0261712 0.647059 0.619608 0.588235 1
-0.09142 0.002 0.00569316 0.647059 0.619608 0.588235 1
-0.00839743 0.0029043 0.013271 0.647059 0.619608 0.588235 1
0.107253 0.0068947 -0.037254 0.647059 0.619608 0.588235 1
-0.0520881 0.0032945 -0.0136668 0.647059 0.619608 0.588235 1
-0.0484093 -0.00347689 -0.0134025 0.647059 0.619608 0.588235 1
-0.129767 -0.0014949 0.00613048 0.647059 0.619608 0.588235 1
0.0368611 -0.00388423 0.0111857 0.647059 0.619608 0.588235 1
-0.0973063 -0.002 0.00388423 0.647059 0.619608 0.588235 1
0.120187 0.003 -0.0381275 0.647059 0.619608 0.588235 1
0.0178686 0.00341251 0.0123755 0.647059 0.619608 0.588235 1
0.123096 -0.01 -0.017535 0.647059 0.619608 0.588235 1
0.0735913 0.00276581 0.0142594 0.647059 0.619608 0.588235 1
-0.0613081 -0.002 -0.00802542 0.647059 0.619608 0.588235 1
0.103197 -0.01 0.0182963 0.647059 0.619608 0.588235 1
-0.109366 0.00387327 -0.0136668 0.647059 0.619608 0.588235 1
0.0977809 -0.00565031 -0.00428324 0.647059 0.619608 0.588235 0
-0.0415146 0.002 0.00263408 0.647059 0.619608 0.588235 1
-0.124998 -1.59952e-05 -0.0156537 0.647059 0.619608 0.588235 1
-0.00319408 -0.00193412 -0.0135782 0.647059 0.619608 0.588235 1
-0.0976648 0.00391623 -0.0133053 0.647059 0.619608 0.588235 1
-0.0346388 -0.00399416 -0.0117167 0.647059 0.619608 0.588235 1
0.141479 -0.00229308 0.017033 0.647059 0.619608 0.588235 3
-0.15035 -0.00392981 -0.00114931 0.647059 0.619608 0.588235 1
0.100539 0.00716821 -0.0300271 0.647059 0.619608 0.588235 1
-0.113041 -0.002 0.00197738 0.647059 0.619608 0.588235 1
-0.05146 0.00292185 0.013976 0.647059 0.619608 0.588235 1
-0.104923 0.002 -0.00594355 0.647059 0.619608 0.588235 1
0.120866 -0.01 -0.0170506 0.647059 0.619608 0.588235 1
0.139347 0.00999702 0.0156169 0.647059 0.619608 0.588235 3
0.118488 -0.00584 0.00568561 0.647059 0.619608 0.588235 3
0.0887666 -0.00380735 -0.024329 0.647059 0.619608 0.588235 1
0.00817246 0.00288168 -0.0130117 0.647059 0.619608 0.588235 1
-0.126344 0.00395695 0.00460819 0.647059 0.619608 0.588235 1
-0.0715154 -0.004 -0.012251 0.647059 0.619608 0.588235 1
0.128014 0.01 0.0177214 0.647059 0.619608 0.588235 3
0.0136882 -0.002 -0.00217508 0.647059 0.619608 0.588235 1
0.110069 0.01 0.0245977 0.647059 0.619608 0.588235 1
0.140651 0.01 0.00595668 0.647059 0.619608 0.588235 3
0.0245459 0.00270786 0.00778446 0.647059 0.619608 0.588235 1
-0.0411435 0.002 0.00781646 0.647059 0.619608 0.588235 1
0.088913 -0.00734258 0.0194852 0.647059 0.619608 0.588235 1
-0.0636033 -0.002 -0.00211153 0.647059 0.619608 0.588235 1
-0.149049 -0.004 0.00385691 0.647059 0.619608 0.588235 1
-0.0742634 -0.002 -0.00193412 0.647059 0.619608 0.588235 1
-0.0177421 -0.002 0.00193412 0.647059 0.619608 0.588235 1
-0.0207853 -0.002 0.00367527 0.647059 0.619608 0.588235 1
0.0812563 0.00196462 0.0115401 0.647059 0.619608 0.588235 1
-0.0154334 0.002 -0.00162142 0.647059 0.619608 0.588235 1
-0.0496053 -0.00398636 -0.0110176 0.647059 0.619608 0.588235 1
-0.0450117 0.002 0.00583435 0.647059 0.619608 0.588235 1
0.0892486 0.0072998 0.017535 0.647059 0.619608 0.588235 1
0.0895073 -0.00735767 0.0169652 0.647059 0.619608 0.588235 1
0.0294756 -0.002 -0.00412519 0.647059 0.619608 0.588235 1
0.0321108 -0.00263408 -0.0127527 0.647059 0.619608 0.588235 1
0.052462 -0.00347384 0.0117249 0.647059 0.619608 0.588235 1
0.0909088 0.00579734 -0.019429 0.647059 0.619608 0.588235 1
-0.0586479 0.002 -0.00204332 0.647059 0.619608 0.588235 1
-0.0395932 0.002 0.00388423 0.647059 0.619608 0.588235 1
-0.0322535 -0.000315742 -0.0141278 0.647059 0.619608 0.588235 1
-0.14515 0.004 -0.00781646 0.647059 0.619608 0.588235 1
-0.047329 -0.000563773 0.0143758 0.647059 0.619608 0.588235 1
0.116637 -0.01 0.017567 0.647059 0.619608 0.588235 3
6.94808e-05 0.002 -0.00542366 0.647059 0.619608 0.588235 1
0.0792527 0.00454365 -0.00931423 0.647059 0.619608 0.588235 1
0.0875425 0.00709409 0.0205378 0.647059 0.619608 0.588235 1
0.123167 0.01 0.0148435 0.647059 0.619608 0.588235 3
0.0992648 0.0035405 0.00627576 0.647059 0.619608 0.588235 0
0.0834284 0.00403887 -0.00149951 0.647059 0.619608 0.588235 0
0.105487 -0.01 0.023812 0.647059 0.619608 0.588235 1
0.140822 0.00583831 0.00521582 0.647059 0.619608 0.588235 3
0.117287 0.01 -0.017535 0.647059 0.619608 0.588235 1
0.0150445 -0.002 -0.00399343 0.647059 0.619608 0.588235 1
0.0823754 -0.00284204 -0.000383564 0.647059 0.619608 0.588235 1
-0.0139132 -0.004 0.0108851 0.647059 0.619608 0.588235 1
-0.0350719 0.002 0.00388423 0.647059 0.619608 0.588235 1
-0.00729297 0.0039623 0.0116197 0.647059 0.619608 0.588235 1
0.122698 -1.59952e-05 0.0255729 0.647059 0.619608 0.588235 3
-0.0215679 -0.00260748 0.0136616 0.647059 0.619608 0.588235 1
0.0641627 0.00396574 0.00196611 0.647059 0.619608 0.588235 1
0.100539 0.0035705 0.00141332 0.647059 0.619608 0.588235 0
0.118778 -0.00989373 -0.0374951 0.647059 0.619608 0.588235 1
0.13745 0.00193412 -0.0329211 0.647059 0.619608 0.588235 1
0.110212 -0.00796077 0.0302564 0.647059 0.619608 0.588235 1
0.0544121 0.002 1.59952e-05 0.647059 0.619608 0.588235 1
-0.0230962 0.002 -0.00349314 0.647059 0.619608 0.588235 1
0.134367 0.00193412 -0.0350207 0.647059 0.619608 0.588235 1
0.037466 0.00262561 0.0126678 0.647059 0.619608 0.588235 1
0.113653 -0.01 -0.0296762 0.647059 0.619608 0.588235 1
0.135035 -0.00814984 -0.0339424 0.647059 0.619608 0.588235 1
0.107433 -0.00759118 0.0390685 0.647059 0.619608 0.588235 1
-0.124576 -0.00315921 0.0105832 0.647059 0.619608 0.588235 1
0.121223 -0.01 -0.033241 0.647059 0.619608 0.588235 1
-0.0828602 -0.00390931 -0.0111327 0.647059 0.619608 0.588235 1
-0.12147 -0.002 0.00812722 0.647059 0.619608 0.588235 1
0.144149 0.00156586 -0.0264094 0.647059 0.619608 0.588235 1
0.0723611 0.000261957 0.0140287 0.647059 0.619608 0.588235 1
0.1461 0.00259346 0.0108897 0.647059 0.619608 0.588235 3
0.0495542 -0.00371248 -0.00838385 0.647059 0.619608 0.588235 1
-0.144479 0.00385003 0.0116847 0.647059 0.619608 0.588235 1
-0.100014 -0.004 0.012251 0.647059 0.619608 0.588235 1
0.101918 -0.00881596 -0.0108923 0.647059 0.619608 0.588235 1
-0.107704 -0.002 -0.00607531 0.647059 0.619608 0.588235 1
0.149338 -0.00212029 -0.017567 0.647059 0.619608 0.588235 1
0.120716 -0.01 0.017535 0.647059 0.619608 0.588235 3
-0.123874 -0.00314229 -0.0150181 0.647059 0.619608 0.588235 1
0.127507 0.01 0.0148435 0.647059 0.619608 0.588235 3
-0.13743 0.00231652 -0.0156169 0.647059 0.619608 0.588235 1
-0.0976968 -0.002 0.0007805 0.647059 0.619608 0.588235 1
0.0134917 -0.00291841 0.00809049 0.647059 0.619608 0.588235 1
0.141469 -0.00998983 0.0136668 0.647059 0.619608 0.588235 3
0.144597 0.01 -0.00986637 0.647059 0.619608 0.588235 1
-0.150406 0.00391148 0.00125514 0.647059 0.619608 0.588235 1
0.126566 -0.01 -0.0341487 0.647059 0.619608 0.588235 1
-0.0787233 0.0013787 0.0148864 0.647059 0.619608 0.588235 1
0.0505119 0.00196611 0.012678 0.647059 0.619608 0.588235 1
0.0743389 -0.00436306 0.0026567 0.647059 0.619608 0.588235 1
0.125113 0.01 0.00976657 0.647059 0.619608 0.588235 3
-0.085618 -0.002 -0.000146418 0.647059 0.619608 0.588235 1
-0.151785 0.00255088 -0.00288168 0.647059 0.619608 0.588235 1
-0.0832955 0.002 0.00773716 0.647059 0.619608 0.588235 1
-0.147693 0.004 -0.0070185 0.647059 0.619608 0.588235 1
-0.0586611 -0.002 0.00474752 0.647059 0.619608 0.588235 1
0.14687 0.00479028 0.00778446 0.647059 0.619608 0.588235 3
0.108509 0.01 -0.00726474 0.647059 0.619608 0.588235 1
0.0992648 0.00128455 0.0290295 0.647059 0.619608 0.588235 3
0.015458 0.00382449 0.0117167 0.647059 0.619608 0.588235 1
-0.0727757 -0.002 0.00722542 0.647059 0.619608 0.588235 1
-0.0624273 0.002 -0.00753838 0.647059 0.619608 0.588235 1
0.0530592 -0.002 0.00619788 0.647059 0.619608 0.588235 1
-0.09247 0.00331243 -0.0143213 0.647059 0.619608 0.588235 1
0.114866 -0.00986361 -0.0374198 0.647059 0.619608 0.588235 1
0.0798321 0.00527768 0.0136656 0.647059 0.619608 0.588235 1
-0.0138419 -0.00383881 0.00973458 0.647059 0.619608 0.588235 1
0.0513763 -0.002 -0.00473526 0.647059 0.619608 0.588235 1
0.0193421 0.00397417 0.00973458 0.647059 0.619608 0.588235 1
0.00719229 0.00034711 -0.0134788 0.647059 0.619608 0.588235 1
-0.011331 -0.00330892 -0.0088473 0.647059 0.619608 0.588235 1
-0.0007805 -0.002 -0.00586634 0.647059 0.619608 0.588235 1
0.124648 -0.01 0.00391623 0.647059 0.619608 0.588235 3
0.0826352 -0.00453889 0.00308649 0.647059 0.619608 0.588235 0
-0.11693 0.00196611 0.0154705 0.647059 0.619608 0.588235 1
0.106156 0.01 0.00726474 0.647059 0.619608 0.588235 1
0.110191 -0.01 0.0175934 0.647059 0.619608 0.588235 1
0.0290926 -0.00289449 0.00781646 0.647059 0.619608 0.588235 1
0.101215 -0.01 0.018251 0.647059 0.619608 0.588235 1
-0.126917 0.00217898 0.0155849 0.647059 0.619608 0.588235 1
-0.0801169 0.002 -0.00202262 0.647059 0.619608 0.588235 1
0.091733 -0.0055315 -0.0252077 0.647059 0.619608 0.588235 1
0.135598 0.01 -0.0127805 0.647059 0.619608 0.588235 1
0.105583 -0.00973458 -0.0130284 0.647059 0.619608 0.588235 1
0.00571194 -0.002 -0.0015908 0.647059 0.619608 0.588235 1
0.122666 -0.01 -0.0347983 0.647059 0.619608 0.588235 1
-0.0717383 -0.002 -0.00191553 0.647059 0.619608 0.588235 1
-0.00299526 0.00398932 -0.0112463 0.647059 0.619608 0.588235 1
0.117904 -0.00752541 -0.000725606 0.647059 0.619608 0.588235 1
0.0909325 0.007516 0.00353813 0.647059 0.619608 0.588235 0
-0.131146 -0.00397781 -0.0100032 0.647059 0.619608 0.588235 1
-0.0365877 -0.002 -0.00193412 0.647059 0.619608 0.588235 1
0.10009 -0.01 0.0273176 0.647059 0.619608 0.588235 1
-0.0375241 0.00241089 -0.00864324 0.647059 0.619608 0.588235 1
0.126761 0.01 -0.0249447 0.647059 0.619608 0.588235 1
-0.0957467 -0.0026674 -0.00976657 0.647059 0.619608 0.588235 1
0.088603 -0.00196611 -0.0244474 0.647059 0.619608 0.588235 1
0.00545527 -0.00232279 -0.0133317 0.647059 0.619608 0.588235 1
0.0368931 -0.002 -0.00349314 0.647059 0.619608 0.588235 1
0.135503 -0.01 -0.0218758 0.647059 0.619608 0.588235 1
-0.0859641 -0.002 0.0047805 0.647059 0.619608 0.588235 1
-0.0929075 -0.00239468 0.0149493 0.647059 0.619608 0.588235 1
0.0251604 1.59952e-05 0.0131831 0.647059 0.619608 0.588235 1
0.0388432 -0.002 -0.0047805 0.647059 0.619608 0.588235 1
0.0777172 -0.00465966 0.00142973 0.647059 0.619608 0.588235 1
-0.00464584 0.00389802 0.00976657 0.647059 0.619608 0.588235 1
-0.127438 0.00140367 -0.000689532 0.647059 0.619608 0.588235 1
-0.026301 0.00330257 -0.0132282 0.647059 0.619608 0.588235 1
0.0873089 -0.00391876 -0.0230289 0.647059 0.619608 0.588235 1
0.0773384 0.00472251 0.00565621 0.647059 0.619608 0.588235 1
-0.119393 -0.002 0.000830732 0.647059 0.619608 0.588235 1
0.15 0.0037574 -0.0155704 0.647059 0.619608 0.588235 1
-0.000191072 0.000166528 0.0136002 0.647059 0.619608 0.588235 1
0.044785 1.59952e-05 0.0128603 0.647059 0.619608 0.588235 1
0.0413604 0.00348815 0.00816955 0.647059 0.619608 0.588235 1
0.137753 0.01 0.00536951 0.647059 0.619608 0.588235 3
-0.0507616 0.00388423 0.012647 0.647059 0.619608 0.588235 1
0.0148865 0.00278243 -0.0129635 0.647059 0.619608 0.588235 1
0.146378 1.59952e-05 0.00976657 0.647059 0.619608 0.588235 3
0.0633074 -0.00364351 0.0113009 0.647059 0.619608 0.588235 1
0.112559 0.00523264 -0.037845 0.647059 0.619608 0.588235 1
0.147917 0.00825102 -0.0193052 0.647059 0.619608 0.588235 1
-0.0428483 -0.002 0.00367527 0.647059 0.619608 0.588235 1
0.123958 0.01 -0.0332183 0.647059 0.619608 0.588235 1
0.107746 -0.01 0.019471 0.647059 0.619608 0.588235 1
0.0780991 0.00441671 -0.00990985 0.647059 0.619608 0.588235 1
0.128095 -0.00992878 -0.0354553 0.647059 0.619608 0.588235 1
-0.0694045 0.00323807 0.00973458 0.647059 0.619608 0.588235 1
-0.0160245 -0.000977891 -0.0138517 0.647059 0.619608 0.588235 1
0.00094315 0.0038275 0.011952 0.647059 0.619608 0.588235 1
0.0875641 0.00524288 -0.0190097 0.647059 0.619608 0.588235 1
0.0922652 0.00627029 -0.0153241 0.647059 0.619608 0.588235 1
0.0938529 -0.00611284 -0.00609022 0.647059 0.619608 0.588235 0
0.121152 -0.003 -0.0383456 0.647059 0.619608 0.588235 1
-0.0525461 0.002 -0.00563956 0.647059 0.619608 0.588235 1
0.1028 0.00586634 -0.0351181 0.647059 0.619608 0.588235 1
0.126311 -0.01 -0.0341487 0.647059 0.619608 0.588235 1
0.019204 0.0032522 0.00827341 0.647059 0.619608 0.588235 1
-0.111673 -0.002 0.00353838 0.647059 0.619608 0.588235 1
0.0232954 0.002 0.00120976 0.647059 0.619608 0.588235 1
-0.0877032 -0.00388423 -0.0132631 0.647059 0.619608 0.588235 1
-0.0334864 -0.002 0.00537812 0.647059 0.619608 0.588235 1
0.132449 -0.01 0.00928253 0.647059 0.619608 0.588235 3
0.096402 0.00682622 -0.0206825 0.647059 0.619608 0.588235 1
0.106077 0.01 0.0229769 0.647059 0.619608 0.588235 1
0.0739133 0.00435497 0.00394129 0.647059 0.619608 0.588235 1
-0.147693 -0.00123513 -0.0111608 0.647059 0.619608 0.588235 1
0.0622446 -0.004 -0.00976677 0.647059 0.619608 0.588235 1
-0.0815039 -0.002 -0.000224961 0.647059 0.619608 0.588235 1
0.085614 -0.00406631 -0.00128581 0.647059 0.619608 0.588235 0
0.0313177 -0.004 -0.0100279 0.647059 0.619608 0.588235 1
-0.054158 0.00278998 -0.00914479 0.647059 0.619608 0.588235 1
0.140249 0.00656776 0.0176219 0.647059 0.619608 0.588235 3
0.0671745 0.00401346 -0.00193412 0.647059 0.619608 0.588235 1
-0.148424 0.00193412 0.0103047 0.647059 0.619608 0.588235 1
-0.0829144 -0.00381657 0.0108309 0.647059 0.619608 0.588235 1
-0.0557664 -0.00391557 -0.0126091 0.647059 0.619608 0.588235 1
0.105594 0.01 0.0058927 0.647059 0.619608 0.588235 1
0.0798864 -0.00529018 0.0137199 0.647059 0.619608 0.588235 1
0.00179103 -0.00376635 -0.00930473 0.647059 0.619608 0.588235 1
0.116411 -0.01 -0.0335765 0.647059 0.619608 0.588235 1
0.0230167 0.00398172 0.00976657 0.647059 0.619608 0.588235 1
0.0095595 -0.00382907 0.0093222 0.647059 0.619608 0.588235 1
0.105893 -0.00193412 -0.0371711 0.647059 0.619608 0.588235 1
0.110876 -0.00758397 -0.038394 0.647059 0.619608 0.588235 1
0.0836959 -0.0060938 0.0171479 0.647059 0.619608 0.588235 1
0.123463 0.01 -0.0342761 0.647059 0.619608 0.588235 1
-0.0428935 0.00361757 -0.00977637 0.647059 0.619608 0.588235 1
0.0974742 0.00583435 0.0312178 0.647059 0.619608 0.588235 1
-0.0708752 -0.00388423 -0.0129824 0.647059 0.619608 0.588235 1
-0.0316868 0.00377521 0.00988427 0.647059 0.619608 0.588235 1
0.145922 0.01 -0.0112547 0.647059 0.619608 0.588235 1
-0.0998362 0.002 -0.00052995 0.647059 0.619608 0.588235 1
-0.142549 0.00326965 -0.00778446 0.647059 0.619608 0.588235 1
0.112882 0.01 -0.00174898 0.647059 0.619608 0.588235 1
-0.0449066 -0.002 -0.00196611 0.647059 0.619608 0.588235 1
-0.0904957 0.004 0.0122963 0.647059 0.619608 0.588235 1
-0.108635 -0.00303893 -0.0102185 0.647059 0.619608 0.588235 1
0.0770968 0.00285906 0.0158666 0.647059 0.619608 0.588235 1
-0.112039 -0.00166432 0.0154311 0.647059 0.619608 0.588235 1
0.090701 -0.00586634 -0.0164632 0.647059 0.619608 0.588235 1
0.144117 -0.00586634 -0.0259441 0.647059 0.619608 0.588235 1
0.00580145 0.00304277 0.0129302 0.647059 0.619608 0.588235 1
-0.103515 0.00338001 -0.0144341 0.647059 0.619608 0.588235 1
-0.125607 0.00391976 0.00176258 0.647059 0.619608 0.588235 1
-0.150318 -1.59952e-05 0.00763209 0.647059 0.619608 0.588235 1
0.0171645 0.00367778 0.0088682 0.647059 0.619608 0.588235 1
0.130853 0.00293435 0.00274092 0.647059 0.619608 0.588235 3
-0.118041 -0.0010307 0.0155392 0.647059 0.619608 0.588235 1
0.078999 0.00465907 -0.00359195 0.647059 0.619608 0.588235 1
0.134455 -0.01 -0.0182963 0.647059 0.619608 0.588235 1
0.0260761 0.000340729 0.013167 0.647059 0.619608 0.588235 1
0.101247 0.01 0.0265699 0.647059 0.619608 0.588235 1
0.110761 0.00391227 0.028047 0.647059 0.619608 0.588235 1
0.120748 -0.01 -0.0258298 0.647059 0.619608 0.588235 1
-0.0255426 -0.000250571 -0.0140173 0.647059 0.619608 0.588235 1
0.0953646 0.00233467 -0.0298908 0.647059 0.619608 0.588235 1
-0.128365 -0.00392993 -0.0137642 0.647059 0.619608 0.588235 1
0.0170569 0.00388357 0.0115185 0.647059 0.619608 0.588235 1
0.0461081 0.002 0.00473526 0.647059 0.619608 0.588235 1
-0.0781957 -0.00398193 -0.012588 0.647059 0.619608 0.588235 1
0.130853 0.01 0.0067709 0.647059 0.619608 0.588235 3
0.142167 -1.59952e-05 -0.0287718 0.647059 0.619608 0.588235 1
-0.0203286 -0.002 -0.00473526 0.647059 0.619608 0.588235 1
0.100586 -0.00897276 0.0151142 0.647059 0.619608 0.588235 1
0.100539 -0.01 0.0274079 0.647059 0.619608 0.588235 1
0.131076 0.01 -0.0272856 0.647059 0.619608 0.588235 1
-0.0383068 -0.00308401 0.0136348 0.647059 0.619608 0.588235 1
0.0897278 -0.00778446 0.00778446 0.647059 0.619608 0.588235 0
0.0232423 -0.002 -0.00388423 0.647059 0.619608 0.588235 1
-0.0709173 -0.002 -0.00471865 0.647059 0.619608 0.588235 1
0.0925149 0.00275788 0.0275562 0.647059 0.619608 0.588235 1
0.00284485 0.00193412 0.0134775 0.647059 0.619608 0.588235 1
-0.0508621 0.00227015 -0.00873875 0.647059 0.619608 0.588235 1
-0.0213096 0.00202705 0.00778446 0.647059 0.619608 0.588235 1
-0.0918012 -0.0012948 0.0151068 0.647059 0.619608 0.588235 1
0.114866 -0.01 -0.0072195 0.647059 0.619608 0.588235 1
0.0255377 -0.00305412 0.00800002 0.647059 0.619608 0.588235 1
-0.0627955 -0.002 -0.00486941 0.647059 0.619608 0.588235 1
0.0883942 0.00781646 -0.005928 0.647059 0.619608 0.588235 0
0.100938 -0.00719224 -0.0312178 0.647059 0.619608 0.588235 1
0.126598 0.01 -0.0341034 0.647059 0.619608 0.588235 1
-0.0520155 0.000945126 0.0144528 0.647059 0.619608 0.588235 1
-0.0742954 0.00212334 -0.00893079 0.647059 0.619608 0.588235 1
0.0622126 0.004 -0.00673526 0.647059 0.619608 0.588235 1
0.0173501 0.000503957 0.0133081 0.647059 0.619608 0.588235 1
-0.151967 -0.00249666 0.00196611 0.647059 0.619608 0.588235 1
-0.0466133 -0.002 0.00625102 0.647059 0.619608 0.588235 1
0.0619381 -0.004 0.00976657 0.647059 0.619608 0.588235 1
0.0963993 -0.00750487 -0.00767995 0.647059 0.619608 0.588235 1
-0.0903237 0.00348799 -0.0103679 0.647059 0.619608 0.588235 1
-0.0539061 -0.002 0.00753838 0.647059 0.619608 0.588235 1
-0.0450117 0.00357002 0.00973458 0.647059 0.619608 0.588235 1
-0.084046 -0.002 -0.00196611 0.647059 0.619608 0.588235 1
0.126681 1.59952e-05 -0.0277832 0.647059 0.619608 0.588235 1
0.140249 -0.01 -0.00973458 0.647059 0.619608 0.588235 1
0.0939123 0.0064894 -0.0174983 0.647059 0.619608 0.588235 1
-0.0969209 0.00263293 0.00976657 0.647059 0.619608 0.588235 1
0.0964246 0.00954966 0.0214771 0.647059 0.619608 0.588235 1
0.11715 -0.003 -0.0302053 0.647059 0.619608 0.588235 1
-0.00288168 -0.002 0.00536934 0.647059 0.619608 0.588235 1
0.07296 0.0037642 0.0133717 0.647059 0.619608 0.588235 1
0.0715584 0.000123798 -0.013816 0.647059 0.619608 0.588235 1
0.0700451 0.00413871 0.00416133 0.647059 0.619608 0.588235 1
0.100045 -0.01 0.0214353 0.647059 0.619608 0.588235 1
-0.0369904 0.00379442 0.0100176 0.647059 0.619608 0.588235 1
0.13777 -0.01 -0.0139358 0.647059 0.619608 0.588235 1
-0.00824271 -0.002 -0.00270434 0.647059 0.619608 0.588235 1
-0.00699587 -0.002 0.00367527 0.647059 0.619608 0.588235 1
0.105147 0.00987262 0.00193412 0.647059 0.619608 0.588235 1
0.108119 0.01 0.0226476 0.647059 0.619608 0.588235 1
0.030121 0.002 -0.00197738 0.647059 0.619608 0.588235 1
-0.0666359 0.00382043 0.010562 0.647059 0.619608 0.588235 1
0.0778455 0.00391623 -0.0151318 0.647059 0.619608 0.588235 1
0.0792336 -0.00474827 0.0117167 0.647059 0.619608 0.588235 1
-0.113451 0.00326657 0.0105002 0.647059 0.619608 0.588235 1
0.0602945 0.002 -0.00196611 0.647059 0.619608 0.588235 1
-0.0781637 -0.002 0.00196611 0.647059 0.619608 0.588235 1
0.0432205 -0.00106808 0.0128612 0.647059 0.619608 0.588235 1
-0.028695 0.002 -0.00389676 0.647059 0.619608 0.588235 1
0.101247 0.00985165 0.0319373 0.647059 0.619608 0.588235 1
-0.119939 0.00393308 -0.0136115 0.647059 0.619608 0.588235 1
-0.106302 -0.002 -0.00405741 0.647059 0.619608 0.588235 1
-0.0413303 0.00245475 -0.0140699 0.647059 0.619608 0.588235 1
-0.136844 -0.00194301 0.015755 0.647059 0.619608 0.588235 1
0.14193 0.0070185 -0.0282889 0.647059 0.619608 0.588235 1
0.0531574 -0.00349294 -0.0116847 0.647059 0.619608 0.588235 1
-0.0352931 -0.002 -0.00473526 0.647059 0.619608 0.588235 1
-0.0222094 0.002 -0.00607531 0.647059 0.619608 0.588235 1
-0.0489225 0.00386009 0.0127098 0.647059 0.619608 0.588235 1
0.123971 0.01 0.0210089 0.647059 0.619608 0.588235 3
0.0479813 -0.00296485 0.0122853 0.647059 0.619608 0.588235 1
0.0836639 0.00354493 -0.0200696 0.647059 0.619608 0.588235 1
0.0610273 -0.0034087 -0.0116597 0.647059 0.619608 0.588235 1
-0.111348 0.002 0.00197738 0.647059 0.619608 0.588235 1
-0.088091 0.002 0.00374305 0.647059 0.619608 0.588235 1
0.0521531 -0.002 0.00524655 0.647059 0.619608 0.588235 1
-0.0944729 -0.002 -0.0062434 0.647059 0.619608 0.588235 1
0.054627 -0.004 -0.0100254 0.647059 0.619608 0.588235 1
-0.0961774 -0.002 -0.00243214 0.647059 0.619608 0.588235 1
0.0205603 0.00306206 0.0126696 0.647059 0.619608 0.588235 1
-0.000413145 -0.00239708 0.013406 0.647059 0.619608 0.588235 1
-0.0152695 0.00384824 -0.00977637 0.647059 0.619608 0.588235 1
0.109015 0.00752118 0.0350773 0.647059 0.619608 0.588235 1
-0.134163 0.00287286 0.00922456 0.647059 0.619608 0.588235 1
0.0466437 0.002 -0.00586634 0.647059 0.619608 0.588235 1
0.0446936 0.004 0.00976677 0.647059 0.619608 0.588235 1
-0.11259 -0.002 0.00473526 0.647059 0.619608 0.588235 1
0.0221146 0.002 -0.00594355 0.647059 0.619608 0.588235 1
-0.0399432 -0.00376656 -0.0100002 0.647059 0.619608 0.588235 1
-0.134699 -0.004 0.012251 0.647059 0.619608 0.588235 1
0.0763332 -1.59952e-05 0.0156372 0.647059 0.619608 0.588235 1
0.114306 -0.01 -0.00822496 0.647059 0.619608 0.588235 1
-0.0422479 0.002 0.00185559 0.647059 0.619608 0.588235 1
0.0855377 -0.00679352 0.0059426 0.647059 0.619608 0.588235 0
-0.0401357 0.002 0.00401302 0.647059 0.619608 0.588235 1
0.11077 -0.00391623 0.0280107 0.647059 0.619608 0.588235 1
-0.118809 0.00375317 -0.0112742 0.647059 0.619608 0.588235 1
0.0708964 -0.00420135 0.00468468 0.647059 0.619608 0.588235 1
0.0577879 -0.00206921 -0.00618181 0.647059 0.619608 0.588235 1
0.0874824 0.0089727 0.00947187 0.647059 0.619608 0.588235 0
-0.0350771 0.000362198 -0.0141742 0.647059 0.619608 0.588235 1
0.131321 -0.00140156 0.023442 0.647059 0.619608 0.588235 3
0.115394 -0.01 -0.0363124 0.647059 0.619608 0.588235 1
0.0563943 0.002 -0.00196611 0.647059 0.619608 0.588235 1
-0.0739972 0.00392639 -0.0110365 0.647059 0.619608 0.588235 1
0.0198006 -1.59952e-05 -0.0132713 0.647059 0.619608 0.588235 1
0.0770742 0.00487112 0.0136656 0.647059 0.619608 0.588235 1
0.12287 -0.00331215 0.0253526 0.647059 0.619608 0.588235 3
0.0139125 -0.00240984 -0.00778446 0.647059 0.619608 0.588235 1
-0.0138419 0.002 -0.00583435 0.647059 0.619608 0.588235 1
0.0761568 -0.00166267 -0.0154747 0.647059 0.619608 0.588235 1
0.107285 0.01 0.00170374 0.647059 0.619608 0.588235 1
0.0193101 0.002 0.00473526 0.647059 0.619608 0.588235 1
0.0254902 -0.002 0.000735258 0.647059 0.619608 0.588235 1
-0.0625628 0.002 -0.00753838 0.647059 0.619608 0.588235 1
0.146068 -0.01 -0.0127353 0.647059 0.619608 0.588235 1
-0.105854 0.002 0.000440361 0.647059 0.619608 0.588235 1
-0.0996469 0.002 -0.00778446 0.647059 0.619608 0.588235 1
0.0973467 -0.00741785 -0.0129562 0.647059 0.619608 0.588235 1
0.0138331 0.00372187 0.0119729 0.647059 0.619608 0.588235 1
-0.0335897 0.002 -0.000472544 0.647059 0.619608 0.588235 1
0.13998 0.01 -0.0187822 0.647059 0.619608 0.588235 1
-0.00842006 0.00300209 0.00852352 0.647059 0.619608 0.588235 1
-0.0320545 0.00364263 0.012882 0.647059 0.619608 0.588235 1
0.0641627 0.004 0.00391623 0.647059 0.619608 0.588235 1
-0.0347347 -0.000342699 -0.0141686 0.647059 0.619608 0.588235 1
0.0789569 -0.0047774 0.0157863 0.647059 0.619608 0.588235 1
0.143461 0.00242525 0.005871 0.647059 0.619608 0.588235 3
0.0465067 -0.000957343 0.0128094 0.647059 0.619608 0.588235 1
0.126761 0.01 0.0132263 0.647059 0.619608 0.588235 3
-0.0268764 0.002 0.0067618 0.647059 0.619608 0.588235 1
-0.0433004 -0.00378491 0.012785 0.647059 0.619608 0.588235 1
0.0858357 0.00586634 0.0214353 0.647059 0.619608 0.588235 1
0.0973467 0.0075132 -0.0117167 0.647059 0.619608 0.588235 1
-0.0286069 0.002 -0.00388423 0.647059 0.619608 0.588235 1
-0.000159081 0.00390654 -0.0117167 0.647059 0.619608 0.588235 1
0.146044 0.0042796 0.0111143 0.647059 0.619608 0.588235 3
0.0511025 0.004 -0.00976677 0.647059 0.619608 0.588235 1
0.126364 0.01 0.00932777 0.647059 0.619608 0.588235 3
0.039743 -0.002 0.00391318 0.647059 0.619608 0.588235 1
0.0310428 0.00399277 -0.00976657 0.647059 0.619608 0.588235 1
0.0232103 0.000557921 0.0132089 0.647059 0.619608 0.588235 1
0.0961359 -0.00764989 -0.000733925 0.647059 0.619608 0.588235 0
0.137416 -0.01 -0.011532 0.647059 0.619608 0.588235 1
-0.029993 0.00273006 -0.013739 0.647059 0.619608 0.588235 1
0.0737546 -0.00210233 0.0144223 0.647059 0.619608 0.588235 1
0.104112 0.00542141 -0.0359694 0.647059 0.619608 0.588235 1
-0.0690956 0.00285906 0.0143173 0.647059 0.619608 0.588235 1
0.121519 -0.01 0.010275 0.647059 0.619608 0.588235 3
0.032314 -0.002 0.00583435 0.647059 0.619608 0.588235 1
0.0288113 0.002 -0.00412519 0.647059 0.619608 0.588235 1
0.10522 0.01 0.0285877 0.647059 0.619608 0.588235 1
0.0136882 -0.002 0.00562538 0.647059 0.619608 0.588235 1
0.0538928 0.004 0.00976657 0.647059 0.619608 0.588235 1
-0.0637878 0.002 0.00242393 0.647059 0.619608 0.588235 1
0.0895299 0.00760943 0.0214672 0.647059 0.619608 0.588235 1
0.131231 -0.01 -0.0287485 0.647059 0.619608 0.588235 1
0.101365 -0.00965258 0.0151457 0.647059 0.619608 0.588235 1
0.0719632 -0.00418513 -0.00135325 0.647059 0.619608 0.588235 1
0.103319 0.00814466 -0.0258708 0.647059 0.619608 0.588235 1
0.137125 -0.00973458 0.0185593 0.647059 0.619608 0.588235 3
0.0605495 -0.002 -0.00204332 0.647059 0.619608 0.588235 1
0.100539 -0.00775463 -0.0208305 0.647059 0.619608 0.588235 1
0.0298297 0.004 0.0105471 0.647059 0.619608 0.588235 1
0.117456 0.01 0.0126788 0.647059 0.619608 0.588235 3
-0.117166 -0.002 0.00196611 0.647059 0.619608 0.588235 1
-0.066463 -0.002 0.00781646 0.647059 0.619608 0.588235 1
-0.132799 -0.00074266 -0.015782 0.647059 0.619608 0.588235 1
0.0102963 -0.002 -0.00193412 0.647059 0.619608 0.588235 1
0.0220473 -0.00149225 0.0132027 0.647059 0.619608 0.588235 1
0.123369 -0.00494286 -0.0390318 0.647059 0.619608 0.588235 1
0.0522759 0.00121262 0.0127062 0.647059 0.619608 0.588235 1
-0.0401939 -0.002 0.00749314 0.647059 0.619608 0.588235 1
0.10474 0.01 0.0132848 0.647059 0.619608 0.588235 1
0.0895299 0.00945803 -0.00150274 0.647059 0.619608 0.588235 0
-0.00548383 -0.002 0.00197738 0.647059 0.619608 0.588235 1
0.085614 -0.00589459 -0.00586634 0.647059 0.619608 0.588235 0
0.0701888 -0.00402237 -0.00976657 0.647059 0.619608 0.588235 1
0.110965 0.00860755 0.0272222 0.647059 0.619608 0.588235 1
0.111306 0.01 0.0253939 0.647059 0.619608 0.588235 1
-0.0718513 0.002 -0.000123798 0.647059 0.619608 0.588235 1
-0.0973974 0.002 0.000735258 0.647059 0.619608 0.588235 1
-0.0497988 -0.00326947 0.0136551 0.647059 0.619608 0.588235 1
0.122602 -0.01 -0.0180726 0.647059 0.619608 0.588235 1
-0.0700178 -0.002 0.00446754 0.647059 0.619608 0.588235 1
0.0321712 0.00311513 0.007939 0.647059 0.619608 0.588235 1
0.143793 -0.003766 -0.0265933 0.647059 0.619608 0.588235 1
-0.132436 0.000272613 0.00802364 0.647059 0.619608 0.588235 1
-0.0392271 -0.00310444 0.0136348 0.647059 0.619608 0.588235 1
0.132449 0.01 0.0127805 0.647059 0.619608 0.588235 3
0.0855453 0.00522877 -0.0110031 0.647059 0.619608 0.588235 1
-0.00566218 0.00397588 0.01145 0.647059 0.619608 0.588235 1
0.0978402 0.00586634 0.0315099 0.647059 0.619608 0.588235 1
-0.0723133 -0.002 0.00349314 0.647059 0.619608 0.588235 1
-0.000146418 0.002 -0.00607531 0.647059 0.619608 0.588235 1
0.0677512 0.0040362 0.001943 0.647059 0.619608 0.588235 1
-0.118578 0.00388423 0.013778 0.647059 0.619608 0.588235 1
0.107308 0.01 0.011743 0.647059 0.619608 0.588235 1
-0.0783398 0.00049345 -0.014886 0.647059 0.619608 0.588235 1
0.144559 -0.00357973 -0.0256654 0.647059 0.619608 0.588235 1
-0.00414869 -0.00392372 0.0117167 0.647059 0.619608 0.588235 1
0.104653 0.00267656 -0.0365008 0.647059 0.619608 0.588235 1
0.128549 0.00388423 0.0241795 0.647059 0.619608 0.588235 3
-0.00798988 -0.00245804 0.0135122 0.647059 0.619608 0.588235 1
0.0758954 -0.00391623 0.0146879 0.647059 0.619608 0.588235 1
0.126566 0.01 -0.0311858 0.647059 0.619608 0.588235 1
0.0784758 -0.000554161 0.0167898 0.647059 0.619608 0.588235 1
0.117287 0.01 -0.0253355 0.647059 0.619608 0.588235 1
-0.061655 -0.00346929 0.0136348 0.647059 0.619608 0.588235 1
0.0232103 0.002 0.00473526 0.647059 0.619608 0.588235 1
0.106948 0.00827364 -0.035875 0.647059 0.619608 0.588235 1
-0.0782446 -0.002 -0.00728054 0.647059 0.619608 0.588235 1
-0.0469851 0.002 -0.00607531 0.647059 0.619608 0.588235 1
0.135012 0.00837481 0.0210382 0.647059 0.619608 0.588235 3
-0.124228 -0.004 -0.0029043 0.647059 0.619608 0.588235 1
0.0930909 0.00271571 0.0274967 0.647059 0.619608 0.588235 1
0.114445 -0.00548703 -0.0386164 0.647059 0.619608 0.588235 1
0.144538 0.00592676 -0.00784002 0.647059 0.619608 0.588235 1
-0.138572 -0.00198779 -0.00892944 0.647059 0.619608 0.588235 1
-0.0639911 0.00381041 0.0104942 0.647059 0.619608 0.588235 1
-0.0975404 0.0037951 -0.0136668 0.647059 0.619608 0.588235 1
-0.14645 -0.00388423 0.00991258 0.647059 0.619608 0.588235 1
0.112949 0.01 -0.0292094 0.647059 0.619608 0.588235 1
0.0123093 0.00334995 -0.0125343 0.647059 0.619608 0.588235 1
0.0197593 -0.002 0.000431518 0.647059 0.619608 0.588235 1
0.146924 0.00895635 0.0075683 0.647059 0.619608 0.588235 3
0.118204 0.00391623 -0.00193412 0.647059 0.619608 0.588235 1
0.0555048 0.0033154 0.00773874 0.647059 0.619608 0.588235 1
-0.0313929 0.00274547 -0.0137544 0.647059 0.619608 0.588235 1
-0.000123798 0.0039509 0.0115443 0.647059 0.619608 0.588235 1
0.143644 -0.00488378 -0.00806183 0.647059 0.619608 0.588235 1
-0.0125066 -0.00186707 -0.0137428 0.647059 0.619608 0.588235 1
-0.07222 0.00225226 -0.0146495 0.647059 0.619608 0.588235 1
0.107514 -0.00884362 -0.0325019 0.647059 0.619608 0.588235 1
0.0646763 0.004 -0.0100076 0.647059 0.619608 0.588235 1
0.0583124 -0.00158648 -0.0125954 0.647059 0.619608 0.588235 1
-0.0949672 -0.00325187 -0.0101769 0.647059 0.619608 0.588235 1
-0.101597 0.00397056 0.0117167 0.647059 0.619608 0.588235 1
0.130875 -0.00587612 0.0232201 0.647059 0.619608 0.588235 3
0.0942973 -0.00544427 0.0109374 0.647059 0.619608 0.588235 0
