ply
format ascii 1.0
comment Created by Open3D
element vertex 663
property float32 x
property float32 y
property float32 z
property float32 red
property float32 green
property float32 blue
property float32 volume
property uint8 segmentation
end_header
0.137864 -0.00742813 0.00971064 0.001462 0.000466 0.013866 4.97663e-06 0
0.136874 -0.00256946 0.00962527 0.001462 0.000466 0.013866 3.02067e-06 0
0.133593 -0.00750024 -0.00247903 0.001462 0.000466 0.013866 4.34685e-06 0
0.129762 -0.00177439 -0.00110027 0.001462 0.000466 0.013866 1.24233e-05 0
0.129625 -0.0146858 0.00809717 0.001462 0.000466 0.013866 2.07028e-06 0
0.147503 -0.01047 0.00821739 0.001462 0.000466 0.013866 7.24769e-07 0
0.14825 -0.00108268 0.00331285 0.001462 0.000466 0.013866 2.16193e-06 0
0.150828 -0.00851286 0.00293044 0.001462 0.000466 0.013866 6.70908e-07 0
0.137021 0.00498942 0.00408803 0.001462 0.000466 0.013866 6.49849e-06 0
0.151097 -0.0016155 0.0025868 0.001462 0.000466 0.013866 3.27726e-07 0
0.146206 -0.011852 0.00693053 0.001462 0.000466 0.013866 1.16349e-06 0
0.141231 0.00110917 -0.000751009 0.001462 0.000466 0.013866 5.3133e-06 0
0.146215 -0.0115875 0.0115098 0.001462 0.000466 0.013866 9.92355e-07 0
0.150584 -0.00440822 0.00885715 0.001462 0.000466 0.013866 1.05391e-06 0
0.144367 -0.00549651 0.00322459 0.001462 0.000466 0.013866 2.64717e-06 0
0.141634 0.00324895 0.00681223 0.001462 0.000466 0.013866 1.27464e-05 0
0.142117 -0.00072354 0.00895581 0.001462 0.000466 0.013866 5.0287e-06 0
0.149779 -0.00267126 0.00455709 0.001462 0.000466 0.013866 1.82722e-06 0
0.150662 -0.00681994 0.00651591 0.001462 0.000466 0.013866 1.05391e-06 0
0.148364 0.00576286 0.00152177 0.001462 0.000466 0.013866 1.12321e-06 0
0.143367 -0.0130033 0.0092784 0.001462 0.000466 0.013866 2.09051e-06 0
0.149248 -0.0115118 0.0071983 0.001462 0.000466 0.013866 5.15666e-07 0
0.15014 0.00143903 0.00158156 0.001462 0.000466 0.013866 5.35857e-07 0
0.146588 0.00403277 0.0129368 0.001462 0.000466 0.013866 4.49498e-06 0
0.148733 0.00454857 0.00386478 0.001462 0.000466 0.013866 1.23251e-06 0
0.149892 0.00839114 0.00443025 0.001462 0.000466 0.013866 1.93609e-06 0
0.15059 -0.00424107 0.00123359 0.001462 0.000466 0.013866 2.65145e-07 0
0.150188 0.00421197 0.00180524 0.001462 0.000466 0.013866 5.52041e-07 0
0.148142 0.0114578 0.00366176 0.001462 0.000466 0.013866 3.3216e-07 0
0.149216 0.000576074 0.00600836 0.001462 0.000466 0.013866 2.01995e-06 0
0.148511 0.0102435 0.00600477 0.001462 0.000466 0.013866 4.05073e-06 0
0.144437 0.00663524 0.00947111 0.001462 0.000466 0.013866 1.05615e-05 0
0.152176 0.00673413 0.00584657 0.001462 0.000466 0.013866 5.24532e-07 0
0.149855 0.00615588 0.00423594 0.001462 0.000466 0.013866 1.43546e-06 0
0.149993 0.010406 0.0100006 0.001462 0.000466 0.013866 2.18218e-06 0
0.145128 0.00298172 0.00378542 0.001462 0.000466 0.013866 5.65654e-06 0
0.149567 -2.69236e-05 0.00134256 0.001462 0.000466 0.013866 2.67928e-07 0
0.147672 0.00982773 0.00838999 0.001462 0.000466 0.013866 2.16457e-06 0
0.149858 -0.00844001 0.00824337 0.001462 0.000466 0.013866 1.29395e-06 0
0.147951 -0.0128937 0.00591144 0.001462 0.000466 0.013866 5.27592e-07 0
0.142205 -0.00475467 -0.000715449 0.001462 0.000466 0.013866 4.468e-06 0
0.150679 -0.00225689 0.00797837 0.001462 0.000466 0.013866 2.11811e-06 0
0.144645 -0.00264953 0.00323349 0.001462 0.000466 0.013866 1.76408e-06 0
0.149272 -0.00529683 0.00320388 0.001462 0.000466 0.013866 1.41382e-06 0
0.145611 -0.000990771 0.005929 0.001462 0.000466 0.013866 4.36056e-06 0
0.149781 -0.00602828 0.0105846 0.001462 0.000466 0.013866 1.29395e-06 0
0.14873 -0.00982284 0.00673836 0.001462 0.000466 0.013866 9.96644e-07 0
0.147465 -0.00655524 0.00195073 0.001462 0.000466 0.013866 1.35424e-06 0
0.15064 -0.000275293 0.00944829 0.001462 0.000466 0.013866 1.10079e-06 0
0.147274 -0.00872957 0.00269638 0.001462 0.000466 0.013866 9.32089e-07 0
0.149082 -0.00747116 0.00394953 0.001462 0.000466 0.013866 7.53734e-07 0
0.145653 -0.0107887 0.00434392 0.001462 0.000466 0.013866 1.18023e-06 0
0.149533 -0.00820278 0.0050109 0.001462 0.000466 0.013866 9.49135e-07 0
0.142483 -0.00190768 -0.000706547 0.001462 0.000466 0.013866 3.84055e-06 0
0.12488 0.00977662 0.018569 0.001462 0.000466 0.013866 4.44662e-06 0
0.13957 0.00969748 0.0162874 0.001462 0.000466 0.013866 8.20243e-06 0
0.124068 0.013117 0.00863507 0.001462 0.000466 0.013866 1.23618e-05 0
0.127256 0.014591 -0.000222684 0.001462 0.000466 0.013866 2.24702e-06 0
0.122411 0.0114203 -0.000459266 0.001462 0.000466 0.013866 8.62853e-06 0
0.121843 0.00863177 0.00415638 0.001462 0.000466 0.013866 8.23465e-06 0
0.141606 0.0143598 0.0147714 0.001462 0.000466 0.013866 2.01863e-06 0
0.12614 0.00262355 0.0126807 0.001462 0.000466 0.013866 8.02224e-07 0
0.131946 0.00419659 0.016113 0.001462 0.000466 0.013866 1.39521e-06 0
0.136337 0.0110799 0.0175296 0.001462 0.000466 0.013866 1.91592e-06 0
0.14059 0.0113311 0.012586 0.001462 0.000466 0.013866 9.46459e-06 0
0.140586 0.0127262 0.0184728 0.001462 0.000466 0.013866 1.65219e-06 0
0.129066 7.23088e-05 0.0131788 0.001462 0.000466 0.013866 6.66721e-07 0
0.13642 0.0129411 0.010171 0.001462 0.000466 0.013866 7.6948e-06 0
0.127309 0.00806733 0.021661 0.001462 0.000466 0.013866 6.01268e-06 0
0.142687 0.00970194 0.00870262 0.001462 0.000466 0.013866 9.33564e-06 0
0.136514 0.00440823 0.022495 0.001462 0.000466 0.013866 1.09315e-05 0
0.123142 0.00265722 0.0144546 0.001462 0.000466 0.013866 1.00103e-06 0
0.132707 0.0129582 0.0120947 0.001462 0.000466 0.013866 2.92897e-06 0
0.136123 0.0116943 0.0063034 0.001462 0.000466 0.013866 7.91091e-06 0
0.13881 0.00992188 0.00472255 0.001462 0.000466 0.013866 7.61323e-06 0
0.128639 0.00273433 0.00853842 0.001462 0.000466 0.013866 1.55322e-06 0
0.125416 0.00279391 0.00841838 0.001462 0.000466 0.013866 3.15898e-06 0
0.129665 0.0085614 0.00726449 0.001462 0.000466 0.013866 7.97676e-06 0
0.12799 0.00180742 0.0136111 0.001462 0.000466 0.013866 3.23123e-07 0
0.127846 0.00447483 0.00885465 0.001462 0.000466 0.013866 2.54316e-06 0
0.122423 0.00825896 -0.00373679 0.001462 0.000466 0.013866 1.70732e-05 0
0.122634 0.00666826 0.0155414 0.001462 0.000466 0.013866 3.66988e-06 0
0.125712 0.00989089 0.0122958 0.001462 0.000466 0.013866 7.85192e-06 0
0.130704 0.00986014 0.0120531 0.001462 0.000466 0.013866 2.93852e-06 0
0.134334 0.00798184 0.017488 0.001462 0.000466 0.013866 3.46776e-06 0
0.124993 0.00184109 0.0153851 0.001462 0.000466 0.013866 4.032e-07 0
0.126687 0.0118025 0.00439296 0.001462 0.000466 0.013866 9.90144e-06 0
0.121913 0.000896654 0.0138443 0.001462 0.000466 0.013866 1.34943e-06 0
0.132788 0.00953596 0.0156984 0.001462 0.000466 0.013866 2.28509e-06 0
0.131293 0.00971686 0.0143556 0.001462 0.000466 0.013866 1.00565e-06 0
0.12796 0.00671012 0.0110905 0.001462 0.000466 0.013866 3.02185e-06 0
0.131324 0.0110624 0.0220725 0.001462 0.000466 0.013866 6.45076e-06 0
0.127399 0.0129526 0.0176376 0.001462 0.000466 0.013866 3.81534e-06 0
0.130664 0.0128005 0.0186178 0.001462 0.000466 0.013866 4.23602e-06 0
0.134516 0.00945332 0.0217853 0.001462 0.000466 0.013866 6.46736e-06 0
0.13231 0.0127456 0.016541 0.001462 0.000466 0.013866 1.75858e-06 0
0.128456 0.0130409 0.0132584 0.001462 0.000466 0.013866 4.27619e-06 0
0.131825 0.00182463 0.00670438 0.001462 0.000466 0.013866 9.79188e-06 0
0.123355 -0.00831771 0.0150317 0.001462 0.000466 0.013866 1.63054e-06 0
0.124849 -0.00518812 0.0114953 0.001462 0.000466 0.013866 8.6918e-07 0
0.113708 -0.0129082 0.0212013 0.001462 0.000466 0.013866 4.09911e-06 0
0.118373 -0.00803724 0.0237738 0.001462 0.000466 0.013866 3.29094e-06 0
0.117543 -0.00514162 0.0142908 0.001462 0.000466 0.013866 1.85722e-06 0
0.103858 -0.0129153 0.0257479 0.001462 0.000466 0.013866 9.86229e-06 0
0.107198 -0.0114549 0.016988 0.001462 0.000466 0.013866 6.09226e-06 0
0.114122 -0.0145853 0.010487 0.001462 0.000466 0.013866 3.22391e-06 0
0.111538 -0.00814526 0.0230968 0.001462 0.000466 0.013866 7.76839e-06 0
0.116655 -0.0113663 0.0163486 0.001462 0.000466 0.013866 2.77191e-06 0
0.110894 -0.0113491 0.00756283 0.001462 0.000466 0.013866 4.0044e-06 0
0.123731 -0.00162413 0.0147909 0.001462 0.000466 0.013866 2.71656e-07 0
0.108073 -0.00144035 0.006453 0.001462 0.000466 0.013866 3.93466e-06 0
0.12008 -0.0101549 0.00403215 0.001462 0.000466 0.013866 8.74081e-06 0
0.120484 -0.00523633 0.0111582 0.001462 0.000466 0.013866 7.77044e-07 0
0.103627 -0.0129585 0.0185915 0.001462 0.000466 0.013866 3.74635e-06 0
0.12046 -0.0146822 0.0111798 0.001462 0.000466 0.013866 7.84997e-07 0
0.100195 -0.0125414 0.0176431 0.001462 0.000466 0.013866 1.26717e-06 0
0.108033 -0.00655329 0.00607729 0.001462 0.000466 0.013866 6.09969e-06 0
0.117117 -0.0097269 0.0205888 0.001462 0.000466 0.013866 2.2959e-06 0
0.132246 -0.0124811 0.01803 0.001462 0.000466 0.013866 3.97614e-06 0
0.118606 -0.0113854 0.0152666 0.001462 0.000466 0.013866 4.92721e-07 0
0.1193 -0.0131351 0.0129793 0.001462 0.000466 0.013866 5.00214e-07 0
0.125213 -0.00251399 0.0150293 0.001462 0.000466 0.013866 1.244e-06 0
0.115249 -0.00512707 0.0149373 0.001462 0.000466 0.013866 9.28612e-07 0
0.114018 -0.0129334 0.0285896 0.001462 0.000466 0.013866 3.50113e-06 0
0.114964 -0.0112185 0.0243862 0.001462 0.000466 0.013866 7.30484e-06 0
0.121928 -0.0147132 0.00882754 0.001462 0.000466 0.013866 1.74782e-06 0
0.117109 -0.0098986 0.00911232 0.001462 0.000466 0.013866 3.9811e-06 0
0.109404 -0.00526626 0.0150175 0.001462 0.000466 0.013866 2.269e-06 0
0.124292 -0.0146899 0.011885 0.001462 0.000466 0.013866 2.22474e-06 0
0.111941 -0.00254821 0.0184943 0.001462 0.000466 0.013866 9.57926e-07 0
0.127202 -0.00971645 0.0180243 0.001462 0.000466 0.013866 2.53708e-06 0
0.118457 -0.00174951 0.0141481 0.001462 0.000466 0.013866 2.11505e-06 0
0.117943 -0.012891 0.0192584 0.001462 0.000466 0.013866 3.61819e-06 0
0.110432 -0.0017441 0.010616 0.001462 0.000466 0.013866 1.74739e-06 0
0.113295 1.01985e-05 0.0131489 0.001462 0.000466 0.013866 1.09956e-06 0
0.110592 -0.00986016 0.0273003 0.001462 0.000466 0.013866 9.43013e-06 0
0.123258 -0.0114559 0.0154881 0.001462 0.000466 0.013866 3.33621e-06 0
0.106953 -0.00839374 0.0144462 0.001462 0.000466 0.013866 5.37936e-06 0
0.103377 -0.0127269 0.0109204 0.001462 0.000466 0.013866 1.72649e-06 0
0.126127 -0.00836685 0.0135985 0.001462 0.000466 0.013866 3.56566e-06 0
0.11005 -0.0145454 0.015458 0.001462 0.000466 0.013866 3.34115e-06 0
0.116271 -0.00574006 0.029635 0.001462 0.000466 0.013866 5.56331e-06 0
0.124072 -0.012857 0.0209862 0.001462 0.000466 0.013866 2.26417e-06 0
0.11983 -0.00679403 0.0137738 0.001462 0.000466 0.013866 1.89679e-06 0
0.118237 -0.00689138 0.0120035 0.001462 0.000466 0.013866 1.24158e-06 0
0.107729 -0.0115177 0.0281975 0.001462 0.000466 0.013866 4.04396e-06 0
0.112178 -0.0145941 0.00747425 0.001462 0.000466 0.013866 2.2303e-06 0
0.112365 -0.00967174 5.65719e-05 0.001462 0.000466 0.013866 7.82505e-06 0
0.122105 -0.00083392 0.0157544 0.001462 0.000466 0.013866 7.49188e-07 0
0.118445 -0.0131344 0.0109535 0.001462 0.000466 0.013866 2.35651e-06 0
0.126503 -0.00167328 0.0133577 0.001462 0.000466 0.013866 4.85058e-07 0
0.128125 -0.00739717 0.0208367 0.001462 0.000466 0.013866 1.1083e-05 0
0.131028 -0.0101628 0.0224239 0.001462 0.000466 0.013866 2.07908e-06 0
0.103221 -0.00964269 0.0139135 0.001462 0.000466 0.013866 2.69775e-06 0
0.119894 -0.0129101 0.0181764 0.001462 0.000466 0.013866 2.45792e-06 0
0.122206 -0.0128958 0.0193041 0.001462 0.000466 0.013866 5.30399e-06 0
0.114038 -0.0113605 0.00713605 0.001462 0.000466 0.013866 4.38701e-06 0
0.131222 -0.0129041 0.0163196 0.001462 0.000466 0.013866 2.12727e-06 0
0.115829 -0.0082022 0.0176791 0.001462 0.000466 0.013866 1.90768e-06 0
0.113026 -0.014567 0.0135948 0.001462 0.000466 0.013866 2.90708e-06 0
0.116497 -0.00167636 0.0166445 0.001462 0.000466 0.013866 8.23532e-07 0
0.110374 -0.00183704 0.0127434 0.001462 0.000466 0.013866 1.08067e-06 0
0.109309 -0.00964486 0.00374307 0.001462 0.000466 0.013866 5.42743e-06 0
0.11511 -0.0129231 0.00207684 0.001462 0.000466 0.013866 6.78898e-06 0
0.116162 -0.00173497 0.0147946 0.001462 0.000466 0.013866 1.05752e-06 0
0.125434 -0.00661709 0.0158858 0.001462 0.000466 0.013866 4.18664e-06 0
0.125446 -0.00259765 0.0121109 0.001462 0.000466 0.013866 4.44449e-07 0
0.11424 -0.0129138 0.0319866 0.001462 0.000466 0.013866 3.64291e-07 0
0.111155 -0.0145909 0.0294869 0.001462 0.000466 0.013866 4.94552e-06 0
0.121868 -0.0111724 0.0242215 0.001462 0.000466 0.013866 6.65026e-06 0
0.125028 -0.00885216 0.025382 0.001462 0.000466 0.013866 1.07178e-05 0
0.12968 -0.0114799 0.013505 0.001462 0.000466 0.013866 6.35742e-06 0
0.111595 -0.00524718 0.0130079 0.001462 0.000466 0.013866 9.28612e-07 0
0.127897 -0.0133033 0.0253858 0.001462 0.000466 0.013866 1.85143e-06 0
0.12467 -0.0120418 0.0269107 0.001462 0.000466 0.013866 3.02649e-07 0
0.111799 -0.0051849 0.0170265 0.001462 0.000466 0.013866 1.51407e-06 0
0.119733 -0.00993225 0.0142301 0.001462 0.000466 0.013866 3.80475e-06 0
0.109618 -0.00825755 0.00989705 0.001462 0.000466 0.013866 4.47964e-06 0
0.115583 -0.00506847 0.0167872 0.001462 0.000466 0.013866 7.54932e-07 0
0.116001 -0.0067839 0.0105226 0.001462 0.000466 0.013866 1.72375e-06 0
0.121617 -0.0148995 -0.000631935 0.001462 0.000466 0.013866 2.29142e-06 0
0.118813 -0.0116326 -0.000120845 0.001462 0.000466 0.013866 8.81923e-06 0
0.111653 -0.00515424 0.0108806 0.001462 0.000466 0.013866 1.42024e-06 0
0.107353 -0.0145391 0.0139949 0.001462 0.000466 0.013866 1.30712e-06 0
0.110217 -0.00830611 0.0186036 0.001462 0.000466 0.013866 4.53813e-06 0
0.107108 -0.011478 0.0114531 0.001462 0.000466 0.013866 3.23868e-06 0
0.11242 -0.0113835 0.0182915 0.001462 0.000466 0.013866 2.91628e-06 0
0.108436 0.000265528 0.0100082 0.001462 0.000466 0.013866 1.49171e-06 0
0.10515 0.000103419 0.0154186 0.001462 0.000466 0.013866 5.7389e-07 0
0.101399 0.000509557 0.0142607 0.001462 0.000466 0.013866 7.14928e-06 0
0.110333 -0.000764306 0.016769 0.001462 0.000466 0.013866 2.46118e-06 0
0.113384 0.00107926 0.0150059 0.001462 0.000466 0.013866 1.83997e-06 0
0.110143 0.00286049 0.0180944 0.001462 0.000466 0.013866 1.23372e-06 0
0.108021 0.00102813 0.0181671 0.001462 0.000466 0.013866 3.08584e-06 0
0.108183 -0.00185612 0.0147529 0.001462 0.000466 0.013866 2.59453e-06 0
0.105936 0.00196869 0.0157023 0.001462 0.000466 0.013866 1.52346e-06 0
0.106421 0.000116207 0.0133395 0.001462 0.000466 0.013866 1.16866e-06 0
0.0978761 -0.00908311 0.0165021 0.001462 0.000466 0.013866 8.30008e-06 0
0.0891156 -0.0108493 0.00766639 0.001462 0.000466 0.013866 6.10057e-06 0
0.0952854 -0.0152271 0.00659574 0.001462 0.000466 0.013866 2.1302e-07 0
0.102455 -0.0124502 0.00856668 0.001462 0.000466 0.013866 3.52524e-06 0
0.0887148 -0.0143239 0.00489015 0.001462 0.000466 0.013866 1.16325e-06 0
0.100564 -0.0155237 0.0073237 0.001462 0.000466 0.013866 3.7629e-07 0
0.090931 -0.0148565 0.00465504 0.001462 0.000466 0.013866 4.29354e-07 0
0.08817 -0.0110629 0.0117987 0.001462 0.000466 0.013866 2.82436e-06 0
0.0964559 -0.00878214 0.0119335 0.001462 0.000466 0.013866 3.74543e-06 0
0.0966325 -0.008779 0.00995755 0.001462 0.000466 0.013866 4.04094e-06 0
0.0968999 -0.0150562 0.00771946 0.001462 0.000466 0.013866 4.0977e-07 0
0.0999644 -0.00616546 0.0145309 0.001462 0.000466 0.013866 8.51262e-06 0
0.10303 -0.0124283 0.00618596 0.001462 0.000466 0.013866 1.19791e-06 0
0.0863747 -0.0100962 0.00522257 0.001462 0.000466 0.013866 7.62189e-06 0
0.0893535 -0.00661837 -0.00679154 0.001462 0.000466 0.013866 6.70033e-06 0
0.0936666 -0.0145824 0.00446019 0.001462 0.000466 0.013866 7.36818e-07 0
0.0859739 -0.0135708 0.00244634 0.001462 0.000466 0.013866 1.07872e-06 0
0.0931229 -0.0112078 0.00657902 0.001462 0.000466 0.013866 6.36354e-06 0
0.0855867 -0.00609174 -0.00537546 0.001462 0.000466 0.013866 1.14741e-05 0
0.0987907 -0.0119826 0.00896244 0.001462 0.000466 0.013866 3.93466e-06 0
0.101203 -0.00151916 0.0168781 0.001462 0.000466 0.013866 5.17959e-06 0
0.0954147 -0.0150429 0.0036459 0.001462 0.000466 0.013866 1.73398e-07 0
0.0967618 -0.00859479 0.00700771 0.001462 0.000466 0.013866 8.121e-06 0
0.0880407 -0.00599489 -0.0106028 0.001462 0.000466 0.013866 1.52582e-05 0
0.101659 -0.0126912 0.0160653 0.001462 0.000466 0.013866 2.6503e-06 0
0.0819985 5.45163e-05 -0.00430073 0.001462 0.000466 0.013866 4.35941e-06 0
0.0926791 -0.015317 0.00384075 0.001462 0.000466 0.013866 3.89882e-07 0
0.0875973 -0.00281995 0.00362239 0.001462 0.000466 0.013866 2.83569e-05 0
0.0859625 -0.0131883 -0.00154488 0.001462 0.000466 0.013866 1.48572e-06 0
0.0987319 -0.00564471 0.00569658 0.001462 0.000466 0.013866 1.30236e-05 0
0.0951088 -0.0152302 0.00857172 0.001462 0.000466 0.013866 1.14342e-07 0
0.0943676 -0.0116998 0.0139047 0.001462 0.000466 0.013866 4.20026e-06 0
0.0824571 -0.00937354 0.00895319 0.001462 0.000466 0.013866 6.21223e-06 0
0.0920194 0.00368997 0.00415988 0.001462 0.000466 0.013866 2.38354e-05 0
0.0903805 0.010235 0.0122281 0.001462 0.000466 0.013866 1.63083e-06 0
0.0866721 0.00920965 0.0170117 0.001462 0.000466 0.013866 8.195e-06 0
0.0860794 -0.0106054 0.0137364 0.001462 0.000466 0.013866 3.22106e-06 0
0.0701783 0.00870569 0.0114338 0.001462 0.000466 0.013866 6.96271e-06 0
0.0736193 -0.00513106 0.0013088 0.001462 0.000466 0.013866 6.65286e-06 0
0.0755781 -0.00528802 0.00466814 0.001462 0.000466 0.013866 1.53618e-05 0
0.0905775 0.0145012 0.013243 0.001462 0.000466 0.013866 8.45401e-07 0
0.0831075 -0.00966919 0.0133347 0.001462 0.000466 0.013866 4.71165e-06 0
0.0663352 -0.00195897 0.010297 0.001462 0.000466 0.013866 2.0553e-06 0
0.0766049 -0.00675006 0.019161 0.001462 0.000466 0.013866 2.66695e-06 0
0.0627659 -0.00813266 0.0124065 0.001462 0.000466 0.013866 3.44673e-06 0
0.0800221 0.00229853 0.0115307 0.001462 0.000466 0.013866 2.23564e-05 0
0.0840091 0.00332631 0.00469711 0.001462 0.000466 0.013866 2.19816e-05 0
0.0650202 -0.0049861 0.0133686 0.001462 0.000466 0.013866 2.00534e-06 0
0.0698453 9.40163e-05 0.00670594 0.001462 0.000466 0.013866 9.45803e-06 0
0.0809135 -0.00322389 0.00752238 0.001462 0.000466 0.013866 2.44466e-05 0
0.0832325 0.00694825 -0.00190969 0.001462 0.000466 0.013866 1.7265e-05 0
0.0662255 -0.00695551 0.00899598 0.001462 0.000466 0.013866 2.28174e-06 0
0.0684545 0.00341282 0.0098367 0.001462 0.000466 0.013866 6.59176e-06 0
0.0729629 -0.00505847 0.00707929 0.001462 0.000466 0.013866 3.78048e-06 0
0.0662587 -0.00681409 0.0111493 0.001462 0.000466 0.013866 1.44041e-06 0
0.0705431 0.00262186 0.0117422 0.001462 0.000466 0.013866 1.4393e-05 0
0.0754476 0.00454412 0.0124042 0.001462 0.000466 0.013866 7.09441e-06 0
0.0877372 -0.0108141 0.0173676 0.001462 0.000466 0.013866 3.30224e-06 0
0.091636 -0.0115483 0.0146429 0.001462 0.000466 0.013866 4.07669e-06 0
0.0822923 0.00826725 0.0113368 0.001462 0.000466 0.013866 1.03216e-05 0
0.0883019 0.0104966 0.00966998 0.001462 0.000466 0.013866 3.7556e-06 0
0.0912058 0.0108165 0.00959665 0.001462 0.000466 0.013866 5.36989e-06 0
0.090028 -0.0114952 0.0181169 0.001462 0.000466 0.013866 1.32776e-06 0
0.0918361 -0.011772 0.0173299 0.001462 0.000466 0.013866 2.49774e-06 0
0.093276 0.0107013 0.00762334 0.001462 0.000466 0.013866 8.5168e-06 0
0.0994963 -0.0127787 0.0213903 0.001462 0.000466 0.013866 1.16094e-06 0
0.0963584 -0.00723788 0.0300162 0.001462 0.000466 0.013866 3.06491e-06 0
0.0978931 -0.0110029 0.0289815 0.001462 0.000466 0.013866 4.80108e-06 0
0.0971627 -0.012371 0.0219967 0.001462 0.000466 0.013866 3.41531e-06 0
0.10657 0.00200468 0.0357348 0.001462 0.000466 0.013866 6.03404e-06 0
0.0982067 0.00481168 0.0387985 0.001462 0.000466 0.013866 7.52924e-07 0
0.0890232 -0.00780386 0.0253094 0.001462 0.000466 0.013866 3.90217e-06 0
0.0898087 -0.00969885 0.0302634 0.001462 0.000466 0.013866 1.02681e-06 0
0.0915346 -0.00741491 0.0324502 0.001462 0.000466 0.013866 2.16557e-06 0
0.0841004 -0.0114197 0.022519 0.001462 0.000466 0.013866 2.95049e-07 0
0.112855 -0.00272598 0.031146 0.001462 0.000466 0.013866 8.73082e-06 0
0.0847158 -0.00877406 0.0200972 0.001462 0.000466 0.013866 2.89546e-06 0
0.101994 -0.0129143 0.0283643 0.001462 0.000466 0.013866 2.31148e-06 0
0.0923949 -0.0117705 0.0193343 0.001462 0.000466 0.013866 7.09303e-07 0
0.0945005 -0.00592606 0.0286541 0.001462 0.000466 0.013866 1.17323e-05 0
0.101829 -0.0129222 0.0219609 0.001462 0.000466 0.013866 3.43228e-06 0
0.098567 -0.0125488 0.0267796 0.001462 0.000466 0.013866 1.8365e-06 0
0.100595 -0.00073503 0.0297213 0.001462 0.000466 0.013866 7.22744e-06 0
0.0894803 -0.00986632 0.0241391 0.001462 0.000466 0.013866 2.01074e-06 0
0.112811 -0.00435237 0.0267622 0.001462 0.000466 0.013866 7.6753e-06 0
0.0938544 -0.0152114 0.0220864 0.001462 0.000466 0.013866 1.60072e-07 0
0.0962904 -0.0121294 0.0243796 0.001462 0.000466 0.013866 2.11521e-06 0
0.102302 -0.00996038 0.0308399 0.001462 0.000466 0.013866 1.16794e-05 0
0.102761 0.00413719 0.0360296 0.001462 0.000466 0.013866 9.74813e-06 0
0.0964453 -0.000624243 0.0217767 0.001462 0.000466 0.013866 9.58971e-06 0
0.0948309 -0.00868854 0.0216275 0.001462 0.000466 0.013866 5.31232e-06 0
0.0937731 -0.00622106 0.023472 0.001462 0.000466 0.013866 1.23922e-05 0
0.101612 0.00584731 0.0405878 0.001462 0.000466 0.013866 4.92765e-07 0
0.0979839 -0.00407269 0.0333233 0.001462 0.000466 0.013866 8.79824e-06 0
0.0867114 -0.00934582 0.0212941 0.001462 0.000466 0.013866 2.24596e-06 0
0.102587 -0.00641103 0.0333428 0.001462 0.000466 0.013866 1.65862e-05 0
0.0810863 -0.00560704 0.018175 0.001462 0.000466 0.013866 6.93078e-06 0
0.0943951 0.00383821 0.0306073 0.001462 0.000466 0.013866 5.23655e-06 0
0.108122 -0.0032181 0.0337709 0.001462 0.000466 0.013866 1.9429e-05 0
0.0957033 -0.00893014 0.0192447 0.001462 0.000466 0.013866 5.49723e-06 0
0.0971727 -0.000329241 0.0269588 0.001462 0.000466 0.013866 6.37055e-06 0
0.0821689 -0.00890105 0.0164433 0.001462 0.000466 0.013866 2.52811e-06 0
0.106535 0.00535582 0.0347613 0.001462 0.000466 0.013866 9.45144e-06 0
0.110634 0.000144104 0.0229196 0.001462 0.000466 0.013866 5.02172e-06 0
0.108587 0.000416638 0.0409643 0.001462 0.000466 0.013866 2.14058e-06 0
0.112742 -0.00671764 0.0267675 0.001462 0.000466 0.013866 8.5311e-07 0
0.105865 -0.0115168 0.0308139 0.001462 0.000466 0.013866 3.36556e-06 0
0.109785 -0.00295733 0.0391946 0.001462 0.000466 0.013866 4.28905e-06 0
0.115409 -0.00555698 0.0352183 0.001462 0.000466 0.013866 2.14249e-06 0
0.106914 -0.00654813 0.0401851 0.001462 0.000466 0.013866 2.66359e-06 0
0.105563 -0.0134035 0.0360286 0.001462 0.000466 0.013866 1.87192e-06 0
0.114518 -0.00246521 0.0365696 0.001462 0.000466 0.013866 1.00331e-06 0
0.102285 -0.00829774 0.0385575 0.001462 0.000466 0.013866 4.83659e-06 0
0.102001 -0.0118471 0.0360546 0.001462 0.000466 0.013866 3.48072e-06 0
0.0876952 -0.0104075 0.0200463 0.001462 0.000466 0.013866 2.3665e-06 0
0.0854911 -0.00679186 0.0231909 0.001462 0.000466 0.013866 3.93864e-06 0
0.0904641 -0.010928 0.0228913 0.001462 0.000466 0.013866 1.89203e-06 0
0.0944088 0.00672302 0.0299029 0.001462 0.000466 0.013866 2.01781e-06 0
0.0952427 0.0107293 0.0346057 0.001462 0.000466 0.013866 8.20568e-08 0
0.0716377 -0.00597912 0.0134207 0.001462 0.000466 0.013866 1.90615e-06 0
0.085294 -0.0015153 0.0250887 0.001462 0.000466 0.013866 3.51726e-06 0
0.0928543 0.00191187 0.0297104 0.001462 0.000466 0.013866 4.4057e-06 0
0.0722668 0.00791473 0.0133393 0.001462 0.000466 0.013866 1.21441e-06 0
0.0832827 0.0124624 0.0171368 0.001462 0.000466 0.013866 5.34299e-07 0
0.0963383 0.0100286 0.0362285 0.001462 0.000466 0.013866 1.37693e-07 0
0.0768559 0.00731757 0.0200778 0.001462 0.000466 0.013866 1.51008e-06 0
0.0993554 0.00310157 0.0342403 0.001462 0.000466 0.013866 1.17026e-05 0
0.0746414 -0.0024306 0.0188097 0.001462 0.000466 0.013866 4.52949e-06 0
0.086554 0.0121085 0.0237959 0.001462 0.000466 0.013866 3.96297e-07 0
0.0974734 0.00543369 0.0323747 0.001462 0.000466 0.013866 7.09258e-06 0
0.0961284 0.00874152 0.0302809 0.001462 0.000466 0.013866 4.08024e-07 0
0.0684569 -0.00260852 0.0143559 0.001462 0.000466 0.013866 2.1351e-06 0
0.0871891 0.00856355 0.0209169 0.001462 0.000466 0.013866 7.73414e-06 0
0.0922449 0.00433844 0.0236931 0.001462 0.000466 0.013866 8.94032e-06 0
0.0963246 0.00714381 0.0369329 0.001462 0.000466 0.013866 4.6296e-07 0
0.0830856 0.00819611 0.0161219 0.001462 0.000466 0.013866 5.20473e-06 0
0.0927032 -0.00235509 0.0291987 0.001462 0.000466 0.013866 3.87756e-06 0
0.0803077 -0.000280478 0.0170752 0.001462 0.000466 0.013866 1.56142e-05 0
0.0672184 -0.000780519 0.0165751 0.001462 0.000466 0.013866 2.71359e-06 0
0.0695903 0.00187085 0.019506 0.001462 0.000466 0.013866 4.76381e-07 0
0.0919758 -0.00265009 0.0240166 0.001462 0.000466 0.013866 5.74445e-06 0
0.0921269 0.00161687 0.0245283 0.001462 0.000466 0.013866 6.15191e-06 0
0.0840617 0.00502596 0.022132 0.001462 0.000466 0.013866 7.73092e-06 0
0.0718351 -0.00052684 0.0202155 0.001462 0.000466 0.013866 2.42712e-06 0
0.0929861 0.00751825 0.0281708 0.001462 0.000466 0.013866 4.58849e-06 0
0.0814303 0.00507198 0.0192043 0.001462 0.000466 0.013866 5.62632e-06 0
0.0725247 -0.00930548 0.0150076 0.001462 0.000466 0.013866 3.04907e-07 0
0.0978987 0.00899216 0.0314801 0.001462 0.000466 0.013866 4.70748e-06 0
0.0752159 -0.00945662 0.0169334 0.001462 0.000466 0.013866 5.30015e-07 0
0.0737239 -0.000748747 0.0108071 0.001462 0.000466 0.013866 1.26711e-05 0
0.0757333 0.00196512 0.0179487 0.001462 0.000466 0.013866 6.17705e-06 0
0.0722696 -0.00508197 0.0158788 0.001462 0.000466 0.013866 3.47173e-06 0
0.0694632 -0.00317821 0.0172846 0.001462 0.000466 0.013866 3.48894e-06 0
0.0835592 -0.00407427 0.0224256 0.001462 0.000466 0.013866 8.29609e-06 0
0.0857995 0.000902844 0.0254062 0.001462 0.000466 0.013866 4.57651e-06 0
0.0859175 0.00362442 0.024571 0.001462 0.000466 0.013866 6.37243e-06 0
0.085232 0.00944881 0.00772788 0.001462 0.000466 0.013866 1.05504e-05 0
0.105903 0.00676076 0.0155781 0.001462 0.000466 0.013866 2.48055e-06 0
0.105213 0.00797047 -0.00416183 0.001462 0.000466 0.013866 6.11006e-06 0
0.0959975 0.00262724 -0.00324525 0.001462 0.000466 0.013866 2.77702e-05 0
0.11402 0.00994224 0.00837392 0.001462 0.000466 0.013866 3.99451e-06 0
0.103066 0.00760578 -0.0021546 0.001462 0.000466 0.013866 4.46716e-06 0
0.105996 0.0128971 0.0268263 0.001462 0.000466 0.013866 9.86547e-06 0
0.0994038 0.015097 0.0292273 0.001462 0.000466 0.013866 1.152e-06 0
0.0980319 0.0121049 0.018577 0.001462 0.000466 0.013866 5.83295e-06 0
0.100456 0.0141392 0.0324454 0.001462 0.000466 0.013866 2.30702e-06 0
0.09987 0.0109499 0.0284524 0.001462 0.000466 0.013866 5.64437e-06 0
0.0963792 0.0118047 0.0244921 0.001462 0.000466 0.013866 3.70462e-06 0
0.11729 0.00996577 0.00581074 0.001462 0.000466 0.013866 4.52633e-06 0
0.104326 0.0126376 0.0124612 0.001462 0.000466 0.013866 7.56558e-06 0
0.113548 0.00285524 0.0161371 0.001462 0.000466 0.013866 9.55033e-07 0
0.092918 0.00922828 0.0271403 0.001462 0.000466 0.013866 1.24909e-06 0
0.0976727 0.00788956 0.00964778 0.001462 0.000466 0.013866 1.10456e-05 0
0.106689 0.00851216 0.0415741 0.001462 0.000466 0.013866 2.5753e-06 0
0.103197 0.00869414 0.0412707 0.001462 0.000466 0.013866 5.20768e-07 0
0.0907237 0.0101458 0.0146154 0.001462 0.000466 0.013866 7.84147e-06 0
0.109681 0.0098259 0.0304514 0.001462 0.000466 0.013866 1.59816e-05 0
0.106385 0.00865718 0.033135 0.001462 0.000466 0.013866 1.1755e-05 0
0.106189 0.000267914 0.0299213 0.001462 0.000466 0.013866 1.29181e-05 0
0.111781 0.00330813 0.0405275 0.001462 0.000466 0.013866 1.13032e-06 0
0.119022 0.00987601 0.0118622 0.001462 0.000466 0.013866 2.31822e-06 0
0.102864 0.00947797 0.0153793 0.001462 0.000466 0.013866 6.92428e-06 0
0.0953959 0.00773571 0.0168199 0.001462 0.000466 0.013866 1.15357e-05 0
0.0923739 0.0103147 0.0236774 0.001462 0.000466 0.013866 6.63204e-07 0
0.0968264 0.0114706 0.0357312 0.001462 0.000466 0.013866 8.58159e-08 0
0.112446 0.013098 0.00517563 0.001462 0.000466 0.013866 3.40425e-06 0
0.0978625 0.0123204 0.0219616 0.001462 0.000466 0.013866 2.60137e-06 0
0.11989 0.00178307 0.0139921 0.001462 0.000466 0.013866 6.89541e-07 0
0.120205 0.00670942 0.0150185 0.001462 0.000466 0.013866 1.20418e-06 0
0.0991458 0.00509204 0.0143456 0.001462 0.000466 0.013866 1.24608e-05 0
0.115776 0.0131385 0.00225423 0.001462 0.000466 0.013866 3.8513e-06 0
0.1027 0.0117284 0.0295099 0.001462 0.000466 0.013866 7.10848e-06 0
0.116505 0.00678082 0.00894854 0.001462 0.000466 0.013866 1.5666e-06 0
0.0930089 0.00676971 0.0207984 0.001462 0.000466 0.013866 1.25696e-05 0
0.0942847 0.0109615 0.0249123 0.001462 0.000466 0.013866 6.02387e-06 0
0.0967741 -0.000994706 0.00336156 0.001462 0.000466 0.013866 3.19659e-05 0
0.116771 0.00823118 0.02438 0.001462 0.000466 0.013866 4.05038e-06 0
0.0948288 0.00987507 0.0283752 0.001462 0.000466 0.013866 2.6359e-06 0
0.100349 0.00346647 0.00629136 0.001462 0.000466 0.013866 1.98812e-05 0
0.118084 0.00986965 0.0161912 0.001462 0.000466 0.013866 4.94652e-06 0
0.103151 0.00784687 0.00323784 0.001462 0.000466 0.013866 3.33135e-06 0
0.119216 0.011367 0.0236286 0.001462 0.000466 0.013866 7.59791e-06 0
0.122997 0.0113171 0.0226714 0.001462 0.000466 0.013866 5.76567e-06 0
0.110922 0.000760037 0.0272964 0.001462 0.000466 0.013866 4.48144e-06 0
0.115393 0.0130427 0.0199724 0.001462 0.000466 0.013866 9.41706e-06 0
0.108878 0.00688396 0.0396229 0.001462 0.000466 0.013866 3.74747e-06 0
0.111725 0.0099504 0.0126617 0.001462 0.000466 0.013866 4.00419e-06 0
0.118243 0.00420345 0.0254122 0.001462 0.000466 0.013866 4.27875e-06 0
0.10864 0.000234152 -0.00771467 0.001462 0.000466 0.013866 1.49863e-06 0
0.107728 0.00991918 0.0144072 0.001462 0.000466 0.013866 1.98719e-06 0
0.106539 0.0118135 0.0399478 0.001462 0.000466 0.013866 2.0044e-06 0
0.107829 0.0065644 0.0181228 0.001462 0.000466 0.013866 4.88003e-06 0
0.101553 0.0122246 0.0185958 0.001462 0.000466 0.013866 3.68821e-06 0
0.105731 0.0126511 0.0225149 0.001462 0.000466 0.013866 3.68821e-06 0
0.110287 0.00513321 -0.00119079 0.001462 0.000466 0.013866 8.22916e-06 0
0.110355 0.00214219 0.00843916 0.001462 0.000466 0.013866 1.26356e-06 0
0.0988181 0.0119076 0.0252343 0.001462 0.000466 0.013866 1.93573e-06 0
0.108869 0.0101355 0.0118074 0.001462 0.000466 0.013866 1.11524e-06 0
0.10869 0.00529673 0.00359782 0.001462 0.000466 0.013866 7.02924e-06 0
0.110525 0.0131201 0.00397 0.001462 0.000466 0.013866 1.70213e-06 0
0.10341 0.0126321 0.00837394 0.001462 0.000466 0.013866 6.04004e-06 0
0.113416 0.0131094 0.00219374 0.001462 0.000466 0.013866 1.92565e-06 0
0.100475 0.01227 0.00659426 0.001462 0.000466 0.013866 2.2365e-06 0
0.112303 0.00681616 0.00990078 0.001462 0.000466 0.013866 4.43251e-06 0
0.107919 0.013066 0.0135682 0.001462 0.000466 0.013866 2.8993e-06 0
0.109244 0.0101494 0.00631397 0.001462 0.000466 0.013866 4.15692e-06 0
0.121237 0.0145013 0.0247622 0.001462 0.000466 0.013866 4.34324e-06 0
0.105692 0.00821027 0.00312406 0.001462 0.000466 0.013866 6.63094e-06 0
0.106246 0.013063 0.00584021 0.001462 0.000466 0.013866 3.26375e-06 0
0.119808 0.013061 0.00872436 0.001462 0.000466 0.013866 6.47011e-06 0
0.11121 0.00997685 -0.000711998 0.001462 0.000466 0.013866 3.11181e-06 0
0.109447 0.00700131 0.00904646 0.001462 0.000466 0.013866 2.31356e-06 0
0.102307 -0.00118353 0.00862638 0.001462 0.000466 0.013866 8.51507e-06 0
0.105816 0.0111926 -0.000769449 0.001462 0.000466 0.013866 5.54066e-06 0
0.113442 0.0130765 0.0111349 0.001462 0.000466 0.013866 3.1621e-06 0
0.116901 0.0130362 0.0130348 0.001462 0.000466 0.013866 8.36294e-06 0
0.115523 0.00811417 0.0288596 0.001462 0.000466 0.013866 6.23238e-06 0
0.108728 0.0101853 0.0379966 0.001462 0.000466 0.013866 2.47943e-06 0
0.115639 0.00673382 0.0169425 0.001462 0.000466 0.013866 2.93838e-06 0
0.111571 0.00662013 0.0261915 0.001462 0.000466 0.013866 1.19762e-05 0
0.113387 0.00182681 0.0106152 0.001462 0.000466 0.013866 2.58949e-06 0
0.112739 0.00677433 0.015313 0.001462 0.000466 0.013866 4.05707e-06 0
0.113044 0.0025924 0.0272237 0.001462 0.000466 0.013866 2.80638e-06 0
0.120082 5.24968e-05 0.0159022 0.001462 0.000466 0.013866 1.14123e-06 0
0.108968 0.00970811 0.0218431 0.001462 0.000466 0.013866 5.55058e-06 0
0.117154 0.00985845 0.0178815 0.001462 0.000466 0.013866 8.91212e-07 0
0.117739 0.00985652 0.0206937 0.001462 0.000466 0.013866 4.40925e-06 0
0.110793 0.0128665 0.0206723 0.001462 0.000466 0.013866 5.27442e-06 0
0.109654 0.00972283 0.0169519 0.001462 0.000466 0.013866 4.09784e-06 0
0.115391 0.00965876 0.033988 0.001462 0.000466 0.013866 2.9213e-06 0
0.112024 0.011354 0.0353129 0.001462 0.000466 0.013866 3.36467e-06 0
0.0673276 0.0042406 -0.0150024 0.3415 0.062325 0.429425 4.0201e-06 1
0.0656622 -0.00193821 -0.016614 0.3415 0.062325 0.429425 1.14516e-06 1
0.0716073 -0.00477569 -0.0171901 0.3415 0.062325 0.429425 3.24408e-06 1
0.0665026 0.000865078 -0.0133225 0.3415 0.062325 0.429425 2.14668e-06 1
0.0787862 -0.00349898 -0.0178294 0.3415 0.062325 0.429425 3.31227e-06 1
0.061746 0.00289104 -0.0178396 0.3415 0.062325 0.429425 3.89506e-07 1
0.066737 0.00247981 -0.0183275 0.3415 0.062325 0.429425 6.03424e-07 1
0.0644755 0.00137403 -0.0180952 0.3415 0.062325 0.429425 2.13918e-07 1
0.0868208 0.000801998 -0.00298442 0.3415 0.062325 0.429425 2.17307e-05 1
0.0739229 -0.00158664 -0.0159983 0.3415 0.062325 0.429425 6.83966e-06 1
0.0686353 0.000365033 -0.0140707 0.3415 0.062325 0.429425 5.98419e-06 1
0.0737628 -0.00304744 -0.0198372 0.3415 0.062325 0.429425 2.84038e-06 1
0.0760784 0.000141616 -0.0186454 0.3415 0.062325 0.429425 3.42741e-06 1
0.0659513 -0.00371174 -0.012075 0.3415 0.062325 0.429425 2.91521e-06 1
0.0640731 -0.00731815 -0.00827716 0.3415 0.062325 0.429425 6.53278e-06 1
0.0590918 -0.00617474 -0.0123314 0.3415 0.062325 0.429425 1.33725e-06 1
0.0627654 -0.00344258 -0.00920886 0.3415 0.062325 0.429425 8.52868e-06 1
0.0511329 -0.00799078 -0.0112984 0.3415 0.062325 0.429425 7.43657e-06 1
0.0622777 -0.0064439 -0.0151975 0.3415 0.062325 0.429425 6.15737e-07 1
0.0545765 -0.00466518 -0.0125466 0.3415 0.062325 0.429425 8.33949e-06 1
0.0644545 -0.00468142 -0.016722 0.3415 0.062325 0.429425 7.6664e-07 1
0.0518034 -0.00712759 -0.0152042 0.3415 0.062325 0.429425 2.09633e-07 1
0.055247 -0.00380198 -0.0164523 0.3415 0.062325 0.429425 1.80073e-06 1
0.0604173 0.000711155 -0.017398 0.3415 0.062325 0.429425 8.70211e-07 1
0.0616072 -0.0073071 -0.0112917 0.3415 0.062325 0.429425 6.41717e-06 1
0.0604298 -0.00226865 -0.0132494 0.3415 0.062325 0.429425 2.0312e-06 1
0.0573299 -0.00519552 -0.0121663 0.3415 0.062325 0.429425 7.86641e-07 1
0.0566751 -0.000243986 -0.012169 0.3415 0.062325 0.429425 2.22611e-06 1
0.0585658 0.00038262 -0.0118182 0.3415 0.062325 0.429425 8.90547e-06 1
0.0617965 -0.00298105 -0.0182062 0.3415 0.062325 0.429425 2.15467e-07 1
0.0552346 -0.00207108 -0.0179229 0.3415 0.062325 0.429425 7.24855e-07 1
0.059067 -0.00146404 -0.0179505 0.3415 0.062325 0.429425 3.92326e-07 1
0.0585533 0.00336242 -0.0159668 0.3415 0.062325 0.429425 2.09306e-06 1
0.0720545 0.00536203 -0.00449382 0.3415 0.062325 0.429425 1.87894e-05 1
0.0649566 -0.00510823 0.00226174 0.3415 0.062325 0.429425 2.90186e-06 1
0.0629441 0.00897514 -0.0119821 0.3415 0.062325 0.429425 1.78135e-06 1
0.0586152 -0.00172637 0.0119309 0.3415 0.062325 0.429425 1.01087e-05 1
0.0485727 0.00786226 -0.0111704 0.3415 0.062325 0.429425 5.91785e-06 1
0.0518693 0.0061901 -0.0124206 0.3415 0.062325 0.429425 4.21645e-06 1
0.0771889 -0.00578887 -0.00876344 0.3415 0.062325 0.429425 1.47468e-05 1
0.0667917 -0.000908456 -0.00878345 0.3415 0.062325 0.429425 5.25485e-06 1
0.0569221 0.00488389 0.00222455 0.3415 0.062325 0.429425 1.27559e-05 1
0.0792973 -0.000563818 -0.00505913 0.3415 0.062325 0.429425 7.25002e-06 1
0.0609326 0.00320208 0.0115844 0.3415 0.062325 0.429425 7.36478e-06 1
0.0646499 0.00500292 0.00240585 0.3415 0.062325 0.429425 1.08736e-05 1
0.061342 -0.00495528 0.0133839 0.3415 0.062325 0.429425 4.76809e-06 1
0.0591485 0.000299173 0.00715515 0.3415 0.062325 0.429425 8.90911e-06 1
0.0617817 -0.00469234 0.000963264 0.3415 0.062325 0.429425 8.63043e-06 1
0.0701968 0.000294294 1.71481e-05 0.3415 0.062325 0.429425 4.92872e-06 1
0.0549602 0.00485095 -0.00377868 0.3415 0.062325 0.429425 1.38348e-05 1
0.0588014 0.00418841 -0.00767152 0.3415 0.062325 0.429425 1.24546e-05 1
0.0733686 -0.00528837 -0.00690647 0.3415 0.062325 0.429425 1.59242e-05 1
0.0554477 0.00487987 0.00543045 0.3415 0.062325 0.429425 1.26951e-05 1
0.0680913 0.00897514 -0.0123121 0.3415 0.062325 0.429425 1.78135e-06 1
0.0606228 0.000303191 0.00394925 0.3415 0.062325 0.429425 5.56445e-06 1
0.0699461 0.000136981 -0.00819812 0.3415 0.062325 0.429425 1.21093e-05 1
0.0646758 -0.00187878 0.00943606 0.3415 0.062325 0.429425 4.37764e-06 1
0.0613913 0.00899228 -0.00869367 0.3415 0.062325 0.429425 2.70044e-06 1
0.0637978 -0.000112703 0.00524773 0.3415 0.062325 0.429425 7.93691e-06 1
0.0636059 -0.000639296 -0.00591734 0.3415 0.062325 0.429425 1.59309e-05 1
0.0626338 0.000423282 -0.00187861 0.3415 0.062325 0.429425 6.67524e-06 1
0.0658087 7.38789e-06 -0.000580132 0.3415 0.062325 0.429425 3.75697e-06 1
0.056831 -0.00462927 0.00750163 0.3415 0.062325 0.429425 1.16252e-05 1
0.0531303 -4.85744e-05 0.00577693 0.3415 0.062325 0.429425 1.09311e-05 1
0.075477 -6.33229e-05 -0.00320217 0.3415 0.062325 0.429425 2.28438e-05 1
0.0540415 0.00316177 -0.00816824 0.3415 0.062325 0.429425 6.59618e-06 1
0.069038 0.00528982 0.00300313 0.3415 0.062325 0.429425 2.26668e-05 1
0.0445296 0.00179759 -0.0178736 0.3415 0.062325 0.429425 4.20321e-07 1
0.0450571 0.00678529 -0.0120899 0.3415 0.062325 0.429425 1.99193e-06 1
0.0615059 0.00434043 -0.00581117 0.3415 0.062325 0.429425 8.22548e-06 1
0.0449994 0.000152734 -0.0121256 0.3415 0.062325 0.429425 1.02208e-05 1
0.0462833 0.00352687 -0.0134774 0.3415 0.062325 0.429425 3.54938e-06 1
0.0503585 -0.0047696 0.0040222 0.3415 0.062325 0.429425 1.57608e-05 1
0.0540593 -0.0093503 0.0057469 0.3415 0.062325 0.429425 5.34883e-07 1
0.0497903 -0.00010463 0.00746901 0.3415 0.062325 0.429425 1.20603e-05 1
0.00882552 0.00387339 -0.00165898 0.735683 0.215906 0.330245 4.98091e-06 2
0.00526406 -0.00900508 -0.0103582 0.735683 0.215906 0.330245 2.54467e-06 2
0.000919575 0.00767896 -0.0130807 0.735683 0.215906 0.330245 3.3345e-06 2
-0.00267742 -0.00465395 -0.00279576 0.735683 0.215906 0.330245 2.71785e-05 2
0.00369552 0.00419128 0.00136188 0.735683 0.215906 0.330245 5.294e-06 2
-0.00182882 0.00369345 -0.00815385 0.735683 0.215906 0.330245 1.31581e-05 2
0.00440376 0.00384217 -0.00187824 0.735683 0.215906 0.330245 5.32195e-06 2
0.00184914 -0.000792818 -0.00505837 0.735683 0.215906 0.330245 1.82739e-05 2
0.000725798 0.00832844 -0.00497372 0.735683 0.215906 0.330245 1.04519e-06 2
-0.00921832 -0.000640307 -0.00610515 0.735683 0.215906 0.330245 1.51323e-05 2
-0.011205 -5.81349e-05 -0.00229185 0.735683 0.215906 0.330245 5.6817e-06 2
0.00461665 -0.00462578 -0.00877109 0.735683 0.215906 0.330245 1.62857e-05 2
0.0105528 0.00385062 -0.00372598 0.735683 0.215906 0.330245 5.63233e-06 2
0.0088985 -1.35592e-05 -0.00765797 0.735683 0.215906 0.330245 9.10907e-06 2
0.00954591 -0.00439286 -0.00924506 0.735683 0.215906 0.330245 1.25702e-06 2
0.0154295 -0.00341545 -0.0136255 0.735683 0.215906 0.330245 6.90578e-06 2
0.0125007 -0.00475815 -0.0125341 0.735683 0.215906 0.330245 3.45289e-06 2
0.0128625 -0.0049682 -0.00875393 0.735683 0.215906 0.330245 1.5658e-05 2
-0.000845769 0.000138465 0.00199505 0.735683 0.215906 0.330245 1.3708e-05 2
-0.00879536 -0.00482815 -0.00391703 0.735683 0.215906 0.330245 8.57021e-06 2
-0.0140488 -0.00817731 -0.0126796 0.735683 0.215906 0.330245 7.25279e-06 2
-0.00699857 -0.0017581 -0.0180772 0.735683 0.215906 0.330245 2.45834e-06 2
-0.0114524 -0.00343857 -0.0109761 0.735683 0.215906 0.330245 1.31445e-05 2
-0.0259906 -5.771e-05 -0.0166412 0.735683 0.215906 0.330245 7.51641e-07 2
-0.00677834 0.00402016 -0.00807936 0.735683 0.215906 0.330245 1.2651e-05 2
-0.00118207 0.00253363 -0.0129741 0.735683 0.215906 0.330245 1.11008e-05 2
0.0259106 -0.00338726 -0.0130566 0.735683 0.215906 0.330245 8.63591e-06 2
0.00871367 0.00459918 0.00459755 0.735683 0.215906 0.330245 8.28297e-06 2
0.0212277 0.00385609 -0.00494385 0.735683 0.215906 0.330245 8.8576e-06 2
0.0251133 0.00456078 -0.013935 0.735683 0.215906 0.330245 1.41099e-06 2
0.00498407 4.38622e-05 -0.0152611 0.735683 0.215906 0.330245 3.53221e-06 2
0.00811728 0.00422251 0.00158114 0.735683 0.215906 0.330245 5.12194e-06 2
0.0188188 0.000703401 -0.0124924 0.735683 0.215906 0.330245 4.56471e-06 2
0.00768027 0.00730136 -0.0136782 0.735683 0.215906 0.330245 1.8519e-06 2
0.02188 -0.00185484 -0.0186748 0.735683 0.215906 0.330245 3.89508e-07 2
0.00761668 2.9022e-05 -0.0152129 0.735683 0.215906 0.330245 2.06657e-06 2
0.0272954 0.00477237 -0.0144831 0.735683 0.215906 0.330245 1.6428e-06 2
0.0214554 0.000921312 -0.0121225 0.735683 0.215906 0.330245 5.26436e-07 2
0.0230009 -0.00206252 -0.0141656 0.735683 0.215906 0.330245 4.70264e-06 2
0.0141717 -0.0018923 -0.0188503 0.735683 0.215906 0.330245 6.59859e-07 2
0.00213414 -0.00174259 -0.0136587 0.735683 0.215906 0.330245 1.28337e-05 2
0.0078485 0.00874086 0.00456148 0.735683 0.215906 0.330245 1.94981e-07 2
0.0230736 0.00263167 -0.0135236 0.735683 0.215906 0.330245 2.27797e-06 2
0.0151917 0.000938057 -0.0177729 0.735683 0.215906 0.330245 8.15982e-07 2
0.0281656 0.00151853 -0.0129628 0.735683 0.215906 0.330245 6.56665e-06 2
0.0345087 -0.0013767 -0.0115868 0.735683 0.215906 0.330245 4.60901e-06 2
0.0305025 0.00073731 -0.0165667 0.735683 0.215906 0.330245 1.77248e-06 2
0.0329132 0.00149995 -0.0164905 0.735683 0.215906 0.330245 3.42165e-06 2
0.0346424 -0.00322447 -0.0178585 0.735683 0.215906 0.330245 5.83398e-07 2
0.0322766 -0.00169548 -0.0179854 0.735683 0.215906 0.330245 8.68547e-07 2
0.0152109 0.00287855 -0.0182213 0.735683 0.215906 0.330245 1.54005e-06 2
0.0196212 0.00412683 -0.00988151 0.735683 0.215906 0.330245 3.63297e-06 2
0.0178861 0.00387215 -0.00708261 0.735683 0.215906 0.330245 9.40387e-06 2
0.0111929 -0.00300758 -0.0178914 0.735683 0.215906 0.330245 1.73503e-06 2
0.00666029 0.004471 -0.0147556 0.735683 0.215906 0.330245 2.68027e-06 2
0.00402768 0.00448584 -0.0148038 0.735683 0.215906 0.330245 3.3035e-06 2
0.0178892 0.00147661 -0.0172421 0.735683 0.215906 0.330245 8.91536e-07 2
0.0081038 0.00905271 -0.0121246 0.735683 0.215906 0.330245 7.41496e-07 2
-0.00255746 -0.00336474 -0.0179701 0.735683 0.215906 0.330245 4.39245e-06 2
0.025099 0.0068263 -0.0150154 0.735683 0.215906 0.330245 9.79115e-07 2
0.0244623 0.00363086 -0.0165104 0.735683 0.215906 0.330245 1.73333e-06 2
0.0201546 0.000207004 -0.0182933 0.735683 0.215906 0.330245 8.63577e-09 2
0.0224226 0.00170176 -0.016099 0.735683 0.215906 0.330245 2.66162e-06 2
0.0221105 0.000226752 -0.0182444 0.735683 0.215906 0.330245 7.87589e-07 2
0.00244418 -0.00439944 -0.0168118 0.735683 0.215906 0.330245 1.80302e-06 2
0.0241502 0.00215586 -0.0186557 0.735683 0.215906 0.330245 5.29147e-07 2
0.0179084 0.00341711 -0.0176905 0.735683 0.215906 0.330245 6.78545e-07 2
0.00505768 0.0034042 -0.0179777 0.735683 0.215906 0.330245 2.26853e-06 2
0.0126248 -0.000181805 -0.0151759 0.735683 0.215906 0.330245 8.79195e-06 2
0.00986047 0.00676825 -0.0124585 0.735683 0.215906 0.330245 1.3146e-06 2
0.00904859 0.00285479 -0.0124974 0.735683 0.215906 0.330245 5.23072e-06 2
-0.00531314 0.00148342 -0.0162343 0.735683 0.215906 0.330245 7.68626e-06 2
-0.00866004 0.00287694 -0.0129377 0.735683 0.215906 0.330245 1.03256e-05 2
-0.0103455 -0.000364585 -0.0147806 0.735683 0.215906 0.330245 5.49276e-06 2
-0.0139692 0.00366487 -0.0158138 0.735683 0.215906 0.330245 3.68872e-06 2
-0.0122838 0.00690639 -0.0139709 0.735683 0.215906 0.330245 2.51605e-06 2
0.0313726 -0.00251653 -0.0150464 0.735683 0.215906 0.330245 3.79829e-06 2
0.0255412 -0.00062948 -0.00833083 0.735683 0.215906 0.330245 7.87386e-06 2
0.033131 -0.00389574 -0.010208 0.735683 0.215906 0.330245 7.43722e-06 2
0.0361786 -0.00889362 -0.010194 0.735683 0.215906 0.330245 2.47126e-06 2
0.0427213 -0.00686829 0.0133972 0.735683 0.215906 0.330245 1.50647e-06 2
0.0575034 -0.00323351 0.0165577 0.735683 0.215906 0.330245 4.38818e-06 2
0.0453306 -0.00473825 -0.00360859 0.735683 0.215906 0.330245 2.50513e-05 2
0.0364223 0.00427848 0.00174378 0.735683 0.215906 0.330245 1.53972e-05 2
0.0257499 0.00775621 -0.01244 0.735683 0.215906 0.330245 1.33142e-06 2
0.0307476 0.00433069 0.00293278 0.735683 0.215906 0.330245 4.04059e-06 2
0.0547766 -4.60139e-06 0.0151046 0.735683 0.215906 0.330245 8.65381e-06 2
0.0531035 0.00323378 0.0166276 0.735683 0.215906 0.330245 2.80773e-06 2
0.049901 0.00293179 -0.013824 0.735683 0.215906 0.330245 5.24107e-06 2
0.0520732 -9.65381e-05 -0.00957173 0.735683 0.215906 0.330245 1.7584e-05 2
0.0212917 0.00411356 0.00416722 0.735683 0.215906 0.330245 4.25358e-06 2
0.0486296 -0.00342214 -0.0083236 0.735683 0.215906 0.330245 1.68394e-05 2
0.0389738 0.00491159 -0.00652101 0.735683 0.215906 0.330245 1.36487e-05 2
0.040264 0.00259832 -0.0179957 0.735683 0.215906 0.330245 9.28397e-08 2
0.0431524 0.000181098 -0.017943 0.735683 0.215906 0.330245 2.70107e-07 2
0.0330684 0.00407353 -0.0173308 0.735683 0.215906 0.330245 9.14186e-07 2
0.0481173 0.00313375 0.00899207 0.735683 0.215906 0.330245 7.19928e-06 2
0.0373068 0.00421752 -0.010418 0.735683 0.215906 0.330245 8.50893e-06 2
0.0418474 0.00383439 -0.00740855 0.735683 0.215906 0.330245 4.76123e-06 2
0.0417005 -0.00116337 -0.00741059 0.735683 0.215906 0.330245 1.83331e-05 2
0.0364157 0.00469432 -0.0166581 0.735683 0.215906 0.330245 7.65013e-07 2
0.0417793 -0.00155825 -0.0165576 0.735683 0.215906 0.330245 1.67316e-07 2
0.0434132 -0.00270438 -0.0165424 0.735683 0.215906 0.330245 2.01553e-06 2
0.0358863 0.00178484 -0.0118527 0.735683 0.215906 0.330245 1.00519e-05 2
0.0391283 0.00304556 -0.0180709 0.735683 0.215906 0.330245 1.53709e-07 2
0.0388185 0.00712806 0.0136846 0.735683 0.215906 0.330245 1.67596e-06 2
0.0428214 0.00340737 -0.0179148 0.735683 0.215906 0.330245 1.41602e-07 2
0.0386558 -0.00501899 -0.0110416 0.735683 0.215906 0.330245 8.22485e-06 2
0.0373822 -0.0024539 -0.0124743 0.735683 0.215906 0.330245 2.3447e-06 2
0.0404017 -0.00471979 -0.0162916 0.735683 0.215906 0.330245 8.56079e-07 2
0.0390473 8.34116e-06 -0.0172045 0.735683 0.215906 0.330245 5.81722e-07 2
0.0403209 -0.00255675 -0.0157718 0.735683 0.215906 0.330245 1.43085e-06 2
0.0382333 -0.00326928 -0.0177708 0.735683 0.215906 0.330245 2.45085e-07 2
0.0391281 -0.0021547 -0.0177243 0.735683 0.215906 0.330245 3.48045e-07 2
0.0466026 0.00764631 0.00943545 0.735683 0.215906 0.330245 7.87589e-06 2
0.0444276 -0.00363065 0.0148732 0.735683 0.215906 0.330245 3.28349e-06 2
0.0479794 0.000274817 0.0138905 0.735683 0.215906 0.330245 4.00145e-06 2
0.0395898 -0.00787727 0.0125226 0.735683 0.215906 0.330245 8.30132e-07 2
0.0332296 -0.00874519 0.0104082 0.735683 0.215906 0.330245 1.63706e-06 2
0.0371185 -0.00855907 0.00853894 0.735683 0.215906 0.330245 1.43915e-06 2
0.0496524 -0.00296356 0.0123674 0.735683 0.215906 0.330245 1.22413e-05 2
0.0491475 -0.0090292 0.00270871 0.735683 0.215906 0.330245 3.80587e-07 2
0.0463712 -0.00787145 0.0124349 0.735683 0.215906 0.330245 3.82615e-06 2
0.0454467 -0.0044485 0.000984013 0.735683 0.215906 0.330245 1.12143e-05 2
0.0373227 -0.00385991 0.0071433 0.735683 0.215906 0.330245 1.08603e-05 2
0.0405921 8.00544e-06 0.00311948 0.735683 0.215906 0.330245 1.19059e-05 2
0.0438308 0.00292529 0.00768072 0.735683 0.215906 0.330245 2.01934e-05 2
0.0386509 -0.00887942 0.0116242 0.735683 0.215906 0.330245 5.33057e-07 2
0.0347732 0.00447405 -0.00330614 0.735683 0.215906 0.330245 2.52234e-05 2
0.0435102 0.00807081 0.0127894 0.735683 0.215906 0.330245 3.97907e-06 2
0.0385846 -0.00317784 0.0111438 0.735683 0.215906 0.330245 5.31719e-06 2
0.022768 -0.00458911 -0.00321427 0.735683 0.215906 0.330245 3.03085e-05 2
0.0141145 0.00914869 -0.0124787 0.735683 0.215906 0.330245 6.65178e-07 2
0.010284 0.0085196 -0.0109049 0.735683 0.215906 0.330245 5.19808e-07 2
0.018966 0.0081413 -0.0124073 0.735683 0.215906 0.330245 7.41814e-07 2
0.0233136 0.00856289 -0.0134994 0.735683 0.215906 0.330245 7.475e-07 2
0.0187116 0.00447561 -0.013512 0.735683 0.215906 0.330245 3.11086e-06 2
0.0161342 0.00427021 -0.0146062 0.735683 0.215906 0.330245 3.63738e-06 2
0.0134366 0.00373165 -0.015137 0.735683 0.215906 0.330245 1.74825e-06 2
0.0163885 0.0079359 -0.0135015 0.735683 0.215906 0.330245 1.61965e-06 2
