ply
format ascii 1.0
comment Created by Open3D
element vertex 841
property float32 x
property float32 y
property float32 z
property float32 red
property float32 green
property float32 blue
property uint8 segmentation
end_header
0.0948102 0.247256 0.161811 0.752941 0.752941 0.752941 1
0.107928 0.148011 0.173837 0.752941 0.752941 0.752941 1
0.100231 0.167476 0.178944 0.752941 0.752941 0.752941 1
0.0866984 0.0865247 0.175359 0.752941 0.752941 0.752941 1
0.100932 0.0951776 0.174516 0.752941 0.752941 0.752941 1
0.0983354 0.103819 0.177 0.752941 0.752941 0.752941 1
0.0996712 0.180635 0.163349 0.752941 0.752941 0.752941 1
0.0942021 0.140184 0.178556 0.752941 0.752941 0.752941 1
0.094941 0.101612 0.164794 0.752941 0.752941 0.752941 1
0.0892212 0.192558 0.178017 0.752941 0.752941 0.752941 1
0.111354 0.0331274 0.163284 0.752941 0.752941 0.752941 0
0.103012 0.222903 0.166222 0.752941 0.752941 0.752941 1
0.0864628 0.0717337 0.175032 0.752941 0.752941 0.752941 1
0.0960601 0.240152 0.161986 0.752941 0.752941 0.752941 1
0.107432 0.182422 0.175307 0.752941 0.752941 0.752941 1
0.0983254 0.206777 0.17959 0.752941 0.752941 0.752941 1
0.0595846 0.0240138 0.176422 0.752941 0.752941 0.752941 0
0.0846612 0.229166 0.172367 0.752941 0.752941 0.752941 1
0.108642 0.181871 0.173427 0.752941 0.752941 0.752941 1
0.0939343 0.064991 0.177004 0.752941 0.752941 0.752941 1
0.0956973 0.16243 0.179027 0.752941 0.752941 0.752941 1
0.0960601 0.244185 0.161885 0.752941 0.752941 0.752941 1
0.0896488 0.243528 0.163271 0.752941 0.752941 0.752941 1
0.0845883 0.0951776 0.171202 0.752941 0.752941 0.752941 1
0.102782 0.197952 0.177979 0.752941 0.752941 0.752941 1
0.0863379 0.0868355 0.175032 0.752941 0.752941 0.752941 1
0.0958303 0.131369 0.164102 0.752941 0.752941 0.752941 1
0.100611 0.036783 0.171736 0.752941 0.752941 0.752941 1
0.100721 0.0782744 0.173258 0.752941 0.752941 0.752941 1
0.104947 0.248116 0.175907 0.752941 0.752941 0.752941 1
0.100231 0.0826645 0.174355 0.752941 0.752941 0.752941 1
0.104218 0.201695 0.165913 0.752941 0.752941 0.752941 1
0.134193 0.0266981 0.16808 0.752941 0.752941 0.752941 0
0.137255 0.0294879 0.170855 0.752941 0.752941 0.752941 0
0.104821 0.17891 0.177578 0.752941 0.752941 0.752941 1
0.0974505 0.0372984 0.167083 0.752941 0.752941 0.752941 1
0.11089 0.0237115 0.167565 0.752941 0.752941 0.752941 0
0.0926104 0.124727 0.16444 0.752941 0.752941 0.752941 1
0.105113 0.12462 0.169479 0.752941 0.752941 0.752941 1
0.0846471 0.231432 0.172251 0.752941 0.752941 0.752941 1
0.0913737 0.234728 0.179993 0.752941 0.752941 0.752941 1
0.0682532 0.0209809 0.16808 0.752941 0.752941 0.752941 0
0.091968 0.038701 0.176576 0.752941 0.752941 0.752941 1
0.0875497 0.0755738 0.16669 0.752941 0.752941 0.752941 1
0.103596 0.183995 0.178072 0.752941 0.752941 0.752941 1
0.0886779 0.0210532 0.176215 0.752941 0.752941 0.752941 0
0.0970401 0.177768 0.179408 0.752941 0.752941 0.752941 1
0.0857154 0.231375 0.175424 0.752941 0.752941 0.752941 1
0.0988692 0.116136 0.165165 0.752941 0.752941 0.752941 1
0.0983254 0.0952802 0.166016 0.752941 0.752941 0.752941 1
0.0907322 0.0866214 0.165299 0.752941 0.752941 0.752941 1
0.107598 0.194205 0.171771 0.752941 0.752941 0.752941 1
0.0595846 0.0329906 0.16951 0.752941 0.752941 0.752941 0
0.0980839 0.143053 0.163946 0.752941 0.752941 0.752941 1
0.0900265 0.19479 0.164089 0.752941 0.752941 0.752941 1
0.0880672 0.211967 0.177813 0.752941 0.752941 0.752941 1
0.0855537 0.096568 0.17417 0.752941 0.752941 0.752941 1
0.0896022 0.233337 0.163376 0.752941 0.752941 0.752941 1
0.100005 0.0806175 0.174507 0.752941 0.752941 0.752941 1
0.0595846 0.0256602 0.174577 0.752941 0.752941 0.752941 0
0.0821368 0.0288697 0.179284 0.752941 0.752941 0.752941 0
0.100838 0.123271 0.165509 0.752941 0.752941 0.752941 1
0.0932794 0.0659803 0.177071 0.752941 0.752941 0.752941 1
0.0961053 0.204811 0.162663 0.752941 0.752941 0.752941 1
0.10328 0.226824 0.176042 0.752941 0.752941 0.752941 1
0.0992587 0.0762142 0.175032 0.752941 0.752941 0.752941 1
0.0946328 0.198332 0.162826 0.752941 0.752941 0.752941 1
0.100836 0.115111 0.176422 0.752941 0.752941 0.752941 1
0.102285 0.109081 0.174516 0.752941 0.752941 0.752941 1
0.0849233 0.137013 0.173051 0.752941 0.752941 0.752941 1
0.0891084 0.0449926 0.166418 0.752941 0.752941 0.752941 1
0.0848068 0.26341 0.173073 0.752941 0.752941 0.752941 1
0.101686 0.125226 0.176775 0.752941 0.752941 0.752941 1
0.107652 0.141574 0.172529 0.752941 0.752941 0.752941 1
0.086567 0.10587 0.167224 0.752941 0.752941 0.752941 1
0.0710339 0.0303467 0.163284 0.752941 0.752941 0.752941 0
0.0849744 0.25307 0.168863 0.752941 0.752941 0.752941 1
0.0595846 0.033204 0.164779 0.752941 0.752941 0.752941 0
0.0897038 0.158948 0.165038 0.752941 0.752941 0.752941 1
0.0851851 0.177724 0.16879 0.752941 0.752941 0.752941 1
0.0946698 0.12211 0.16429 0.752941 0.752941 0.752941 1
0.107951 0.16489 0.167185 0.752941 0.752941 0.752941 1
0.0907664 0.10149 0.177502 0.752941 0.752941 0.752941 1
0.100376 0.110909 0.166174 0.752941 0.752941 0.752941 1
0.0973091 0.1413 0.163947 0.752941 0.752941 0.752941 1
0.102625 0.104327 0.172945 0.752941 0.752941 0.752941 1
0.104655 0.0229124 0.178429 0.752941 0.752941 0.752941 0
0.0849029 0.18416 0.173169 0.752941 0.752941 0.752941 1
0.0860504 0.147136 0.167689 0.752941 0.752941 0.752941 1
0.0897817 0.0771741 0.165697 0.752941 0.752941 0.752941 1
0.0880355 0.194139 0.177307 0.752941 0.752941 0.752941 1
0.0929512 0.16353 0.178676 0.752941 0.752941 0.752941 1
0.100058 0.102129 0.175907 0.752941 0.752941 0.752941 1
0.106685 0.252287 0.173126 0.752941 0.752941 0.752941 1
0.0895496 0.245851 0.163323 0.752941 0.752941 0.752941 1
0.104749 0.157659 0.17733 0.752941 0.752941 0.752941 1
0.0870524 0.0482779 0.175237 0.752941 0.752941 0.752941 1
0.109738 0.162501 0.171736 0.752941 0.752941 0.752941 1
0.13559 0.0268771 0.166279 0.752941 0.752941 0.752941 0
0.099426 0.0812741 0.167433 0.752941 0.752941 0.752941 1
0.0788831 0.0362609 0.176981 0.752941 0.752941 0.752941 0
0.0640997 0.0209809 0.173995 0.752941 0.752941 0.752941 0
0.0923297 0.146187 0.164265 0.752941 0.752941 0.752941 1
0.0595846 0.030988 0.176826 0.752941 0.752941 0.752941 0
0.103887 0.14662 0.16538 0.752941 0.752941 0.752941 1
0.101913 0.122641 0.176416 0.752941 0.752941 0.752941 1
0.0848564 0.242555 0.16919 0.752941 0.752941 0.752941 1
0.107089 0.270922 0.17448 0.752941 0.752941 0.752941 1
0.0595846 0.0233949 0.175907 0.752941 0.752941 0.752941 0
0.0877116 0.228283 0.164752 0.752941 0.752941 0.752941 1
0.0855672 0.161935 0.1743 0.752941 0.752941 0.752941 1
0.0847974 0.205015 0.17296 0.752941 0.752941 0.752941 1
0.087718 0.119856 0.166273 0.752941 0.752941 0.752941 1
0.088593 0.257848 0.163944 0.752941 0.752941 0.752941 1
0.0906441 0.0537665 0.165883 0.752941 0.752941 0.752941 1
0.0907565 0.14321 0.177821 0.752941 0.752941 0.752941 1
0.103535 0.162763 0.16452 0.752941 0.752941 0.752941 1
0.086823 0.145503 0.166916 0.752941 0.752941 0.752941 1
0.0905619 0.0809753 0.177145 0.752941 0.752941 0.752941 1
0.0915769 0.246616 0.162408 0.752941 0.752941 0.752941 1
0.0983254 0.212701 0.179616 0.752941 0.752941 0.752941 1
0.0916036 0.0429979 0.165946 0.752941 0.752941 0.752941 1
0.0899834 0.247241 0.179488 0.752941 0.752941 0.752941 1
0.121551 0.0321158 0.163565 0.752941 0.752941 0.752941 0
0.0863246 0.233517 0.176364 0.752941 0.752941 0.752941 1
0.0849908 0.0710487 0.16947 0.752941 0.752941 0.752941 1
0.0961213 0.115067 0.178034 0.752941 0.752941 0.752941 1
0.0955447 0.0361823 0.165397 0.752941 0.752941 0.752941 0
0.0863277 0.175818 0.175417 0.752941 0.752941 0.752941 1
0.10103 0.0809561 0.172846 0.752941 0.752941 0.752941 1
0.106988 0.136013 0.170431 0.752941 0.752941 0.752941 1
0.0972481 0.199988 0.162815 0.752941 0.752941 0.752941 1
0.104934 0.143216 0.176338 0.752941 0.752941 0.752941 1
0.107878 0.176126 0.175311 0.752941 0.752941 0.752941 1
0.0870568 0.131842 0.166729 0.752941 0.752941 0.752941 1
0.092764 0.237508 0.180374 0.752941 0.752941 0.752941 1
0.0900018 0.104099 0.17728 0.752941 0.752941 0.752941 1
0.10862 0.153788 0.168955 0.752941 0.752941 0.752941 1
0.0872027 0.249475 0.165189 0.752941 0.752941 0.752941 1
0.123181 0.0295986 0.179284 0.752941 0.752941 0.752941 0
0.0851969 0.191814 0.168607 0.752941 0.752941 0.752941 1
0.066762 0.0214892 0.179197 0.752941 0.752941 0.752941 0
0.0997158 0.260629 0.161921 0.752941 0.752941 0.752941 1
0.107447 0.258364 0.173641 0.752941 0.752941 0.752941 1
0.0779856 0.0298313 0.179284 0.752941 0.752941 0.752941 0
0.085256 0.122212 0.173747 0.752941 0.752941 0.752941 1
0.0846985 0.128071 0.17027 0.752941 0.752941 0.752941 1
0.0754854 0.0209809 0.178687 0.752941 0.752941 0.752941 0
0.097416 0.161967 0.163487 0.752941 0.752941 0.752941 1
0.0912628 0.130926 0.164677 0.752941 0.752941 0.752941 1
0.0972276 0.154301 0.163641 0.752941 0.752941 0.752941 1
0.0951276 0.154091 0.163722 0.752941 0.752941 0.752941 1
0.084687 0.0982447 0.170344 0.752941 0.752941 0.752941 1
0.106821 0.199969 0.172251 0.752941 0.752941 0.752941 1
0.0996011 0.0744471 0.167961 0.752941 0.752941 0.752941 1
0.0886779 0.133596 0.165662 0.752941 0.752941 0.752941 1
0.0954844 0.162848 0.179024 0.752941 0.752941 0.752941 1
0.0935935 0.0209809 0.172028 0.752941 0.752941 0.752941 1
0.0988386 0.0351329 0.167993 0.752941 0.752941 0.752941 1
0.0881195 0.0619284 0.166555 0.752941 0.752941 0.752941 1
0.0872027 0.0353927 0.163284 0.752941 0.752941 0.752941 0
0.100444 0.0668389 0.173126 0.752941 0.752941 0.752941 1
0.089661 0.0634341 0.165947 0.752941 0.752941 0.752941 1
0.0821567 0.0350918 0.163284 0.752941 0.752941 0.752941 0
0.0677378 0.0261756 0.179284 0.752941 0.752941 0.752941 0
0.0932794 0.254193 0.161919 0.752941 0.752941 0.752941 1
0.0854506 0.108379 0.168531 0.752941 0.752941 0.752941 1
0.0918891 0.0876195 0.165083 0.752941 0.752941 0.752941 1
0.0777133 0.0215267 0.163284 0.752941 0.752941 0.752941 0
0.0935935 0.0209809 0.173266 0.752941 0.752941 0.752941 1
0.105793 0.183285 0.16577 0.752941 0.752941 0.752941 1
0.089936 0.244963 0.179456 0.752941 0.752941 0.752941 1
0.0994909 0.0441927 0.173993 0.752941 0.752941 0.752941 1
0.092381 0.115554 0.164583 0.752941 0.752941 0.752941 1
0.0866946 0.0963092 0.175411 0.752941 0.752941 0.752941 1
0.088981 0.0995 0.176852 0.752941 0.752941 0.752941 1
0.0846036 0.167121 0.170867 0.752941 0.752941 0.752941 1
0.095472 0.104745 0.177813 0.752941 0.752941 0.752941 1
0.10476 0.120252 0.172194 0.752941 0.752941 0.752941 1
0.0846753 0.188853 0.170271 0.752941 0.752941 0.752941 1
0.0944963 0.236078 0.180552 0.752941 0.752941 0.752941 1
0.0996962 0.227261 0.163394 0.752941 0.752941 0.752941 1
0.0595846 0.0303467 0.171736 0.752941 0.752941 0.752941 0
0.103887 0.254193 0.178057 0.752941 0.752941 0.752941 1
0.0846988 0.145448 0.17027 0.752941 0.752941 0.752941 1
0.0872971 0.168473 0.176239 0.752941 0.752941 0.752941 1
0.0881215 0.270981 0.170337 0.752941 0.752941 0.752941 1
0.0990971 0.0713912 0.167565 0.752941 0.752941 0.752941 1
0.0949845 0.021673 0.164826 0.752941 0.752941 0.752941 0
0.0913493 0.173526 0.164161 0.752941 0.752941 0.752941 1
0.0968849 0.166253 0.179164 0.752941 0.752941 0.752941 1
0.0956937 0.253195 0.161652 0.752941 0.752941 0.752941 1
0.0915889 0.0917897 0.177508 0.752941 0.752941 0.752941 1
0.100502 0.169381 0.178937 0.752941 0.752941 0.752941 1
0.0890187 0.100557 0.176878 0.752941 0.752941 0.752941 1
0.0856537 0.198464 0.174908 0.752941 0.752941 0.752941 1
0.0898625 0.043981 0.166206 0.752941 0.752941 0.752941 1
0.107412 0.189263 0.174336 0.752941 0.752941 0.752941 1
0.105068 0.199336 0.176003 0.752941 0.752941 0.752941 1
0.0883603 0.109189 0.176627 0.752941 0.752941 0.752941 1
0.106281 0.201359 0.173641 0.752941 0.752941 0.752941 1
0.0923551 0.0213465 0.176422 0.752941 0.752941 0.752941 0
0.101181 0.154091 0.164095 0.752941 0.752941 0.752941 1
0.100296 0.186671 0.163417 0.752941 0.752941 0.752941 1
0.0844109 0.0362609 0.174643 0.752941 0.752941 0.752941 0
0.102719 0.269486 0.162519 0.752941 0.752941 0.752941 1
0.104749 0.147828 0.176827 0.752941 0.752941 0.752941 1
0.0864337 0.257463 0.166067 0.752941 0.752941 0.752941 1
0.105633 0.137112 0.167565 0.752941 0.752941 0.752941 1
0.0969351 0.20491 0.162722 0.752941 0.752941 0.752941 1
0.0864943 0.179989 0.166896 0.752941 0.752941 0.752941 1
0.10455 0.24446 0.16669 0.752941 0.752941 0.752941 1
0.0910085 0.0957363 0.165108 0.752941 0.752941 0.752941 1
0.0978668 0.179537 0.179389 0.752941 0.752941 0.752941 1
0.0846084 0.112686 0.171736 0.752941 0.752941 0.752941 1
0.0929512 0.0805888 0.177405 0.752941 0.752941 0.752941 1
0.0846887 0.137599 0.172251 0.752941 0.752941 0.752941 1
0.0946698 0.226386 0.162182 0.752941 0.752941 0.752941 1
0.092764 0.134107 0.164311 0.752941 0.752941 0.752941 1
0.0889742 0.0798838 0.176648 0.752941 0.752941 0.752941 1
0.0595846 0.0261756 0.177297 0.752941 0.752941 0.752941 0
0.0846523 0.0708898 0.170541 0.752941 0.752941 0.752941 1
0.104553 0.256238 0.177729 0.752941 0.752941 0.752941 1
0.0983844 0.208483 0.179582 0.752941 0.752941 0.752941 1
0.100264 0.0864632 0.168005 0.752941 0.752941 0.752941 1
0.103401 0.135412 0.165949 0.752941 0.752941 0.752941 1
0.0969351 0.139669 0.163966 0.752941 0.752941 0.752941 1
0.09435 0.122356 0.178265 0.752941 0.752941 0.752941 1
0.0846943 0.07753 0.172232 0.752941 0.752941 0.752941 1
0.0916511 0.185915 0.178836 0.752941 0.752941 0.752941 1
0.101622 0.227621 0.164685 0.752941 0.752941 0.752941 1
0.0997158 0.242315 0.179736 0.752941 0.752941 0.752941 1
0.0903535 0.26619 0.16289 0.752941 0.752941 0.752941 1
0.0992722 0.0929123 0.16669 0.752941 0.752941 0.752941 1
0.0846039 0.130501 0.171703 0.752941 0.752941 0.752941 1
0.0845885 0.0757128 0.171202 0.752941 0.752941 0.752941 1
0.10371 0.129933 0.16669 0.752941 0.752941 0.752941 1
0.0925006 0.170772 0.178687 0.752941 0.752941 0.752941 1
0.0941544 0.259239 0.161692 0.752941 0.752941 0.752941 1
0.0911497 0.256458 0.162519 0.752941 0.752941 0.752941 1
0.111354 0.0339101 0.175907 0.752941 0.752941 0.752941 0
0.100085 0.100739 0.166774 0.752941 0.752941 0.752941 1
0.0854506 0.122631 0.168505 0.752941 0.752941 0.752941 1
0.0890187 0.0888403 0.176774 0.752941 0.752941 0.752941 1
0.105405 0.131813 0.174417 0.752941 0.752941 0.752941 1
0.0942842 0.229166 0.162159 0.752941 0.752941 0.752941 1
0.101454 0.113802 0.16669 0.752941 0.752941 0.752941 1
0.0916124 0.192697 0.163544 0.752941 0.752941 0.752941 1
0.0981563 0.0354973 0.179283 0.752941 0.752941 0.752941 0
0.0950947 0.190894 0.16297 0.752941 0.752941 0.752941 1
0.0960601 0.256458 0.180992 0.752941 0.752941 0.752941 1
0.088593 0.0868355 0.166023 0.752941 0.752941 0.752941 1
0.09208 0.0630248 0.177017 0.752941 0.752941 0.752941 1
0.087414 0.0840548 0.16669 0.752941 0.752941 0.752941 1
0.10141 0.128356 0.17715 0.752941 0.752941 0.752941 1
0.0888824 0.177067 0.177434 0.752941 0.752941 0.752941 1
0.0740508 0.0298313 0.179284 0.752941 0.752941 0.752941 0
0.0863277 0.270361 0.175325 0.752941 0.752941 0.752941 1
0.107183 0.270895 0.174516 0.752941 0.752941 0.752941 1
0.101406 0.0831799 0.170861 0.752941 0.752941 0.752941 1
0.0970151 0.0209809 0.167585 0.752941 0.752941 0.752941 1
0.0944835 0.0654313 0.165642 0.752941 0.752941 0.752941 1
0.0846965 0.184512 0.172402 0.752941 0.752941 0.752941 1
0.0944911 0.0606941 0.165749 0.752941 0.752941 0.752941 1
0.0922732 0.268199 0.180459 0.752941 0.752941 0.752941 1
0.115273 0.033241 0.173641 0.752941 0.752941 0.752941 0
0.0595846 0.0238944 0.173641 0.752941 0.752941 0.752941 0
0.0925867 0.134768 0.164333 0.752941 0.752941 0.752941 1
0.108971 0.181118 0.169897 0.752941 0.752941 0.752941 1
0.0993248 0.209826 0.163267 0.752941 0.752941 0.752941 1
0.101858 0.146508 0.177982 0.752941 0.752941 0.752941 1
0.0918891 0.142965 0.164416 0.752941 0.752941 0.752941 1
0.0847454 0.0633896 0.170163 0.752941 0.752941 0.752941 1
0.0888481 0.0651054 0.166174 0.752941 0.752941 0.752941 1
0.0705185 0.0362609 0.177813 0.752941 0.752941 0.752941 0
0.101138 0.25024 0.163015 0.752941 0.752941 0.752941 1
0.101476 0.022505 0.164181 0.752941 0.752941 0.752941 0
0.0949174 0.0345142 0.179284 0.752941 0.752941 0.752941 0
0.105092 0.216009 0.171127 0.752941 0.752941 0.752941 1
0.109724 0.167476 0.170345 0.752941 0.752941 0.752941 1
0.109103 0.152984 0.171808 0.752941 0.752941 0.752941 1
0.088593 0.0508144 0.166495 0.752941 0.752941 0.752941 1
0.134525 0.0269318 0.163394 0.752941 0.752941 0.752941 0
0.0875174 0.211092 0.165224 0.752941 0.752941 0.752941 1
0.114844 0.0242183 0.163909 0.752941 0.752941 0.752941 0
0.0847337 0.22351 0.172728 0.752941 0.752941 0.752941 1
0.0955447 0.135882 0.16401 0.752941 0.752941 0.752941 1
0.0918996 0.125679 0.178005 0.752941 0.752941 0.752941 1
0.0909849 0.132098 0.177798 0.752941 0.752941 0.752941 1
0.0867116 0.138829 0.167022 0.752941 0.752941 0.752941 1
0.0828832 0.028386 0.163284 0.752941 0.752941 0.752941 0
0.105437 0.240588 0.170143 0.752941 0.752941 0.752941 1
0.0854314 0.211713 0.174695 0.752941 0.752941 0.752941 1
0.106115 0.132685 0.169174 0.752941 0.752941 0.752941 1
0.0984647 0.203962 0.163001 0.752941 0.752941 0.752941 1
0.086144 0.196673 0.175545 0.752941 0.752941 0.752941 1
0.103401 0.240403 0.165691 0.752941 0.752941 0.752941 1
0.131694 0.0263778 0.178687 0.752941 0.752941 0.752941 0
0.101108 0.0926514 0.168573 0.752941 0.752941 0.752941 1
0.0851194 0.027566 0.179284 0.752941 0.752941 0.752941 0
0.100314 0.0442501 0.17285 0.752941 0.752941 0.752941 1
0.0897808 0.0284409 0.179284 0.752941 0.752941 0.752941 0
0.107175 0.137537 0.170345 0.752941 0.752941 0.752941 1
0.103012 0.223605 0.166249 0.752941 0.752941 0.752941 1
0.104749 0.147775 0.176824 0.752941 0.752941 0.752941 1
0.0935699 0.0732359 0.165366 0.752941 0.752941 0.752941 1
0.0846033 0.23418 0.171575 0.752941 0.752941 0.752941 1
0.0867284 0.0927728 0.175417 0.752941 0.752941 0.752941 1
0.0908237 0.106587 0.177575 0.752941 0.752941 0.752941 1
0.0617107 0.0362609 0.166174 0.752941 0.752941 0.752941 0
0.104139 0.0351419 0.166174 0.752941 0.752941 0.752941 0
0.10335 0.118866 0.167895 0.752941 0.752941 0.752941 1
0.103355 0.157024 0.177926 0.752941 0.752941 0.752941 1
0.0916289 0.215629 0.162881 0.752941 0.752941 0.752941 1
0.0994544 0.246265 0.162519 0.752941 0.752941 0.752941 1
0.0900093 0.264239 0.163064 0.752941 0.752941 0.752941 1
0.105793 0.185138 0.165876 0.752941 0.752941 0.752941 1
0.0846079 0.260629 0.170861 0.752941 0.752941 0.752941 1
0.085925 0.206103 0.167122 0.752941 0.752941 0.752941 1
0.102782 0.132795 0.176779 0.752941 0.752941 0.752941 1
0.095202 0.0392553 0.166257 0.752941 0.752941 0.752941 1
0.0882223 0.173552 0.165602 0.752941 0.752941 0.752941 1
0.0911453 0.106901 0.164923 0.752941 0.752941 0.752941 1
0.0899834 0.0500051 0.166067 0.752941 0.752941 0.752941 1
0.0978364 0.0622607 0.166904 0.752941 0.752941 0.752941 1
0.128962 0.0292341 0.163284 0.752941 0.752941 0.752941 0
0.0717058 0.0323626 0.163284 0.752941 0.752941 0.752941 0
0.0921593 0.0979583 0.164869 0.752941 0.752941 0.752941 1
0.102164 0.161019 0.164167 0.752941 0.752941 0.752941 1
0.106752 0.174081 0.176422 0.752941 0.752941 0.752941 1
0.0948362 0.10863 0.164611 0.752941 0.752941 0.752941 1
0.0847011 0.0624267 0.170345 0.752941 0.752941 0.752941 1
0.0635667 0.0233949 0.179284 0.752941 0.752941 0.752941 0
0.109206 0.159134 0.173126 0.752941 0.752941 0.752941 1
0.104078 0.162991 0.177813 0.752941 0.752941 0.752941 1
0.0989326 0.191975 0.179431 0.752941 0.752941 0.752941 1
0.0969938 0.115158 0.164696 0.752941 0.752941 0.752941 1
0.107216 0.262176 0.175559 0.752941 0.752941 0.752941 1
0.10693 0.134923 0.170868 0.752941 0.752941 0.752941 1
0.0913737 0.0414893 0.165989 0.752941 0.752941 0.752941 1
0.0847097 0.0727124 0.170281 0.752941 0.752941 0.752941 1
0.103707 0.112122 0.172251 0.752941 0.752941 0.752941 1
0.0860476 0.056836 0.174508 0.752941 0.752941 0.752941 1
0.1336 0.026622 0.177813 0.752941 0.752941 0.752941 0
0.0820709 0.0355517 0.179284 0.752941 0.752941 0.752941 0
0.106668 0.176333 0.17644 0.752941 0.752941 0.752941 1
0.0846732 0.119329 0.170389 0.752941 0.752941 0.752941 1
0.0622533 0.0326272 0.179284 0.752941 0.752941 0.752941 0
0.0848985 0.177208 0.16947 0.752941 0.752941 0.752941 1
0.0845177 0.0209809 0.177954 0.752941 0.752941 0.752941 0
0.0967473 0.0756082 0.166025 0.752941 0.752941 0.752941 1
0.0988408 0.0209809 0.170861 0.752941 0.752941 0.752941 1
0.0988408 0.0723351 0.167332 0.752941 0.752941 0.752941 1
0.0904575 0.0812741 0.177131 0.752941 0.752941 0.752941 1
0.0988408 0.142453 0.164067 0.752941 0.752941 0.752941 1
0.0881346 0.095693 0.176401 0.752941 0.752941 0.752941 1
0.0915472 0.195283 0.179085 0.752941 0.752941 0.752941 1
0.0851204 0.242627 0.16839 0.752941 0.752941 0.752941 1
0.0904987 0.251112 0.162823 0.752941 0.752941 0.752941 1
0.073931 0.0209809 0.172028 0.752941 0.752941 0.752941 0
0.102496 0.186939 0.164076 0.752941 0.752941 0.752941 1
0.0968143 0.235603 0.16218 0.752941 0.752941 0.752941 1
0.0846353 0.196966 0.170508 0.752941 0.752941 0.752941 1
0.0872027 0.260629 0.165193 0.752941 0.752941 0.752941 1
0.0938013 0.218919 0.162405 0.752941 0.752941 0.752941 1
0.0874169 0.0557785 0.167007 0.752941 0.752941 0.752941 1
0.086121 0.22587 0.166522 0.752941 0.752941 0.752941 1
0.0929967 0.205048 0.162838 0.752941 0.752941 0.752941 1
0.0858123 0.191112 0.167551 0.752941 0.752941 0.752941 1
0.130751 0.029193 0.163284 0.752941 0.752941 0.752941 0
0.0830316 0.0209809 0.177297 0.752941 0.752941 0.752941 0
0.102496 0.0354206 0.17599 0.752941 0.752941 0.752941 0
0.086688 0.104935 0.167113 0.752941 0.752941 0.752941 1
0.100683 0.138794 0.177974 0.752941 0.752941 0.752941 1
0.124976 0.0315843 0.176623 0.752941 0.752941 0.752941 0
0.0878315 0.0803992 0.176098 0.752941 0.752941 0.752941 1
0.0942348 0.146199 0.178634 0.752941 0.752941 0.752941 1
0.0765953 0.0304304 0.163284 0.752941 0.752941 0.752941 0
0.111121 0.0339015 0.178996 0.752941 0.752941 0.752941 0
0.0869453 0.0209809 0.169313 0.752941 0.752941 0.752941 1
0.0851098 0.0609771 0.169279 0.752941 0.752941 0.752941 1
0.121794 0.0318968 0.179203 0.752941 0.752941 0.752941 0
0.106558 0.152969 0.166586 0.752941 0.752941 0.752941 1
0.091968 0.0866198 0.177471 0.752941 0.752941 0.752941 1
0.0860316 0.209186 0.175658 0.752941 0.752941 0.752941 1
0.0918707 0.133605 0.178085 0.752941 0.752941 0.752941 1
0.0925252 0.168866 0.163909 0.752941 0.752941 0.752941 1
0.0968837 0.121029 0.178108 0.752941 0.752941 0.752941 1
0.0969723 0.0382158 0.175712 0.752941 0.752941 0.752941 1
0.0750961 0.0223234 0.179284 0.752941 0.752941 0.752941 0
0.0863277 0.0692793 0.167693 0.752941 0.752941 0.752941 1
0.135427 0.0298 0.16947 0.752941 0.752941 0.752941 0
0.107829 0.141575 0.171557 0.752941 0.752941 0.752941 1
0.0858123 0.036783 0.168486 0.752941 0.752941 0.752941 1
0.0857285 0.0211567 0.179165 0.752941 0.752941 0.752941 0
0.101283 0.141626 0.177928 0.752941 0.752941 0.752941 1
0.101106 0.0882668 0.169097 0.752941 0.752941 0.752941 1
0.0906863 0.0871726 0.165299 0.752941 0.752941 0.752941 1
0.0987255 0.0852722 0.166716 0.752941 0.752941 0.752941 1
0.097261 0.099036 0.1654 0.752941 0.752941 0.752941 1
0.0950322 0.131327 0.178455 0.752941 0.752941 0.752941 1
0.0941544 0.138794 0.17853 0.752941 0.752941 0.752941 1
0.085224 0.0414388 0.173374 0.752941 0.752941 0.752941 1
0.099833 0.113031 0.176839 0.752941 0.752941 0.752941 1
0.099833 0.203333 0.179189 0.752941 0.752941 0.752941 1
0.0650829 0.0209809 0.170317 0.752941 0.752941 0.752941 0
0.0949219 0.0757128 0.165492 0.752941 0.752941 0.752941 1
0.0872086 0.10638 0.16669 0.752941 0.752941 0.752941 1
0.130116 0.0261756 0.165299 0.752941 0.752941 0.752941 0
0.105165 0.252352 0.176422 0.752941 0.752941 0.752941 1
0.10084 0.0957484 0.167876 0.752941 0.752941 0.752941 1
0.0847465 0.208763 0.169779 0.752941 0.752941 0.752941 1
0.100272 0.19935 0.163462 0.752941 0.752941 0.752941 1
0.0955934 0.267581 0.161435 0.752941 0.752941 0.752941 1
0.0849005 0.221544 0.173457 0.752941 0.752941 0.752941 1
0.0917674 0.109081 0.177787 0.752941 0.752941 0.752941 1
0.084422 0.0360317 0.179203 0.752941 0.752941 0.752941 0
0.108638 0.181108 0.168961 0.752941 0.752941 0.752941 1
0.0663474 0.0272268 0.163284 0.752941 0.752941 0.752941 0
0.0855997 0.175818 0.16808 0.752941 0.752941 0.752941 1
0.0859926 0.176213 0.167551 0.752941 0.752941 0.752941 1
0.0927782 0.19145 0.163291 0.752941 0.752941 0.752941 1
0.0845881 0.119584 0.171205 0.752941 0.752941 0.752941 1
0.096778 0.114147 0.177881 0.752941 0.752941 0.752941 1
0.0984855 0.260022 0.161674 0.752941 0.752941 0.752941 1
0.105077 0.210714 0.173942 0.752941 0.752941 0.752941 1
0.101622 0.0355499 0.178556 0.752941 0.752941 0.752941 0
0.0990223 0.156353 0.163694 0.752941 0.752941 0.752941 1
0.0819462 0.0270506 0.163284 0.752941 0.752941 0.752941 0
0.0846107 0.083195 0.171736 0.752941 0.752941 0.752941 1
0.0938502 0.117142 0.16442 0.752941 0.752941 0.752941 1
0.099699 0.166825 0.17902 0.752941 0.752941 0.752941 1
0.07267 0.0272679 0.163284 0.752941 0.752941 0.752941 0
0.0850826 0.0450911 0.169416 0.752941 0.752941 0.752941 1
0.0846111 0.214748 0.170911 0.752941 0.752941 0.752941 1
0.087718 0.0690695 0.166665 0.752941 0.752941 0.752941 1
0.0891413 0.133321 0.177131 0.752941 0.752941 0.752941 1
0.0955447 0.0242699 0.163284 0.752941 0.752941 0.752941 0
0.0975842 0.26619 0.16141 0.752941 0.752941 0.752941 1
0.0882649 0.238257 0.178373 0.752941 0.752941 0.752941 1
0.0899834 0.0353927 0.163284 0.752941 0.752941 0.752941 0
0.089873 0.184675 0.178139 0.752941 0.752941 0.752941 1
0.088593 0.0539826 0.176123 0.752941 0.752941 0.752941 1
0.0873468 0.230557 0.165053 0.752941 0.752941 0.752941 1
0.101351 0.117939 0.166237 0.752941 0.752941 0.752941 1
0.0960294 0.208807 0.1626 0.752941 0.752941 0.752941 1
0.0935699 0.116803 0.164442 0.752941 0.752941 0.752941 1
0.0595846 0.0340023 0.163909 0.752941 0.752941 0.752941 0
0.100592 0.0393423 0.171162 0.752941 0.752941 0.752941 1
0.127652 0.0311275 0.178687 0.752941 0.752941 0.752941 0
0.101428 0.0837928 0.171752 0.752941 0.752941 0.752941 1
0.0947334 0.245335 0.18072 0.752941 0.752941 0.752941 1
0.0884 0.203307 0.164745 0.752941 0.752941 0.752941 1
0.0978107 0.111251 0.165046 0.752941 0.752941 0.752941 1
0.101089 0.211915 0.178425 0.752941 0.752941 0.752941 1
0.0849933 0.172666 0.169246 0.752941 0.752941 0.752941 1
0.0849373 0.257112 0.168971 0.752941 0.752941 0.752941 1
0.101148 0.0776185 0.171718 0.752941 0.752941 0.752941 1
0.0849373 0.0673591 0.169613 0.752941 0.752941 0.752941 1
0.0916036 0.152911 0.1644 0.752941 0.752941 0.752941 1
0.0946807 0.0312216 0.163284 0.752941 0.752941 0.752941 0
0.0834396 0.0360713 0.163394 0.752941 0.752941 0.752941 0
0.079376 0.0362609 0.177845 0.752941 0.752941 0.752941 0
0.101826 0.218552 0.177686 0.752941 0.752941 0.752941 1
0.0961727 0.241507 0.180609 0.752941 0.752941 0.752941 1
0.0904987 0.200844 0.178883 0.752941 0.752941 0.752941 1
0.0860869 0.199304 0.17552 0.752941 0.752941 0.752941 1
0.0846186 0.229409 0.170762 0.752941 0.752941 0.752941 1
0.0895067 0.270981 0.171758 0.752941 0.752941 0.752941 1
0.0934628 0.0796472 0.177356 0.752941 0.752941 0.752941 1
0.101745 0.113729 0.166929 0.752941 0.752941 0.752941 1
0.106668 0.266551 0.165376 0.752941 0.752941 0.752941 1
0.0788574 0.0210961 0.179103 0.752941 0.752941 0.752941 0
0.0846018 0.173037 0.170902 0.752941 0.752941 0.752941 1
0.0850021 0.109081 0.169336 0.752941 0.752941 0.752941 1
0.090309 0.105299 0.177398 0.752941 0.752941 0.752941 1
0.102611 0.129513 0.165971 0.752941 0.752941 0.752941 1
0.0937824 0.214522 0.162503 0.752941 0.752941 0.752941 1
0.0973511 0.0916614 0.165717 0.752941 0.752941 0.752941 1
0.0846987 0.143482 0.17027 0.752941 0.752941 0.752941 1
0.119268 0.0247853 0.176422 0.752941 0.752941 0.752941 0
0.0913493 0.244167 0.162503 0.752941 0.752941 0.752941 1
0.0948947 0.2648 0.161532 0.752941 0.752941 0.752941 1
0.110726 0.0304304 0.163284 0.752941 0.752941 0.752941 0
0.0853869 0.261312 0.167796 0.752941 0.752941 0.752941 1
0.0891084 0.128546 0.177103 0.752941 0.752941 0.752941 1
0.0932794 0.181379 0.179119 0.752941 0.752941 0.752941 1
0.0595846 0.0228795 0.16947 0.752941 0.752941 0.752941 0
0.124776 0.0302173 0.163284 0.752941 0.752941 0.752941 0
0.0628387 0.0253016 0.163284 0.752941 0.752941 0.752941 0
0.102073 0.0254636 0.179284 0.752941 0.752941 0.752941 0
0.0952818 0.0459473 0.166166 0.752941 0.752941 0.752941 1
0.0846984 0.138794 0.17027 0.752941 0.752941 0.752941 1
0.0848818 0.116951 0.169628 0.752941 0.752941 0.752941 1
0.0965226 0.141053 0.163909 0.752941 0.752941 0.752941 1
0.102014 0.200534 0.164245 0.752941 0.752941 0.752941 1
0.104824 0.210577 0.174516 0.752941 0.752941 0.752941 1
0.094853 0.132128 0.178458 0.752941 0.752941 0.752941 1
0.0960887 0.0706668 0.16593 0.752941 0.752941 0.752941 1
0.0872173 0.212341 0.165492 0.752941 0.752941 0.752941 1
0.102273 0.203625 0.178013 0.752941 0.752941 0.752941 1
0.089528 0.0362609 0.164784 0.752941 0.752941 0.752941 0
0.105322 0.125176 0.17275 0.752941 0.752941 0.752941 1
0.084595 0.267043 0.171038 0.752941 0.752941 0.752941 1
0.0621764 0.0209809 0.164784 0.752941 0.752941 0.752941 0
0.087718 0.0553729 0.16684 0.752941 0.752941 0.752941 1
0.0903477 0.253677 0.162884 0.752941 0.752941 0.752941 1
0.0897364 0.233023 0.163307 0.752941 0.752941 0.752941 1
0.0960601 0.216653 0.162474 0.752941 0.752941 0.752941 1
0.103238 0.210695 0.165799 0.752941 0.752941 0.752941 1
0.0676365 0.0255769 0.163284 0.752941 0.752941 0.752941 0
0.101622 0.205015 0.178353 0.752941 0.752941 0.752941 1
0.100515 0.095693 0.175032 0.752941 0.752941 0.752941 1
0.08993 0.144669 0.17753 0.752941 0.752941 0.752941 1
0.084703 0.0943316 0.170274 0.752941 0.752941 0.752941 1
0.0916036 0.135412 0.164548 0.752941 0.752941 0.752941 1
0.0959869 0.188034 0.162981 0.752941 0.752941 0.752941 1
0.0854668 0.251412 0.167629 0.752941 0.752941 0.752941 1
0.107334 0.266016 0.166278 0.752941 0.752941 0.752941 1
0.109933 0.0312216 0.179284 0.752941 0.752941 0.752941 0
0.100862 0.0668187 0.170882 0.752941 0.752941 0.752941 1
0.104293 0.218227 0.168102 0.752941 0.752941 0.752941 1
0.0634907 0.0265824 0.179284 0.752941 0.752941 0.752941 0
0.0941544 0.267581 0.161637 0.752941 0.752941 0.752941 1
0.104471 0.223874 0.16916 0.752941 0.752941 0.752941 1
0.092764 0.109081 0.164628 0.752941 0.752941 0.752941 1
0.0887445 0.181794 0.177475 0.752941 0.752941 0.752941 1
0.09669 0.194837 0.179709 0.752941 0.752941 0.752941 1
0.100249 0.249506 0.179922 0.752941 0.752941 0.752941 1
0.0595846 0.0286752 0.177297 0.752941 0.752941 0.752941 0
0.0724242 0.0362609 0.177116 0.752941 0.752941 0.752941 0
0.0738146 0.0331274 0.163284 0.752941 0.752941 0.752941 0
0.119181 0.0325738 0.170972 0.752941 0.752941 0.752941 0
0.101181 0.175805 0.163659 0.752941 0.752941 0.752941 1
0.104341 0.148154 0.177066 0.752941 0.752941 0.752941 1
0.0941544 0.0209809 0.167565 0.752941 0.752941 0.752941 1
0.102418 0.178932 0.164005 0.752941 0.752941 0.752941 1
0.0969351 0.215006 0.179955 0.752941 0.752941 0.752941 1
0.0621764 0.0359081 0.179056 0.752941 0.752941 0.752941 0
0.093126 0.183651 0.163431 0.752941 0.752941 0.752941 1
0.0957999 0.261254 0.161516 0.752941 0.752941 0.752941 1
0.104749 0.242418 0.175173 0.752941 0.752941 0.752941 1
0.110283 0.0302173 0.163284 0.752941 0.752941 0.752941 0
0.0915001 0.0673707 0.177071 0.752941 0.752941 0.752941 1
0.0860929 0.114038 0.167662 0.752941 0.752941 0.752941 1
0.100016 0.190226 0.179214 0.752941 0.752941 0.752941 1
0.0639799 0.0233949 0.179284 0.752941 0.752941 0.752941 0
0.0970405 0.0845647 0.176713 0.752941 0.752941 0.752941 1
0.0852582 0.265315 0.174516 0.752941 0.752941 0.752941 1
0.106825 0.197608 0.169137 0.752941 0.752941 0.752941 1
0.0993911 0.176884 0.179235 0.752941 0.752941 0.752941 1
0.0663474 0.0362609 0.165299 0.752941 0.752941 0.752941 0
0.0951221 0.222183 0.162299 0.752941 0.752941 0.752941 1
0.0624929 0.0209809 0.170422 0.752941 0.752941 0.752941 0
0.0880432 0.265688 0.164396 0.752941 0.752941 0.752941 1
0.0988313 0.0359183 0.176222 0.752941 0.752941 0.752941 0
0.101181 0.237235 0.163913 0.752941 0.752941 0.752941 1
0.104299 0.198489 0.17685 0.752941 0.752941 0.752941 1
0.105367 0.26922 0.16392 0.752941 0.752941 0.752941 1
0.0875535 0.256197 0.164853 0.752941 0.752941 0.752941 1
0.092599 0.188846 0.163394 0.752941 0.752941 0.752941 1
0.0952671 0.09225 0.165108 0.752941 0.752941 0.752941 1
0.0904987 0.249003 0.162829 0.752941 0.752941 0.752941 1
0.0877541 0.247611 0.177945 0.752941 0.752941 0.752941 1
0.0698483 0.0277628 0.163284 0.752941 0.752941 0.752941 0
0.0886026 0.168711 0.177134 0.752941 0.752941 0.752941 1
0.0850079 0.0631996 0.16947 0.752941 0.752941 0.752941 1
0.105583 0.134623 0.167904 0.752941 0.752941 0.752941 1
0.0897808 0.0327796 0.179284 0.752941 0.752941 0.752941 0
0.0970264 0.0506151 0.166695 0.752941 0.752941 0.752941 1
0.0915319 0.0673707 0.165496 0.752941 0.752941 0.752941 1
0.0907524 0.0734474 0.177052 0.752941 0.752941 0.752941 1
0.0889239 0.186066 0.164901 0.752941 0.752941 0.752941 1
0.0904987 0.0729321 0.176998 0.752941 0.752941 0.752941 1
0.0924672 0.233843 0.180252 0.752941 0.752941 0.752941 1
0.0636769 0.0362609 0.168955 0.752941 0.752941 0.752941 0
0.102114 0.094768 0.171604 0.752941 0.752941 0.752941 1
0.0863472 0.0877604 0.167522 0.752941 0.752941 0.752941 1
0.0863277 0.0633264 0.167747 0.752941 0.752941 0.752941 1
0.0937729 0.228863 0.162206 0.752941 0.752941 0.752941 1
0.0601672 0.0233559 0.163284 0.752941 0.752941 0.752941 0
0.0968837 0.206435 0.17987 0.752941 0.752941 0.752941 1
0.0731997 0.0348365 0.179284 0.752941 0.752941 0.752941 0
0.0863277 0.0422201 0.167954 0.752941 0.752941 0.752941 1
0.0913993 0.216653 0.179666 0.752941 0.752941 0.752941 1
0.137474 0.0273498 0.179203 0.752941 0.752941 0.752941 0
0.0918891 0.229166 0.16252 0.752941 0.752941 0.752941 1
0.094553 0.0400485 0.166122 0.752941 0.752941 0.752941 1
0.0966689 0.121282 0.178154 0.752941 0.752941 0.752941 1
0.085173 0.192502 0.168652 0.752941 0.752941 0.752941 1
0.0851701 0.091898 0.169031 0.752941 0.752941 0.752941 1
0.0959005 0.175641 0.179304 0.752941 0.752941 0.752941 1
0.103012 0.245039 0.164763 0.752941 0.752941 0.752941 1
0.101641 0.117939 0.176143 0.752941 0.752941 0.752941 1
0.105558 0.210365 0.17211 0.752941 0.752941 0.752941 1
0.0746362 0.0331666 0.163284 0.752941 0.752941 0.752941 0
0.0863277 0.162813 0.167302 0.752941 0.752941 0.752941 1
0.0847616 0.136085 0.172569 0.752941 0.752941 0.752941 1
0.0849373 0.0826645 0.173018 0.752941 0.752941 0.752941 1
0.0960601 0.0517275 0.166311 0.752941 0.752941 0.752941 1
0.0821604 0.0362609 0.17314 0.752941 0.752941 0.752941 0
0.0929844 0.0279087 0.179284 0.752941 0.752941 0.752941 0
0.0978668 0.0406672 0.175294 0.752941 0.752941 0.752941 1
0.0951927 0.199924 0.162752 0.752941 0.752941 0.752941 1
0.0595846 0.033202 0.164768 0.752941 0.752941 0.752941 0
0.0880696 0.0272268 0.163284 0.752941 0.752941 0.752941 0
0.098693 0.0359239 0.177453 0.752941 0.752941 0.752941 0
0.0902921 0.240223 0.17961 0.752941 0.752941 0.752941 1
0.093601 0.159007 0.163858 0.752941 0.752941 0.752941 1
0.0846086 0.109709 0.171736 0.752941 0.752941 0.752941 1
0.0927021 0.158645 0.164019 0.752941 0.752941 0.752941 1
0.117575 0.0328479 0.166174 0.752941 0.752941 0.752941 0
0.091968 0.131844 0.178089 0.752941 0.752941 0.752941 1
0.10152 0.101985 0.168092 0.752941 0.752941 0.752941 1
0.0857405 0.254884 0.175486 0.752941 0.752941 0.752941 1
0.088593 0.190714 0.164962 0.752941 0.752941 0.752941 1
0.0912101 0.135047 0.177887 0.752941 0.752941 0.752941 1
0.0760155 0.0214892 0.179283 0.752941 0.752941 0.752941 0
0.0732992 0.0362609 0.177116 0.752941 0.752941 0.752941 0
0.0932794 0.0748378 0.165308 0.752941 0.752941 0.752941 1
0.0858123 0.0628152 0.168258 0.752941 0.752941 0.752941 1
0.0862356 0.151621 0.16746 0.752941 0.752941 0.752941 1
0.0613873 0.0362609 0.176452 0.752941 0.752941 0.752941 0
0.075747 0.0261756 0.163284 0.752941 0.752941 0.752941 0
0.0631166 0.0362158 0.163968 0.752941 0.752941 0.752941 0
0.0872027 0.0539826 0.175404 0.752941 0.752941 0.752941 1
0.0890187 0.172375 0.177428 0.752941 0.752941 0.752941 1
0.0859279 0.0727146 0.174516 0.752941 0.752941 0.752941 1
0.0890977 0.225191 0.178802 0.752941 0.752941 0.752941 1
0.0620059 0.0276323 0.179284 0.752941 0.752941 0.752941 0
0.11129 0.0237627 0.173995 0.752941 0.752941 0.752941 0
0.106893 0.163665 0.176281 0.752941 0.752941 0.752941 1
0.092764 0.226178 0.162361 0.752941 0.752941 0.752941 1
0.0854522 0.193892 0.16808 0.752941 0.752941 0.752941 1
0.0603472 0.0209809 0.178067 0.752941 0.752941 0.752941 0
0.0845947 0.147247 0.17107 0.752941 0.752941 0.752941 1
0.10041 0.0214892 0.170251 0.752941 0.752941 0.752941 1
0.102467 0.101985 0.172707 0.752941 0.752941 0.752941 1
0.0868656 0.172249 0.175913 0.752941 0.752941 0.752941 1
0.102732 0.0226659 0.170345 0.752941 0.752941 0.752941 0
0.0960601 0.172162 0.163329 0.752941 0.752941 0.752941 1
0.101535 0.0867859 0.170574 0.752941 0.752941 0.752941 1
0.0993724 0.0303467 0.179284 0.752941 0.752941 0.752941 0
0.102744 0.104884 0.169777 0.752941 0.752941 0.752941 1
0.0883699 0.0831799 0.166174 0.752941 0.752941 0.752941 1
0.0595846 0.0307112 0.169238 0.752941 0.752941 0.752941 0
0.0878272 0.130086 0.166174 0.752941 0.752941 0.752941 1
0.102418 0.141069 0.165072 0.752941 0.752941 0.752941 1
0.0718449 0.0289563 0.179284 0.752941 0.752941 0.752941 0
0.100687 0.254863 0.162519 0.752941 0.752941 0.752941 1
0.0699749 0.0272679 0.163284 0.752941 0.752941 0.752941 0
0.0923065 0.0743224 0.177248 0.752941 0.752941 0.752941 1
0.0911086 0.06459 0.165611 0.752941 0.752941 0.752941 1
0.09681 0.047242 0.166651 0.752941 0.752941 0.752941 1
0.106703 0.16382 0.176422 0.752941 0.752941 0.752941 1
0.108023 0.269156 0.16669 0.752941 0.752941 0.752941 1
0.0971109 0.186457 0.16302 0.752941 0.752941 0.752941 1
0.088593 0.203625 0.164623 0.752941 0.752941 0.752941 1
0.105576 0.24168 0.172251 0.752941 0.752941 0.752941 1
0.0899834 0.133232 0.177494 0.752941 0.752941 0.752941 1
0.0925151 0.0816369 0.165167 0.752941 0.752941 0.752941 1
0.084878 0.0632245 0.169773 0.752941 0.752941 0.752941 1
0.0612607 0.0209809 0.173641 0.752941 0.752941 0.752941 0
0.10306 0.270179 0.179529 0.752941 0.752941 0.752941 1
0.096749 0.0793735 0.165912 0.752941 0.752941 0.752941 1
0.0902809 0.122261 0.177515 0.752941 0.752941 0.752941 1
0.0879261 0.195283 0.165299 0.752941 0.752941 0.752941 1
0.0959005 0.105553 0.177759 0.752941 0.752941 0.752941 1
0.0907981 0.226512 0.179661 0.752941 0.752941 0.752941 1
0.0890187 0.180897 0.177608 0.752941 0.752941 0.752941 1
0.105669 0.129936 0.173544 0.752941 0.752941 0.752941 1
0.0821606 0.0209809 0.167565 0.752941 0.752941 0.752941 0
0.0624505 0.0209809 0.175032 0.752941 0.752941 0.752941 0
0.100544 0.26446 0.161941 0.752941 0.752941 0.752941 1
0.0982631 0.106118 0.177139 0.752941 0.752941 0.752941 1
0.0817724 0.0351329 0.163284 0.752941 0.752941 0.752941 0
0.0855995 0.185019 0.167967 0.752941 0.752941 0.752941 1
0.11501 0.0242395 0.174516 0.752941 0.752941 0.752941 0
0.0903545 0.267581 0.162891 0.752941 0.752941 0.752941 1
0.0946698 0.096568 0.177672 0.752941 0.752941 0.752941 1
0.0858992 0.0558438 0.168218 0.752941 0.752941 0.752941 1
0.0972117 0.240982 0.162108 0.752941 0.752941 0.752941 1
0.109671 0.165945 0.172376 0.752941 0.752941 0.752941 1
0.084656 0.262535 0.170227 0.752941 0.752941 0.752941 1
0.0867949 0.199969 0.166174 0.752941 0.752941 0.752941 1
0.100413 0.230557 0.178848 0.752941 0.752941 0.752941 1
0.107727 0.141059 0.171736 0.752941 0.752941 0.752941 1
0.106164 0.250885 0.174238 0.752941 0.752941 0.752941 1
0.0879117 0.125765 0.176422 0.752941 0.752941 0.752941 1
0.10656 0.25213 0.173554 0.752941 0.752941 0.752941 1
0.104286 0.227261 0.174127 0.752941 0.752941 0.752941 1
0.0922459 0.270981 0.174613 0.752941 0.752941 0.752941 1
0.104384 0.149775 0.165436 0.752941 0.752941 0.752941 1
0.108573 0.0343848 0.163991 0.752941 0.752941 0.752941 0
0.100909 0.175818 0.163614 0.752941 0.752941 0.752941 1
0.0872348 0.196367 0.165838 0.752941 0.752941 0.752941 1
0.0845889 0.0437348 0.171202 0.752941 0.752941 0.752941 1
0.0710339 0.0362609 0.173126 0.752941 0.752941 0.752941 0
0.0933156 0.15662 0.163938 0.752941 0.752941 0.752941 1
0.101212 0.241164 0.163681 0.752941 0.752941 0.752941 1
0.0969666 0.0515645 0.175907 0.752941 0.752941 0.752941 1
0.0949174 0.103333 0.177821 0.752941 0.752941 0.752941 1
0.0969351 0.0548575 0.16659 0.752941 0.752941 0.752941 1
0.0978938 0.0475491 0.175374 0.752941 0.752941 0.752941 1
0.099393 0.14523 0.164064 0.752941 0.752941 0.752941 1
0.0945248 0.114643 0.17813 0.752941 0.752941 0.752941 1
0.0943538 0.16413 0.163651 0.752941 0.752941 0.752941 1
0.100816 0.0822044 0.173459 0.752941 0.752941 0.752941 1
0.105358 0.257848 0.177166 0.752941 0.752941 0.752941 1
0.101472 0.20553 0.16415 0.752941 0.752941 0.752941 1
0.0866944 0.145983 0.175538 0.752941 0.752941 0.752941 1
0.0654885 0.0362609 0.16679 0.752941 0.752941 0.752941 0
0.0870637 0.244692 0.16531 0.752941 0.752941 0.752941 1
0.0888506 0.0915152 0.165848 0.752941 0.752941 0.752941 1
0.100231 0.0664957 0.169075 0.752941 0.752941 0.752941 1
0.0899834 0.21408 0.179028 0.752941 0.752941 0.752941 1
0.0847947 0.253677 0.173061 0.752941 0.752941 0.752941 1
0.104402 0.251531 0.165357 0.752941 0.752941 0.752941 1
0.0866306 0.196377 0.166435 0.752941 0.752941 0.752941 1
0.100231 0.0537726 0.169436 0.752941 0.752941 0.752941 1
0.10148 0.119727 0.176422 0.752941 0.752941 0.752941 1
0.0909849 0.228577 0.179767 0.752941 0.752941 0.752941 1
0.0960601 0.0984737 0.165076 0.752941 0.752941 0.752941 1
0.0995107 0.160564 0.163652 0.752941 0.752941 0.752941 1
0.101888 0.218919 0.177628 0.752941 0.752941 0.752941 1
0.0846577 0.247241 0.17237 0.752941 0.752941 0.752941 1
0.103488 0.212331 0.166211 0.752941 0.752941 0.752941 1
0.102167 0.0957014 0.170771 0.752941 0.752941 0.752941 1
0.101386 0.14384 0.178 0.752941 0.752941 0.752941 1
0.12025 0.0249112 0.177813 0.752941 0.752941 0.752941 0
0.101944 0.169522 0.16392 0.752941 0.752941 0.752941 1
0.0929005 0.142293 0.164199 0.752941 0.752941 0.752941 1
0.0663474 0.0362508 0.164092 0.752941 0.752941 0.752941 0
0.0911501 0.206204 0.163287 0.752941 0.752941 0.752941 1
0.0880207 0.0743224 0.166456 0.752941 0.752941 0.752941 1
0.0850301 0.087488 0.173243 0.752941 0.752941 0.752941 1
0.105027 0.270981 0.169698 0.752941 0.752941 0.752941 1
0.0896374 0.0528291 0.166125 0.752941 0.752941 0.752941 1
0.0992143 0.205921 0.163188 0.752941 0.752941 0.752941 1
0.102502 0.154088 0.164478 0.752941 0.752941 0.752941 1
0.0869665 0.242555 0.165402 0.752941 0.752941 0.752941 1
0.0848223 0.244648 0.173219 0.752941 0.752941 0.752941 1
0.0726089 0.0362609 0.168011 0.752941 0.752941 0.752941 0
0.087718 0.211967 0.177534 0.752941 0.752941 0.752941 1
0.106338 0.142306 0.167565 0.752941 0.752941 0.752941 1
0.102852 0.221699 0.165974 0.752941 0.752941 0.752941 1
0.0986096 0.13466 0.178282 0.752941 0.752941 0.752941 1
0.101799 0.147603 0.178042 0.752941 0.752941 0.752941 1
0.0955447 0.110471 0.164609 0.752941 0.752941 0.752941 1
0.0959501 0.209186 0.162588 0.752941 0.752941 0.752941 1
0.0742956 0.0209809 0.177297 0.752941 0.752941 0.752941 0
0.0947726 0.138752 0.178565 0.752941 0.752941 0.752941 1
0.0751294 0.0336149 0.163284 0.752941 0.752941 0.752941 0
0.0929512 0.174876 0.178899 0.752941 0.752941 0.752941 1
0.083612 0.0334994 0.163284 0.752941 0.752941 0.752941 0
0.0966558 0.225889 0.180181 0.752941 0.752941 0.752941 1
0.10366 0.16082 0.164633 0.752941 0.752941 0.752941 1
0.101927 0.170772 0.163904 0.752941 0.752941 0.752941 1
0.0979535 0.202233 0.179661 0.752941 0.752941 0.752941 1
0.0850862 0.210588 0.173931 0.752941 0.752941 0.752941 1
0.0938465 0.196673 0.17964 0.752941 0.752941 0.752941 1
0.0869254 0.136952 0.175733 0.752941 0.752941 0.752941 1
0.0934561 0.220428 0.1624 0.752941 0.752941 0.752941 1
0.0980754 0.153157 0.178857 0.752941 0.752941 0.752941 1
0.106797 0.148391 0.167231 0.752941 0.752941 0.752941 1
0.108936 0.266966 0.173201 0.752941 0.752941 0.752941 1
0.13773 0.0294068 0.166274 0.752941 0.752941 0.752941 0
0.103515 0.211092 0.176422 0.752941 0.752941 0.752941 1
0.0850413 0.0492961 0.16947 0.752941 0.752941 0.752941 1
0.0972481 0.0636435 0.166565 0.752941 0.752941 0.752941 1
0.0595846 0.027582 0.166469 0.752941 0.752941 0.752941 0
0.075525 0.0362609 0.176538 0.752941 0.752941 0.752941 0
0.106668 0.200064 0.169674 0.752941 0.752941 0.752941 1
0.121961 0.0320991 0.177813 0.752941 0.752941 0.752941 0
0.0899738 0.138153 0.177511 0.752941 0.752941 0.752941 1
0.089806 0.0409541 0.166275 0.752941 0.752941 0.752941 1
0.0749141 0.0210187 0.17891 0.752941 0.752941 0.752941 0
0.0879769 0.264823 0.178114 0.752941 0.752941 0.752941 1
0.0595846 0.027566 0.171882 0.752941 0.752941 0.752941 0
0.0914233 0.24168 0.180078 0.752941 0.752941 0.752941 1
0.0595846 0.0326077 0.174516 0.752941 0.752941 0.752941 0
0.0996322 0.165037 0.163575 0.752941 0.752941 0.752941 1
0.0940515 0.0977247 0.164828 0.752941 0.752941 0.752941 1
0.0746895 0.0362609 0.166048 0.752941 0.752941 0.752941 0
0.087718 0.0210231 0.163909 0.752941 0.752941 0.752941 0
0.0863277 0.0498115 0.167868 0.752941 0.752941 0.752941 1
0.0852131 0.161039 0.168818 0.752941 0.752941 0.752941 1
0.0937312 0.0827565 0.177408 0.752941 0.752941 0.752941 1
0.093044 0.15356 0.164027 0.752941 0.752941 0.752941 1
0.0929512 0.101492 0.177813 0.752941 0.752941 0.752941 1
0.134478 0.0267346 0.167709 0.752941 0.752941 0.752941 0
0.107549 0.265697 0.16669 0.752941 0.752941 0.752941 1
0.0850392 0.203808 0.168835 0.752941 0.752941 0.752941 1
0.101181 0.151321 0.164202 0.752941 0.752941 0.752941 1
0.0955742 0.171647 0.179203 0.752941 0.752941 0.752941 1
0.0849373 0.22448 0.173584 0.752941 0.752941 0.752941 1
0.0767093 0.0338057 0.179284 0.752941 0.752941 0.752941 0
0.101506 0.130647 0.165312 0.752941 0.752941 0.752941 1
0.0946893 0.17831 0.163293 0.752941 0.752941 0.752941 1
0.104789 0.216009 0.16916 0.752941 0.752941 0.752941 1
0.102014 0.101254 0.173641 0.752941 0.752941 0.752941 1
0.103887 0.194408 0.177476 0.752941 0.752941 0.752941 1
0.0912647 0.179098 0.164052 0.752941 0.752941 0.752941 1
0.0996126 0.10352 0.16625 0.752941 0.752941 0.752941 1
0.0958136 0.219049 0.162411 0.752941 0.752941 0.752941 1
0.0680698 0.0350918 0.163284 0.752941 0.752941 0.752941 0
0.10127 0.0995359 0.16803 0.752941 0.752941 0.752941 1
0.0997158 0.179989 0.163363 0.752941 0.752941 0.752941 1
0.0882082 0.140466 0.165914 0.752941 0.752941 0.752941 1
0.0929446 0.0214147 0.165481 0.752941 0.752941 0.752941 0
0.0876711 0.12558 0.166288 0.752941 0.752941 0.752941 1
0.0984832 0.0826645 0.175907 0.752941 0.752941 0.752941 1
0.0994922 0.105005 0.166087 0.752941 0.752941 0.752941 1
0.106186 0.252802 0.17479 0.752941 0.752941 0.752941 1
0.0983254 0.245851 0.180365 0.752941 0.752941 0.752941 1
0.0847217 0.0734747 0.170224 0.752941 0.752941 0.752941 1
0.0921387 0.258364 0.180405 0.752941 0.752941 0.752941 1
0.0969351 0.194767 0.162875 0.752941 0.752941 0.752941 1
0.0913046 0.115158 0.164784 0.752941 0.752941 0.752941 1
0.104402 0.191638 0.165275 0.752941 0.752941 0.752941 1
0.12161 0.0250854 0.16669 0.752941 0.752941 0.752941 0
0.0851819 0.112377 0.168955 0.752941 0.752941 0.752941 1
0.0869459 0.156501 0.175818 0.752941 0.752941 0.752941 1
0.0928684 0.161053 0.17862 0.752941 0.752941 0.752941 1
0.119304 0.0325527 0.163857 0.752941 0.752941 0.752941 0
0.0969073 0.0610169 0.166459 0.752941 0.752941 0.752941 1
0.0879896 0.114334 0.176456 0.752941 0.752941 0.752941 1
0.103414 0.234286 0.176259 0.752941 0.752941 0.752941 1
0.100187 0.0842785 0.174516 0.752941 0.752941 0.752941 1
0.107564 0.146413 0.168432 0.752941 0.752941 0.752941 1
0.0991238 0.100364 0.166174 0.752941 0.752941 0.752941 1
0.0917162 0.0997112 0.164914 0.752941 0.752941 0.752941 1
0.094941 0.270981 0.174613 0.752941 0.752941 0.752941 1
0.0988408 0.091522 0.166477 0.752941 0.752941 0.752941 1
0.0934083 0.0948488 0.164858 0.752941 0.752941 0.752941 1
0.109409 0.16283 0.173126 0.752941 0.752941 0.752941 1
0.0853791 0.0428598 0.173615 0.752941 0.752941 0.752941 1
0.0979699 0.0659803 0.175676 0.752941 0.752941 0.752941 1
0.0853913 0.0386887 0.173603 0.752941 0.752941 0.752941 1
0.0867616 0.230041 0.176894 0.752941 0.752941 0.752941 1
0.0957745 0.120204 0.164378 0.752941 0.752941 0.752941 1
