ply
format ascii 1.0
comment Created by Open3D
element vertex 1133
property float32 x
property float32 y
property float32 z
property float32 red
property float32 green
property float32 blue
property uint8 segmentation
end_header
-0.0178915 0.0025 -0.0245283 1 1 1 0
-0.0217333 0.0069412 0.115182 0 0 1 3
-0.00510809 -0.0075 0.0595991 0.847059 0.847059 0.14902 1
0.00148873 0.0075 0.0767858 0.298039 0.298039 0.698039 1
0.000922522 -0.0025 -0.0377477 1 1 1 1
-0.0238276 -0.00244228 -0.0350722 1 1 1 0
0.00260693 -0.00585603 0.000204721 0.776471 0.756863 0.737255 4
-0.00149734 0.0075 0.0748034 0.866667 0.866667 0.133333 1
-0.000847749 -0.0075 0.0761493 0.631373 0.631373 0.364706 1
0.00167452 0.00302088 0.131072 1 1 1 1
-0.00339186 0.00391147 -0.0422713 1 1 1 1
-0.0124715 0.00259902 -0.0431274 1 1 1 0
0.011656 0.00478148 0.0637352 0 0 1 1
-0.0232554 0.00668907 0.0616554 0 0 1 3
-0.00627672 0.004 -0.0485967 1 1 1 1
0.00982909 -0.00737367 0.127805 1 1 1 1
0.0111165 0.00461729 0.0033917 1 1 1 1
0.00407063 0.0075 0.0556287 0.180392 0.180392 0.815686 1
-0.00317601 -0.004 -0.034975 1 1 1 1
-0.0257703 0.00476435 0.116647 0 0 1 3
0.0022119 -0.00741299 0.0248219 1 1 0 1
-0.0182205 0.00336308 -0.0332112 1 1 1 0
-0.0165244 -0.000251595 -0.0497789 1 1 1 0
-0.0120729 -0.001187 0.0596417 1 1 1 7
-0.0233504 -0.0025 -0.00609958 1 1 1 0
0.013044 0.00310423 0.00163705 1 1 1 1
-0.0164283 -0.00157129 0.0810174 1 1 1 3
-0.0110606 0.00151163 -0.0224072 1 1 1 0
0.00357866 -0.000967958 0.123507 0.631373 0.631373 1 1
-0.029908 0.00145249 0.028686 1 1 1 3
0.0116444 0.0046092 0.0518708 0 0 1 1
-0.0286051 0.000745069 0.0542448 0 0 1 3
-0.023038 0.00692838 0.0801696 0 0 1 3
-0.0245044 0.0043924 0.0423938 1 1 1 3
0.00843158 -0.0069832 0.0557349 0 0 1 1
-0.0284519 -0.00192318 0.110843 0 0 1 3
-0.0151255 -0.0045 0.0490934 0.901961 0.901961 1 3
-0.0197896 0.00658077 0.120292 0 0 1 3
-0.0233562 0.00445037 0.0527325 0.831373 0.831373 1 3
-0.0149385 -0.0058667 0.0789197 0 0 1 3
-0.0257807 0.00243012 0.11895 1 1 1 3
-0.0218633 -0.0069832 0.0575828 0 0 1 3
0.0108175 -0.00640643 0.0832258 0 0 1 1
-0.0283683 -0.00305451 0.0799698 0 0 1 3
-0.0106212 0.00499764 0.0150527 1 1 1 1
-0.0151534 0.0007 0.101432 1 1 1 3
-0.00434465 0.005 0.00394631 1 1 1 1
-0.00590837 -0.00628769 0.0783774 0.662745 0.662745 0.329412 1
0.00669972 0.0075 0.025409 0.886275 0.886275 0.109804 1
0.00260119 0.00433625 -0.0205683 1 1 1 1
-0.00772137 -0.00699409 0.0368562 1 1 0 1
-0.0306372 -0.00593714 -0.00371723 0.776471 0.756863 0.737255 5
-0.0284587 -0.00247291 0.0784441 0 0 1 3
0.0112433 0.00527764 0.0648138 0 0 1 1
-0.0163784 0.00150624 0.11709 1 1 1 3
-0.0267135 0.00429711 0.0308737 1 1 1 3
0.0124827 0.00604894 0.121796 0 0 1 1
-0.0027861 -0.005 0.0131908 1 1 0.886275 1
0.00990643 0.005 -0.00268487 1 1 1 1
-0.00654073 -0.00219714 0.0821161 0.654902 0.654902 0.341176 1
0.0025541 -0.0075 0.078749 0.133333 0.133333 0.866667 1
-0.00203173 -0.00252677 -0.0188431 1 1 1 1
0.00873789 -0.00708323 0.0722425 0 0 1 1
-0.023038 0.0045 0.0468281 1 1 1 3
0.000173896 0.0075 0.0719461 0.678431 0.678431 0.313726 1
-0.00391147 -0.00596427 0.0914225 0 0 1 1
0.00577192 -0.0075 0.0236776 1 1 0 1
-0.0172037 -0.00267714 -0.0278185 1 1 1 0
-0.0198282 -0.0025 -0.00884665 1 1 1 0
-0.0125148 0.0015 0.0407203 1 1 1 7
-0.0229538 -0.00676955 0.062593 0 0 1 3
-0.00241258 -0.00689506 0.0925234 0 0 1 1
-0.0168378 -0.0045 0.0380171 0.901961 0.901961 1 3
0.0102256 0.00667315 0.0815004 0 0 1 1
0.0132907 0.00117911 0.0638146 0 0 1 1
-0.00605369 0.005 0.0209577 1 1 0.788235 1
-0.0217333 -0.00683957 0.119074 0 0 1 3
0.00395484 0.005 -0.00202179 1 1 1 1
0.00155325 0.00746601 0.100912 0 0 1 1
-0.00850524 0.00669108 0.0459977 1 1 0 1
-0.0285805 0.00472926 0.0965757 0 0 1 3
0.00180513 0.00744562 0.102546 0 0 1 1
-0.0198826 -0.00200579 0.0128227 1 1 1 3
-0.0253384 -0.00553232 0.114139 0 0 1 3
-0.00823362 -0.0069832 0.03761 1 1 0 1
-0.0159831 0.004 -0.0408684 1 1 1 0
-0.0188987 -0.0012 0.00356911 1 1 1 0
0.00183501 0.00739245 0.104217 0 0 1 1
-0.0204112 0.0066977 0.111001 0 0 1 3
0.00100962 -0.0075 0.0835887 0.133333 0.133333 0.866667 1
-0.0233504 -0.0045 0.0266776 1 1 1 3
0.0125438 -0.0031708 0.0499387 0 0 1 1
-0.0151432 -0.00681366 0.0779647 0 0 1 3
-0.0332319 -0.005 -0.00632559 1 1 1 3
-0.00648 -0.005 0.0100475 1 1 1 1
-0.0265624 0.00472926 0.112345 0 0 1 3
-0.011475 -0.0015 0.0345578 1 1 1 7
-0.0335732 -0.00394355 0.00972727 1 1 1 3
-0.0238197 -0.0025 -0.0124555 1 1 1 0
-0.0152448 -0.00167062 0.124313 1 1 1 3
-0.016379 0.007 0.0658372 0 0 1 3
-0.037755 0.00149685 -0.000181823 1 1 1 0
-0.0161924 -0.001187 -0.0500868 1 1 1 0
0.000892647 0.0075 0.0551225 0.345098 0.345098 0.647059 1
-0.00155652 0.0075 0.0774108 0.631373 0.631373 0.364706 1
-0.026401 -0.0025 -0.0131565 1 1 1 0
0.0135306 0.00512106 0.098435 0 0 1 1
-0.0280314 -0.00210163 0.037205 1 1 1 3
-0.0263819 0.00512214 0.0551974 0 0 1 3
0.0135494 0.00505113 0.0977977 0 0 1 1
-0.0216718 0.00601519 0.0241103 0.776471 0.756863 0.737255 2
-0.0201323 -0.00423368 0.104914 0.109804 0.109804 1 3
0.00934356 0.0025 -0.0241511 1 1 1 1
-0.0042297 0.005 0.0193413 1 1 0.788235 1
0.012602 0.00194194 0.134149 1 1 1 1
0.00917982 -0.00703132 0.029543 0.333333 0.333333 0.666667 1
-0.0282181 0.00505113 0.0943206 0 0 1 3
-0.00527764 0.00738187 0.0709627 1 1 0 1
-0.000836999 -0.00712572 0.0971106 0 0 1 1
0.00917982 0.0066848 0.0595991 0 0 1 1
-0.0275715 -0.005 -0.000665148 1 1 1 3
0.0156345 0.00267714 0.105385 0 0 1 1
0.00430098 -0.005 0.0188695 1 1 0.886275 1
-0.0197609 0.00443948 0.0954246 0.192157 0.192157 1 3
-0.00271484 -0.0075 0.0735655 0.631373 0.631373 0.364706 1
0.00917053 -0.005 -0.00878604 1 1 1 1
0.0115735 0.00468094 -0.0133776 1 1 1 1
-0.0130718 0.00347449 0.0663743 0 0 1 3
-0.0036102 -0.0029082 -0.0442906 1 1 1 1
0.00802344 0.00730928 0.0742442 0 0 1 1
-0.00832823 0.005 -0.00328074 1 1 1 1
-0.018311 0.00379158 -0.0391044 1 1 1 0
0.00294169 0.0075 0.03106 0.752941 0.752941 0.243137 1
-0.00537696 -0.00176642 0.0909541 0 0 1 1
-0.0265022 -0.0025 -0.0176836 1 1 1 0
-0.014005 -0.004 -0.0365624 1 1 1 0
-0.0148826 0.0017 0.108043 1 1 1 3
-0.0241073 -0.0025 -0.0279731 1 1 1 0
0.00565178 0.0075 0.0942656 0 0 1 1
0.00917982 0.00681573 0.0686062 0 0 1 1
0.000981602 -0.0075 0.0851579 0.133333 0.133333 0.866667 1
0.013989 -0.00166337 -0.0131268 1 1 1 1
0.000730755 0.0075 0.03106 0.752941 0.752941 0.243137 1
-0.0236653 -0.00442718 0.0503807 0.831373 0.831373 1 3
0.000730755 0.0075 0.0658372 0.345098 0.345098 0.647059 1
-0.00163519 0.005 0.0116094 1 1 0.788235 1
0.011852 0.00455398 -0.0131683 1 1 1 1
-0.0335444 0.00591151 -0.00282291 0.776471 0.756863 0.737255 5
0.0116714 -0.00572196 0.0260126 0.305882 0.305882 0.686275 1
-0.0371898 0.00478834 -0.000295021 1 1 1 3
-0.00627672 -0.001187 0.0842319 0.321569 0.321569 0.67451 1
-0.02199 0.0012 0.0018886 1 1 1 0
-0.022382 0.00220184 -0.0408684 1 1 1 0
-0.026401 -0.00238361 0.122886 0 0 1 3
-0.0361355 0.00409569 0.00232528 1 1 1 3
-0.0102034 0.005 0.000672471 1 1 1 1
-0.00425075 -0.005 0.0156034 1 1 0.886275 1
-0.00954119 0.00391147 -0.0515785 1 1 1 1
-0.0273969 -0.00311907 0.0649703 0 0 1 3
-0.00291519 -0.00654127 0.0294559 1 1 0 1
-0.00736989 -0.005 -0.00214851 1 1 1 1
-0.0279198 -0.00475645 0.086648 0 0 1 3
-0.0150757 -0.0045 0.037496 0.901961 0.901961 1 3
-0.0302199 0.0045 0.0110184 1 1 1 3
-0.00695631 -0.00617261 0.0713746 1 1 0 1
0.0119715 0.00422668 0.0468907 0 0 1 1
0.00294169 -0.0025 -0.0336096 1 1 1 1
-0.0261818 0.00312115 0.12215 0 0 1 3
-0.0143743 -0.0036985 0.0595991 0.792157 0.792157 1 3
-0.0137238 -0.00394199 -0.0113085 1 1 1 1
-0.0147139 -0.00284921 0.078394 0.141176 0.141176 1 3
0.000607024 0.0075 0.0390678 0.364706 0.364706 0.631373 1
0.00145155 -0.0025 -0.0424316 1 1 1 1
-0.034371 0.000499926 0.0133696 1 1 1 3
-0.018311 -0.00608682 0.0209577 0.776471 0.756863 0.737255 2
-0.0300709 0.0019969 0.098683 0 0 1 3
-0.00149734 0.0025 -0.0283924 1 1 1 1
-0.0315133 0.00552888 -0.00431578 0.776471 0.756863 0.737255 5
0.00755306 -0.005 0.0126005 1 1 0.886275 1
-0.0308121 0.00249048 -0.0109943 1 1 1 0
0.00531569 -0.0075 0.0755244 0.133333 0.133333 0.866667 1
0.0022887 -0.0075 0.0960415 0 0 1 1
-0.0300415 -0.00106813 0.102105 0 0 1 3
-0.0209363 -0.0025 -0.00433443 1 1 1 0
-0.0271162 0.000866619 0.12012 0 0 1 3
0.00975031 0.00738129 0.103807 0 0 1 1
-0.0130926 -0.00498022 0.0634632 0 0 1 3
-0.00226634 0.00605239 0.0986823 0 0 1 1
0.0115395 0.00636355 0.0179778 1 1 0 1
-0.00864338 0.0015 0.0581089 1 1 1 7
-0.0134745 -0.00670567 0.0735655 0 0 1 3
-0.0237314 0.00180135 -0.0371142 1 1 1 0
-0.0153998 -0.00425908 0.0230544 1 1 1 3
0.0130365 -0.00316072 0.0716334 0 0 1 1
-0.0160885 0.0045 0.0571683 0.560784 0.560784 1 3
-0.00286352 0.0075 0.0419582 0.847059 0.847059 0.14902 1
-0.00434465 0.0075 0.0528964 0.847059 0.847059 0.14902 1
-0.00286352 0.00298879 -0.0424057 1 1 1 1
0.013268 -0.00348983 0.0790523 0 0 1 1
-0.0273813 -0.00346781 0.11297 0 0 1 3
-0.00263085 -0.00468365 0.102546 0 0 1 1
-0.0227147 0.00668465 0.116218 0 0 1 3
0.00487376 0.005 -0.00214338 1 1 1 1
0.000549394 0.00323665 0.121867 0 0 1 1
-0.0275295 0.00366052 0.0557349 0 0 1 3
-0.0183137 -0.0037476 -0.037655 1 1 1 0
0.00392839 0.0075 0.10481 0 0 1 1
0.00807164 -0.0075 0.118349 0 0 1 1
0.00274987 -0.0075 0.0503807 0.345098 0.345098 0.647059 1
-0.0236653 -0.00657494 0.0600553 0 0 1 3
0.014976 -0.00137347 0.0925803 0 0 1 1
-0.0182696 0.0012 0.00652936 1 1 1 0
-0.0241073 -0.0045 0.0163052 1 1 1 3
0.0123874 -0.00537112 0.0864753 0 0 1 1
0.00724775 0.0075 0.115741 0 0 1 1
-0.0268258 -0.00139196 0.0501571 0.831373 0.831373 1 3
-0.0374014 -0.000572159 0.00105934 1 1 1 0
-0.000480515 -0.0075 0.0542448 0.678431 0.678431 0.313726 1
0.0136301 0.00391147 0.0875439 0 0 1 1
0.00332332 0.00726284 0.112771 0 0 1 1
-0.0233957 0.0025 -0.0172417 1 1 1 0
0.00210544 0.0075 0.0576593 0.345098 0.345098 0.647059 1
0.00618504 0.0025 -0.0359647 1 1 1 1
0.0111119 0.00417984 -0.0237236 1 1 1 1
-0.0275295 0.0045 0.0209577 1 1 1 3
0.00305711 0.00504257 0.127091 1 1 1 1
-0.0250349 -0.0025 -0.00905794 1 1 1 0
-0.00167485 0.005 0.00886954 1 1 0.788235 1
-0.0185121 -0.0045 0.0326993 0.901961 0.901961 1 3
-0.0138557 -0.00358781 0.0267922 1 1 1 3
0.00158809 0.005 0.00550118 1 1 0.580392 1
0.00908152 0.0069832 0.0329921 0.164706 0.164706 0.831373 1
0.0081883 -0.00710726 0.0606027 0 0 1 1
-0.000150733 -0.00121803 -0.0459548 1 1 1 1
-0.00814905 -0.00435783 0.0617977 1 1 0.329412 1
0.0100881 0.0068964 0.0222368 1 1 0 1
-0.0260393 0.00585626 0.108007 0 0 1 3
-0.0111852 -0.005 0.0108814 1 1 1 1
0.0124789 -0.00651498 0.132411 1 1 1 1
-0.00147672 0.00256017 -0.0288341 1 1 1 1
0.0128098 -0.00456853 0.0260543 0.164706 0.164706 0.831373 1
-0.0154716 -0.007 0.0660818 0 0 1 3
0.00255313 0.00596504 0.121425 0 0 1 1
-0.0116856 0.00146855 0.0595821 1 1 1 7
-0.0144469 -0.004 -0.0331402 1 1 1 0
0.00164767 0.00352999 0.12754 1 1 1 1
-0.0154083 0.0017 0.112048 1 1 1 3
-0.0313936 -0.005 0.00425075 1 1 1 3
-0.0199931 -0.007 0.0705472 0 0 1 3
-0.0174472 0.004 -0.0468611 1 1 1 0
0.00917982 -0.00745313 0.103293 0 0 1 1
-0.0271595 0.0045 0.0148342 1 1 1 3
-0.00671865 -0.005 0.0103404 1 1 1 1
-0.00664382 0.0063468 0.0727436 1 1 0 1
0.00417677 -0.005 -0.0197124 1 1 1 1
-0.00760809 -0.005 0.00356911 1 1 1 1
0.00100962 -0.0075 0.0480681 0.345098 0.345098 0.647059 1
-0.0260828 -0.0045 0.0266776 1 1 1 3
0.012602 0.00267714 -0.0242768 1 1 1 1
-0.00758704 0.00711643 0.0554649 1 1 0 1
-0.0287635 -0.0045 0.0150122 1 1 1 3
-0.0147147 0.004 -0.0438366 1 1 1 0
-0.0131622 -0.00501213 0.0628748 0 0 1 3
-0.0255974 0.00382013 0.0531421 0.329412 0.329412 1 3
-0.00801 0.00664228 0.0556504 1 1 0 1
0.00878604 -0.005 -0.0176836 1 1 1 1
-0.0188643 -0.00233469 -0.00174864 1 1 1 0
-0.000922445 0.0025 -0.0211058 1 1 1 1
0.0138543 0.00422938 0.0175355 1 1 0 1
-0.0221752 0.00696544 0.0754975 0 0 1 3
-0.0250308 -0.00670547 0.102578 0 0 1 3
0.00155325 0.005 -0.00676978 1 1 1 1
-0.0227255 -0.0025 -0.0331485 1 1 1 0
0.00135069 -0.005 0.0179125 1 1 0.886275 1
0.0138567 -0.00311907 0.0847159 0 0 1 1
-0.00864427 -0.0025 -0.0172417 1 1 1 0
0.00604097 -0.00748565 0.0482151 0 0 1 1
-0.0257451 -0.00258172 0.125289 0 0 1 3
-0.0069626 0.005 -0.0101122 1 1 1 1
-0.0246485 -0.0045 0.0163052 1 1 1 3
0.0101733 0.00679176 0.0240428 0.831373 0.831373 0.164706 1
-0.0168535 0.00298957 -0.049434 1 1 1 0
-0.00410897 0.0075 0.0615311 0.678431 0.678431 0.313726 1
0.00759117 0.00206584 -0.0365437 1 1 1 1
-0.0069166 0.0025 0.0288118 1 1 1 1
-0.0247224 0.0045 0.0295075 1 1 1 3
-0.0198012 0.0025 -0.00291722 1 1 1 0
-0.0233218 -0.00665032 0.0670537 0 0 1 3
-0.0294615 -0.00352731 0.0967503 0 0 1 3
-0.0235339 0.001187 -0.0378825 1 1 1 0
-0.005223 -0.00433111 0.0899922 0 0 1 1
0.0042856 0.0075 0.0691488 0.164706 0.164706 0.831373 1
0.00896983 -0.00746927 0.103309 0 0 1 1
-0.00590837 -0.00327748 0.087071 0 0 1 1
0.00873789 0.00311907 0.134611 1 1 1 1
-0.0376853 -0.00183612 0.000150473 1 1 1 0
-0.0201377 0.00302567 0.102546 0.121569 0.121569 1 3
-0.025143 -0.00655622 0.0860023 0 0 1 3
0.0070528 0.005 -0.00222709 1 1 1 1
-0.0178691 0.0017 0.0907829 1 1 1 3
-0.00448856 0.00741591 0.0749575 1 1 0 1
-0.0110548 -0.00354135 -0.0515785 1 1 1 1
-0.0045262 0.0075 0.0557934 0.678431 0.678431 0.313726 1
-0.00559013 -0.004 -0.0404447 1 1 1 1
-0.000616442 -0.00267714 -0.0365624 1 1 1 1
0.00100962 -0.005 -0.009079 1 1 1 1
-0.00375196 -0.00580476 0.0928861 0 0 1 1
0.00671612 0.00744827 0.0641697 0 0 1 1
-0.0269288 0.000644845 0.121894 0 0 1 3
-0.0289262 -0.00311907 0.0291279 1 1 1 3
0.00873789 -0.00712601 0.0750177 0 0 1 1
-0.0296951 0.000125424 0.10531 0 0 1 3
0.0141032 0.0046092 0.100172 0 0 1 1
0.00175075 0.0075 0.0484486 0.345098 0.345098 0.647059 1
-0.0349308 -0.00200535 0.00997776 1 1 1 3
-0.0359935 -0.00311907 0.00252568 1 1 1 3
-0.00655345 0.00617726 0.0745061 1 1 0 1
0.00619547 0.0075 0.0329921 0.419608 0.419608 0.576471 1
0.0101875 0.00602736 0.0523127 0 0 1 1
-0.0165016 -0.007 0.0653953 0 0 1 3
-0.0255974 0.00446194 0.0325501 1 1 1 3
0.00470856 0.0075 0.086887 0.133333 0.133333 0.866667 1
-0.00671865 -0.004 -0.0408684 1 1 1 1
0.00510809 0.0075 0.0943763 0 0 1 1
-0.00275399 -0.00434638 0.102919 0 0 1 1
-0.0226176 -0.0025 -0.0205728 1 1 1 0
-0.00153006 -0.00315532 -0.0294252 1 1 1 1
0.0063188 0.00391147 -0.0219527 1 1 1 1
0.00975031 0.00707049 0.0880399 0 0 1 1
0.00826793 0.005 -0.0185375 1 1 1 1
0.00638723 -0.005 0.00597001 1 1 1 1
-0.0172508 0.000630723 0.0077741 1 1 1 0
-0.0182708 0.007 0.0808518 0 0 1 3
-0.0185717 0.00323125 -0.0365624 1 1 1 0
-0.0371982 -0.00311907 0.000146908 1 1 1 3
0.00680582 -0.00749887 0.0269681 0.67451 0.67451 0.321569 1
-0.0337676 -0.00397413 0.00902162 1 1 1 3
-0.0193315 0.007 0.0854829 0 0 1 3
-0.0142678 0.0012 0.00596502 1 1 1 0
0.0119816 0.0042086 -0.0233312 1 1 1 1
0.00251045 0.005 0.016415 1 1 0.580392 1
-0.00858914 -0.00120709 -0.0183742 1 1 1 0
0.0130024 0.00408923 0.080283 0 0 1 1
0.0111119 0.00722439 0.111765 0 0 1 1
0.000922522 -0.005 0.0202568 1 1 0.552941 1
-0.0159371 0.000849253 0.00419824 1 1 1 6
-0.0204951 0.0045 0.0303234 0.831373 0.831373 1 3
-0.0186269 -0.00250554 -0.031222 1 1 1 0
-0.0144469 0.0017 0.110534 1 1 1 3
-0.0178691 -0.00390347 -0.0329057 1 1 1 0
0.0114984 -0.00473831 -0.00663945 1 1 1 1
0.0127792 -0.00311907 0.0402784 0 0 1 1
0.00199125 0.0075 0.0623108 0.345098 0.345098 0.647059 1
0.0114406 0.00714675 0.112746 0 0 1 1
0.0123491 -0.00235395 0.0101338 1 1 1 1
0.00330387 0.000879631 0.10367 1 1 1 1
-0.00128153 -0.005 0.00971546 1 1 0.886275 1
0.0132549 -0.00122865 0.0626692 0 0 1 1
-0.00622086 0.00733277 0.0650281 1 1 0 1
0.000187068 0.00613583 0.109242 0 0 1 1
-0.0369146 -0.0046092 0.000921113 1 1 1 3
-0.00157685 0.006557 0.0988187 0 0 1 1
-0.0213593 -0.0045 0.0440662 0.807843 0.807843 1 3
-0.016379 -0.0045 0.0480067 0.901961 0.901961 1 3
0.0118046 -0.00588767 0.0224896 1 1 0 1
-0.0206238 0.0025 -0.0322565 1 1 1 0
-0.000839823 -0.005 0.0209577 1 1 0.552941 1
-0.0348329 0.00136723 0.0117393 1 1 1 3
0.00567172 -0.00241412 -0.0389884 1 1 1 1
0.0151555 0.000745069 0.0174706 0.886275 0.886275 0.109804 1
0.0100921 -0.00654127 0.0754975 0 0 1 1
-0.0277845 -0.00311907 0.0349241 1 1 1 3
0.00406317 0.0058417 0.122787 0 0 1 1
0.000628361 -0.0075 0.0882715 0 0 1 1
-0.0130571 -0.00437622 0.0718537 0 0 1 3
-0.0314378 -0.00654127 7.73257e-05 0.776471 0.756863 0.737255 5
-0.00510809 -0.0075 0.0480067 0.847059 0.847059 0.14902 1
-0.0317502 -0.000745069 -0.0105397 1 1 1 0
0.00724775 -0.005 0.00787518 1 1 1 1
-0.0278932 0.001187 0.0402784 1 1 1 3
0.00667867 -0.005 -0.00951343 1 1 1 1
-0.022971 -0.00677146 0.0695119 0 0 1 3
-0.0144205 -0.0025 -0.0205728 1 1 1 0
0.0102229 -0.0025 -0.0273523 1 1 1 1
-0.00727687 0.005 0.027996 1 1 0.654902 1
0.00642782 0.005 0.00594311 1 1 1 1
-0.0246944 0.00444727 0.0390471 1 1 1 3
0.0138448 0.00115573 -0.000947973 1 1 1 1
-0.0305581 0.00394233 0.018832 1 1 1 3
0.00487376 -0.0075 0.11167 0 0 1 1
0.00852273 -0.00709625 0.0373599 0 0 1 1
-0.0191644 0.00394196 0.0912733 0.0823529 0.0823529 1 3
-0.0157841 0.004 -0.0376207 1 1 1 0
-0.0274547 0.00454368 0.00764868 1 1 1 3
-0.024123 -0.0045 0.0286408 1 1 1 3
-0.0366997 0.00496515 0.000630097 1 1 1 3
-0.02199 0.00696745 0.0568311 0 0 1 3
-0.0141126 -0.00297103 -0.0514683 1 1 1 0
-0.00590064 0.00101287 0.0334417 1 1 1 1
-0.00944981 -0.00057319 -0.0254119 1 1 1 0
-0.0277878 0.00246543 0.0697066 0 0 1 3
0.0138328 0.0046092 0.0968892 0 0 1 1
-0.00934133 0.005 0.00550118 1 1 1 1
0.0149118 -0.000129947 0.0898805 0 0 1 1
-0.0116382 -0.005 -0.0059657 1 1 1 1
0.00873789 0.00267714 -0.0228536 1 1 1 1
0.00338362 0.0025 -0.0247761 1 1 1 1
-0.0260393 0.0025 -0.00371723 1 1 1 0
-0.00436878 -0.005 0.0182446 1 1 0.886275 1
0.0121678 0.00608095 0.095224 0 0 1 1
0.0128447 0.00311907 0.0387883 0 0 1 1
-0.00771265 0.0046092 0.0316243 1 1 0.831373 1
-0.024687 -0.00171694 -0.0299216 1 1 1 0
0.00257404 -0.005 -0.0142508 1 1 1 1
0.0127952 -0.00557118 0.0951609 0 0 1 1
-0.0144179 0.00445896 0.048634 0.733333 0.733333 1 3
-0.00149734 0.0075 0.0390708 0.866667 0.866667 0.133333 1
0.00869663 -0.00690408 0.0455263 0 0 1 1
-0.00285778 -0.004 -0.0327165 1 1 1 1
-0.0159279 0.00121247 0.0967503 1 1 1 3
-0.0307409 -0.00236558 0.0238072 1 1 1 3
-0.00256006 0.005 0.0148581 1 1 0.788235 1
-0.0191861 0.00552811 0.0912848 0.0823529 0.0823529 1 3
-0.0142945 -0.000764044 0.104495 1 1 1 3
-0.0157841 0.0045 0.0584827 0.560784 0.560784 1 3
-0.022306 -0.0025 -0.0133776 1 1 1 0
-0.0226997 -0.0025 -0.0367787 1 1 1 0
-0.0241073 0.00688436 0.10357 0 0 1 3
0.013044 -0.00290104 0.0368562 0 0 1 1
-0.016379 -0.00683028 0.0808518 0 0 1 3
-0.000443655 -0.005 0.0231032 1 1 0.537255 1
-0.0216718 0.00221583 -0.0423991 1 1 1 0
-0.00865071 0.005 0.00787518 1 1 1 1
0.013044 0.00447845 0.0847159 0 0 1 1
0.0141008 -0.00211768 0.0827839 0 0 1 1
-0.027898 0.00386899 0.108928 0 0 1 3
-0.0260069 0.00505113 0.0637436 0 0 1 3
-0.00924529 0.00084549 -0.0445582 1 1 1 1
-0.00911577 -0.0015 0.0430001 1 1 1 7
-0.0159074 -0.00147083 0.097311 1 1 1 3
0.0126627 -0.0046092 0.0276431 0.164706 0.164706 0.831373 1
0.000922522 -0.0075 0.0803686 0.133333 0.133333 0.866667 1
0.00823805 -0.0075 0.101346 0 0 1 1
0.0034208 0.0075 0.0795182 0.133333 0.133333 0.866667 1
-0.00374085 0.00168518 0.101514 0 0 1 1
-0.00267994 -0.005 0.0185375 1 1 0.886275 1
-0.000145326 -0.0075 0.0431551 0.678431 0.678431 0.313726 1
0.0140177 0.000387418 -0.014328 1 1 1 1
-0.0196081 0.007 0.060041 0 0 1 3
-0.0014916 -0.00601855 -0.00188987 0.776471 0.756863 0.737255 4
-0.0251886 -0.00603049 0.0547957 0 0 1 3
-0.0281978 -0.000735455 0.061055 0 0 1 3
0.0115023 -0.00291942 0.014321 1 1 0.631373 1
0.00917982 0.005 -0.0157516 1 1 1 1
0.00724775 0.00748737 0.0849955 0 0 1 1
0.00233786 0.00505113 0.00207898 0.776471 0.756863 0.737255 4
0.00350412 0.005 0.019174 1 1 0.580392 1
-0.0268631 -0.0054432 0.0836708 0 0 1 3
-0.00664382 0.0075 0.050712 0.847059 0.847059 0.14902 1
0.00197621 0.0025 -0.0224072 1 1 1 1
-0.00590837 -0.000486968 -0.0346238 1 1 1 1
-0.0260393 -0.00645941 0.0989423 0 0 1 3
0.0107756 -0.000917282 -0.0299195 1 1 1 1
-0.0195701 -0.00631413 0.124885 0 0 1 3
-0.0340022 0.005 -0.00371723 1 1 1 3
-0.0178691 -0.0045 0.0430037 0.588235 0.588235 1 3
-0.0300597 0.00202834 0.0938119 0 0 1 3
-0.016379 -0.00380888 0.0204108 1 1 1 3
-0.0163769 -0.00693279 0.0802748 0 0 1 3
0.00334239 0.00720719 0.113738 0 0 1 1
-0.0024754 -0.0025 -0.0470765 1 1 1 1
-0.0255974 0.0045 0.0114769 1 1 1 3
-0.016338 0.00109723 0.0838136 1 1 1 3
-0.0198012 -0.007 0.0619731 0 0 1 3
-0.0209363 -0.0045 0.0129429 1 1 1 3
-0.0171081 0.0045 0.03106 0.87451 0.87451 1 3
-0.0271365 0.00445794 0.0255333 1 1 1 3
0.0119164 0.00502387 0.0735655 0 0 1 1
-0.00318522 0.005 -0.00236635 1 1 1 1
-0.0252296 0.00569639 0.113483 0 0 1 3
-0.014005 0.0012 0.00743325 1 1 1 0
-0.0216242 -4.98353e-05 -0.0427138 1 1 1 0
0.00873789 0.00720201 0.0285264 0.662745 0.662745 0.329412 1
-0.0195469 0.00638651 0.0237536 0.776471 0.756863 0.737255 2
0.00873789 0.00692631 0.0426524 0 0 1 1
-0.0267135 0.005 0.000817791 1 1 1 3
-0.00241258 -0.00222896 -0.0221545 1 1 1 1
-0.0122047 -0.00274167 -0.0374094 1 1 1 0
0.012007 -0.00667054 0.105115 0 0 1 1
0.0132181 -0.000567559 0.0510539 0 0 1 1
-0.0305688 0.00253891 0.0240785 1 1 1 3
-0.027909 0.00261244 0.112354 0 0 1 3
-0.0216718 0.007 0.106242 0 0 1 3
0.01067 0.0045635 0.00787518 1 1 1 1
-0.00487574 -0.005 -0.00802329 1 1 1 1
0.00735724 -0.005 -0.0138195 1 1 1 1
-0.00241258 0.00635593 0.0963083 0 0 1 1
0.0103176 0.00714912 0.0989955 0 0 1 1
-0.0145284 -0.00291942 -0.0514662 1 1 1 0
-0.00365596 0.005 0.00605369 1 1 1 1
-0.000883079 0.00696944 0.0984831 0 0 1 1
-0.0196358 -0.0025 -0.0282501 1 1 1 0
-0.0201214 0.00530208 0.101468 0.109804 0.109804 1 3
0.00531569 0.005 -0.0151802 1 1 1 1
-0.00391147 0.0075 0.0575564 0.678431 0.678431 0.313726 1
-0.0275295 0.0025 -0.0138195 1 1 1 0
0.00887701 0.00744918 0.0986823 0 0 1 1
-0.0185191 -0.00311907 -0.0347055 1 1 1 0
0.00394631 -0.005 0.00207898 1 1 1 1
0.0111119 -0.00484994 -0.00652861 1 1 1 1
-0.0254785 0.00585263 0.0757008 0 0 1 3
-0.016379 0.0025 -0.00371723 1 1 1 0
0.0107527 -0.00640954 0.0257438 0.854902 0.854902 0.141176 1
-0.00826325 -0.0069832 0.0465165 1 1 0 1
-0.000839823 -0.005 0.0151615 1 1 0.886275 1
-0.0211268 0.00455089 0.0557687 0.27451 0.27451 1 3
-0.0180563 -0.00309002 -0.0312081 1 1 1 0
-0.000866619 -0.005 0.0184494 1 1 0.886275 1
0.002201 0.0075 0.0461403 0.180392 0.180392 0.815686 1
-0.00285451 0.00707788 0.0887623 0 0 1 1
-0.00468237 0.00311907 -0.017856 1 1 1 1
-0.00671865 -0.000364959 -0.0240185 1 1 1 1
0.0117445 0.00485197 0.0677693 0 0 1 1
-0.00317601 -0.00549233 0.0970141 0 0 1 1
0.000642742 0.003474 0.121797 0 0 1 1
-0.00663438 0.00749998 0.0400234 0.847059 0.847059 0.14902 1
0.0044293 -0.0075 0.0350313 0.407843 0.407843 0.588235 1
0.00369488 -0.005 -0.0111864 1 1 1 1
-0.00865071 -0.005 0.00743325 1 1 1 1
3.49854e-05 0.005 0.0223922 1 1 0.580392 1
-0.000317031 -0.00720956 0.0982404 0 0 1 1
-0.0218853 -0.00327442 0.00665047 1 1 1 3
-0.0243344 -0.00629865 0.0599514 0 0 1 3
-0.0199589 -0.00200319 0.0127123 1 1 1 3
-0.0213957 0.0045 0.0426524 0.831373 0.831373 1 3
0.00408809 0.0075 0.0248219 0.886275 0.886275 0.109804 1
-0.0236069 0.00676452 0.0776981 0 0 1 3
-0.00671865 -0.005 0.0151615 1 1 1 1
-0.0221874 0.00695005 0.0582093 0 0 1 3
-0.0060328 -0.005 0.0315394 1 1 0.584314 1
0.0137646 0.001187 0.0329921 0 0 1 1
-0.0257673 -0.00350525 0.0474307 1 1 1 3
0.0131084 -0.00489183 0.121985 0 0 1 1
-0.027378 0.00345709 0.0596401 0 0 1 3
-0.0203056 0.00496515 0.126797 0 0 1 3
-0.00865071 0.004 -0.0423586 1 1 1 1
-0.0141897 0.00493899 -0.00995536 1 1 1 1
-0.00568305 0.00305305 0.0887873 0 0 1 1
0.0127952 -0.00358598 0.000542705 1 1 1 1
-0.0273832 -0.00323191 0.0682212 0 0 1 3
-0.0134747 -0.00374232 0.0752951 0 0 1 3
0.000765487 0.00637789 0.00163705 0.776471 0.756863 0.737255 4
-0.00317723 -0.0075 0.0753917 0.631373 0.631373 0.364706 1
-0.00449174 -0.00232903 0.0967381 0 0 1 1
0.01067 -0.007242 0.107901 0 0 1 1
-0.00252306 0.000251042 -0.0478777 1 1 1 1
0.0132682 0.000285993 0.0595991 0 0 1 1
-0.00531147 0.005 -0.0169657 1 1 1 1
0.0164662 0.00239328 0.120938 0 0 1 1
0.014289 0.000538025 0.0268079 0 0 1 1
-0.0215848 -0.00679246 0.0561769 0 0 1 3
-0.000219339 -0.00711187 0.0267539 1 1 0 1
-0.0239812 0.00640335 0.0681717 0 0 1 3
-0.0196162 0.007 0.0844567 0 0 1 3
0.0027291 0.0075 0.0932567 0 0 1 1
-0.00964908 0.005 -0.0121737 1 1 1 1
-0.0230652 -0.0025 -0.0259611 1 1 1 0
-0.0306775 0.000219113 0.025864 1 1 1 3
-0.0262613 -0.00596427 0.105741 0 0 1 3
-0.0231276 -0.00505113 0.0207978 0.776471 0.756863 0.737255 2
-0.000520472 0.0025 -0.0440304 1 1 1 1
-0.0172803 0.00236844 0.0846634 0.203922 0.203922 1 3
0.00462489 -0.005 0.00163705 1 1 1 1
0.00502106 -0.0075 0.108433 0 0 1 1
-0.00405023 -0.00710811 0.0316782 1 1 0 1
-0.028592 0.000745069 0.0754453 0 0 1 3
-0.0048897 0.00187955 0.0943763 0 0 1 1
-0.00843491 -0.004 -0.048332 1 1 1 1
-0.0103697 0.000493959 -0.029276 1 1 1 0
5.70605e-05 0.00163821 -0.0457731 1 1 1 1
0.0138892 0.00150639 -0.016584 1 1 1 1
-0.00117911 0.00609872 0.103409 0 0 1 1
-0.0217699 -0.0045 0.0344822 1 1 1 3
0.00764323 -0.00744512 0.0263525 0.866667 0.866667 0.133333 1
-0.0231158 -0.0045 0.0156372 1 1 1 3
0.00061553 0.005 -0.0124478 1 1 1 1
0.000463647 -0.00671491 0.000671406 0.776471 0.756863 0.737255 4
-0.00820878 0.005 -0.00609122 1 1 1 1
0.0131598 0.00360368 0.0298735 0 0 1 1
0.0158812 0.00261817 0.108126 0 0 1 1
-0.00136827 0.00479743 0.108134 0 0 1 1
-0.0154716 -0.004 -0.0484994 1 1 1 0
-0.000531758 -0.00629875 -0.00188772 0.776471 0.756863 0.737255 4
0.00636646 -0.005 -0.009079 1 1 1 1
0.00100962 0.0075 0.0735655 0.345098 0.345098 0.647059 1
-0.000977379 0.00405234 0.112293 0 0 1 1
-0.010556 0.0033197 -0.0256825 1 1 1 0
-0.0217603 -0.0025 -0.011579 1 1 1 0
-0.0199041 0.0059916 0.0967503 0 0 1 3
-0.00235751 -0.00523992 -0.00214975 0.776471 0.756863 0.737255 4
0.00638723 -0.00747803 0.0660818 0 0 1 1
-0.0165253 0.00166822 0.0950841 1 1 1 3
-0.00559587 0.0075 0.0540987 0.847059 0.847059 0.14902 1
-0.026401 -0.00463035 0.0641908 0 0 1 3
0.0136191 0.000318232 0.0019969 1 1 1 1
-0.0202431 0.0045 0.038342 0.831373 0.831373 1 3
-0.0263362 -0.000735455 -0.0209156 1 1 1 0
0.00675075 0.0025 -0.026902 1 1 1 1
0.0168623 -0.00104795 0.11539 0 0 1 1
-0.00633133 -0.0075 0.0507266 0.847059 0.847059 0.14902 1
0.00533355 0.005 -0.00328074 1 1 1 1
0.00338362 0.0075 0.0938817 0 0 1 1
-0.0178691 -0.0045 0.0523127 0.588235 0.588235 1 3
-0.0260885 0.00509355 0.112844 0 0 1 3
0.0134813 0.00244805 0.0326554 0 0 1 1
0.012602 -0.00339807 0.0412338 0 0 1 1
0.00644631 -0.0075 0.112207 0 0 1 1
-0.00696205 0.005 0.0270696 1 1 0.654902 1
-0.0131622 -0.005 -0.00666751 1 1 1 1
-0.0283809 -0.000684997 0.112395 0 0 1 3
-0.0217469 -0.007 0.0924631 0 0 1 3
-0.0281902 -0.005 0.00299282 1 1 1 3
-0.00478658 -0.005 0.0185375 1 1 0.886275 1
0.00487376 -0.0025 -0.0350722 1 1 1 1
0.00145155 -0.00656264 0.111982 0 0 1 1
0.010681 0.00117911 -0.030179 1 1 1 1
-0.0209363 -0.0025 -0.0238343 1 1 1 0
0.0148176 -0.000102115 0.0885801 0 0 1 1
-0.0267719 -0.0046092 0.073908 0 0 1 3
-0.0257298 -0.000540057 -0.0230379 1 1 1 0
1.19353e-05 0.00456298 0.115536 0 0 1 1
-0.00287913 0.00561716 5.5314e-05 0.776471 0.756863 0.737255 4
-0.0187806 -0.00324417 0.014409 1 1 1 3
-0.0144179 0.007 0.065643 0 0 1 3
-0.0260393 0.0025 -0.0172417 1 1 1 0
-0.0201394 -0.00511001 0.104439 0.109804 0.109804 1 3
0.0132985 -0.00281275 0.073618 0 0 1 1
-0.0301598 0.000575692 0.0909541 0 0 1 3
-0.00442282 -0.00315532 -0.0458193 1 1 1 1
-0.0340587 -0.00145623 0.0138842 1 1 1 3
-0.0151737 -0.000759151 0.00575925 1 1 1 0
-0.0269369 0.00413035 0.0707606 0 0 1 3
0.00260119 0.0075 0.0622958 0.345098 0.345098 0.647059 1
0.0111061 -0.00654127 0.0195109 1 1 0 1
-0.0178315 -0.00360063 -0.048372 1 1 1 0
-0.0032279 -0.0075 0.0564667 0.847059 0.847059 0.14902 1
-0.019663 0.007 0.0772858 0 0 1 3
0.00396737 0.0075 0.0937179 0 0 1 1
0.0054928 -0.0025 -0.0250993 1 1 1 1
-0.020138 0.000264545 0.102401 0.235294 0.235294 1 3
-0.00213387 -0.0075 0.0758434 0.6 0.6 0.4 1
0.00308898 -0.0075 0.0885801 0 0 1 1
-0.0294069 0.00132852 0.106411 0 0 1 3
-0.00422396 0.00254529 -0.046532 1 1 1 1
0.0167976 0.00170804 0.116071 0 0 1 1
-0.0135069 0.005 -0.00479224 1 1 1 1
-0.0135928 0.000984735 0.107901 1 1 1 3
-0.0189394 0.0025 -0.0112018 1 1 1 0
-0.0169308 -0.0045 0.0488535 0.588235 0.588235 1 3
0.0110794 0.00527113 0.0495837 0 0 1 1
-0.0314458 -0.00181867 0.0220726 1 1 1 3
0.012128 -0.00291942 0.00983122 1 1 1 1
-0.0159371 -0.0025 -0.0246158 1 1 1 0
-0.019902 0.00285541 0.0968092 0.109804 0.109804 1 3
-0.0124478 -0.005 -0.0114455 1 1 1 1
0.00367937 -0.0075 0.0980082 0 0 1 1
0.00212489 -0.0075 0.0383463 0.364706 0.364706 0.631373 1
-0.0304996 -0.00633846 -0.00296825 0.776471 0.756863 0.737255 5
-0.0173996 0.0045 0.0551946 0.560784 0.560784 1 3
-0.00761178 -0.005 0.0155122 1 1 1 1
-0.0377518 -0.00210163 -0.000422963 1 1 1 0
0.00855369 -0.0075 0.107901 0 0 1 1
-0.0177907 0.0007 0.0891891 1 1 1 3
0.011895 0.00580841 0.0224072 1 1 0 1
-0.0318355 -0.005 0.00487574 1 1 1 3
-0.0102849 0.00388858 -0.028897 1 1 1 0
0.0120559 -0.0046092 0.036447 0 0 1 1
0.0124654 0.001187 0.125731 0.866667 0.866667 1 1
0.00196353 -0.00377128 0.129967 1 1 1 1
0.00396737 0.0025 -0.0347028 1 1 1 1
0.0150673 0.00204724 0.0156907 1 1 0 1
0.00208264 -0.0075 0.064837 0.345098 0.345098 0.647059 1
0.00533355 0.0025 -0.0278719 1 1 1 1
-0.00208252 0.00238665 0.110002 0 0 1 1
-0.00415478 -0.00620017 0.0309991 1 1 0 1
0.013044 0.00386637 0.0789197 0 0 1 1
-0.0288209 0.00443825 0.0964502 0 0 1 3
0.000610031 0.00374242 0.121041 0 0 1 1
-0.0217333 0.007 0.0769876 0 0 1 3
0.00487376 0.005 -0.00487574 1 1 1 1
-0.00570185 -0.000952748 0.0886288 0 0 1 1
-0.0273941 0.005 -0.000487772 1 1 1 3
-0.0279714 0.00181862 0.0619731 0 0 1 3
0.00441669 -0.005 0.00679197 1 1 1 1
0.00682045 0.0075 0.0827839 0.133333 0.133333 0.866667 1
-0.00723188 0.00703026 0.0609508 1 1 0 1
0.0118519 -0.00438689 0.0469553 0 0 1 1
-0.0100456 -0.005 -0.0104628 1 1 1 1
0.0138281 0.00305059 0.0839676 0 0 1 1
0.00607474 0.0025 -0.0347028 1 1 1 1
-0.00381387 -0.000188365 0.0305473 1 1 1 1
-0.00753964 -0.005 -0.0100642 1 1 1 1
0.0139167 -0.00107332 0.0763436 0 0 1 1
-0.017102 -0.007 0.0671838 0 0 1 3
-0.0100461 -0.00192408 -0.0235002 1 1 1 0
-0.00627672 -0.00429776 0.0832258 0.329412 0.329412 0.662745 1
-0.0217333 -0.0025 -0.0410099 1 1 1 0
-0.00664226 -0.005 0.00449492 1 1 1 1
0.00365488 -0.0075 0.0988701 0 0 1 1
-0.016379 -0.00146617 0.117561 1 1 1 3
-0.0228315 0.00314455 0.127154 0 0 1 3
-0.00107218 -0.0025 -0.0196157 1 1 1 1
-0.0366997 -0.0031543 0.00141632 1 1 1 3
-0.00723396 0.005 0.00594311 1 1 1 1
0.00128171 0.0075 0.0718891 0.345098 0.345098 0.647059 1
0.0101733 0.0025 -0.0251396 1 1 1 1
-0.00717193 0.00735588 0.055255 1 1 0 1
-0.0113458 -0.005 0.00760809 1 1 1 1
0.00346625 0.00741486 0.0235779 1 1 0 1
-0.00241258 0.0075 0.0731235 0.866667 0.866667 0.133333 1
0.01067 -0.00462394 0.00693907 1 1 1 1
-0.0259259 -0.000821424 -0.0222515 1 1 1 0
-0.00644631 0.0075 0.0426524 0.847059 0.847059 0.14902 1
-0.014005 -0.00131615 0.0581089 1 1 1 7
-0.00664382 0.005 0.016415 1 1 1 1
-0.00574578 0.00678454 0.0758077 1 1 0 1
0.01067 0.00495028 0.126411 1 1 1 1
0.00698311 0.005 0.00401104 1 1 1 1
-0.00035662 0.0075 0.0441425 0.678431 0.678431 0.313726 1
-0.0196849 -0.00658497 0.0924442 0 0 1 3
-0.016588 -0.00116335 0.0900581 1 1 1 3
0.0022161 -0.0075 0.0843464 0.133333 0.133333 0.866667 1
0.0105512 0.00576604 0.0480067 0 0 1 1
-0.0105058 -0.00374816 0.0169927 1 1 1 1
-0.00832249 0.00664382 0.0373468 1 1 0 1
0.0111119 0.00533981 0.0434254 0 0 1 1
-0.0285805 -0.0045 0.0156372 1 1 1 3
-0.0127393 -0.005 -0.00160207 1 1 1 1
-0.00223355 -0.000888952 0.110084 0 0 1 1
0.0140358 -7.44802e-06 0.077229 0 0 1 1
-0.0236653 -0.0065598 0.0614147 0 0 1 3
-0.0315132 -0.00430984 0.013138 1 1 1 3
-0.0198012 0.007 0.0851846 0 0 1 3
-0.00877117 -5.72203e-05 -0.0515785 1 1 1 1
-0.0108557 0.0025 -0.0237699 1 1 1 0
0.012425 -0.00640176 0.129499 1 1 1 1
0.00174168 -0.00342035 0.129595 1 1 1 1
0.011429 -0.00501475 0.0628721 0 0 1 1
-0.0287994 -0.000825487 0.110147 0 0 1 3
-0.0178857 -0.007 0.0705472 0 0 1 3
0.00608842 0.005 0.00613718 1 1 1 1
0.00404513 0.000479633 0.134781 1 1 1 1
-0.0228021 0.007 0.10402 0 0 1 3
0.00917982 0.00495474 0.00936576 1 1 1 1
-0.0148409 0.0017 0.114466 1 1 1 3
-0.0134747 0.0015 0.0427799 1 1 1 7
-0.0276006 -0.00483399 0.0842801 0 0 1 3
0.00145155 -0.0075 0.0427361 0.180392 0.180392 0.815686 1
-0.0258938 -0.0040442 0.119965 0 0 1 3
0.0144435 -0.00339506 0.0167851 0.831373 0.831373 0.164706 1
-0.00865071 0.005 -0.00371723 1 1 1 1
-0.0260393 -0.00499672 0.0646913 0 0 1 3
-0.0220204 0.0025 -0.0333671 1 1 1 0
0.014976 0.00424113 0.107368 0 0 1 1
-0.0164698 -0.0025 -0.016262 1 1 1 0
0.0148815 0.0022634 0.0170709 0.698039 0.698039 0.298039 1
-0.00379327 0.005 -0.0130728 1 1 1 1
-0.0155227 -0.00206101 0.0803175 0.305882 0.305882 1 3
0.016697 -0.001187 0.113697 0 0 1 1
0.00291942 0.0050286 0.130436 1 1 1 1
-0.0120737 0.005 0.00550118 1 1 1 1
0.00470541 -0.0075 0.108743 0 0 1 1
-0.00864072 -0.005 0.00249646 1 1 1 1
-0.000903631 0.00250828 -0.029276 1 1 1 1
-0.0277602 0.00443139 0.0825868 0 0 1 3
-0.0011526 -0.005 -0.009079 1 1 1 1
-0.0217333 -0.0025 -0.0218834 1 1 1 0
-0.0279714 -0.00304635 0.0545439 0 0 1 3
-0.0257803 -0.0045 0.0108404 1 1 1 3
-0.0103404 -0.005 -0.00802329 1 1 1 1
0.00196866 0.0075 0.0938049 0 0 1 1
-0.0234487 -0.00689299 0.0822211 0 0 1 3
0.0117175 0.00670011 0.127393 1 1 1 1
0.0135146 -0.000422963 0.0388837 0 0 1 1
-0.0223025 -0.007 0.0865745 0 0 1 3
0.0136196 0.0032109 0.0820343 0 0 1 1
0.0104858 -0.00676156 0.0875748 0 0 1 1
0.00323191 -0.00663099 0.0226146 1 1 0 1
-0.00796744 -0.0015 0.0514684 1 1 1 7
0.0139342 0.00387741 0.0191025 0.854902 0.854902 0.141176 1
-0.0231141 0.00699257 0.0891202 0 0 1 3
0.00605369 -0.005 -0.0176836 1 1 1 1
0.00755521 -0.00726362 0.0560288 0 0 1 1
-0.00367153 -0.00749999 0.0378964 0.866667 0.866667 0.133333 1
-0.015806 0.004 -0.0331402 1 1 1 0
0.0116726 0.00664382 0.10021 0 0 1 1
0.0139091 0.0014246 0.0773965 0 0 1 1
0.00338362 -0.0075 0.0658372 0.164706 0.164706 0.831373 1
-0.0165883 0.0012 -0.00195765 1 1 1 0
0.0119618 -0.00208602 0.123799 0.662745 0.662745 1 1
0.00468035 -0.0075 0.108805 0 0 1 1
-0.0158946 -0.0045 0.0324738 0.901961 0.901961 1 3
-0.0202515 -0.00644335 0.109478 0 0 1 3
0.00939368 -0.00655813 0.0464103 0 0 1 1
0.00260693 -0.00701796 0.0235958 1 1 0 1
0.00236625 0.005 -0.0117128 1 1 1 1
0.00873789 -0.00712659 0.0750556 0 0 1 1
0.00487376 -0.0075 0.0863211 0 0 1 1
0.0109151 0.00673775 0.0931194 0 0 1 1
0.013216 -0.00565178 0.101482 0 0 1 1
-0.0264999 0.00378114 0.116861 0 0 1 3
0.0140648 0.000943215 0.0293205 0 0 1 1
0.0124827 0.00395161 -8.9898e-05 1 1 1 1
-0.00629312 0.0046092 -0.0172417 1 1 1 1
0.0066872 0.005 -0.00588592 1 1 1 1
-0.00039008 -0.0075 0.0372714 0.698039 0.698039 0.298039 1
0.0169081 0.00205011 0.118488 0 0 1 1
-0.00285451 -0.0075 0.0562652 0.678431 0.678431 0.313726 1
-0.0241073 0.00448096 0.125731 0 0 1 3
-0.030539 0.000238168 0.0264214 1 1 1 3
0.00268938 0.00485488 0.12949 1 1 1 1
0.0138842 0.000831247 -0.0176836 1 1 1 1
-0.0342856 0.005 0.000817791 1 1 1 3
0.00915364 -0.005 0.0032717 1 1 1 1
-0.0297481 -0.00285111 0.0992997 0 0 1 3
0.011429 -0.00476444 -0.00643195 1 1 1 1
0.0122977 0.00701217 0.117985 0 0 1 1
-0.000480515 0.00260938 -0.0194207 1 1 1 1
0.00987487 0.00703482 0.0881804 0 0 1 1
-0.00832249 -0.00349852 -0.0515356 1 1 1 1
0.0122635 0.00263866 0.00980724 1 1 1 1
0.0166426 0.00278592 0.120378 0 0 1 1
-0.00798671 -0.000864993 -0.0405672 1 1 1 1
0.00873789 0.005 0.000588975 1 1 1 1
-0.0299035 0.00244817 0.093392 0 0 1 3
-0.023459 0.0025 -0.0276539 1 1 1 0
0.00260119 0.0075 0.0690072 0.345098 0.345098 0.647059 1
-0.0194663 -0.0045 0.0325501 0.788235 0.788235 1 3
-0.0164337 -0.0045 0.0438859 0.901961 0.901961 1 3
-0.00220008 0.000521416 0.110275 0 0 1 1
0.0100628 -0.00565178 0.0167534 1 1 0 1
-0.0272201 0.00420248 0.111173 0 0 1 3
0.0022887 -0.005 -0.0107901 1 1 1 1
-0.00896076 -0.005 -0.00845402 1 1 1 1
0.0167537 -0.00204521 0.1165 0 0 1 1
0.00167144 0.005 -0.0130728 1 1 1 1
-0.000698133 0.00397401 -0.0326003 1 1 1 1
0.00565178 0.005 -8.97184e-05 1 1 1 1
0.0110732 0.00527764 0.0495274 0 0 1 1
-0.0264035 -0.0046092 0.0660793 0 0 1 3
0.00302923 0.005 0.0108091 1 1 0.580392 1
0.00824617 0.00732008 0.0794952 0 0 1 1
-0.0144469 -0.007 0.0629876 0 0 1 3
-0.0196241 -0.0025 -0.0103861 1 1 1 0
0.0141741 -0.00343419 0.0192216 0.831373 0.831373 0.164706 1
-0.00895321 0.00135374 0.0622958 1 1 1 7
0.00555542 0.005 -0.00975005 1 1 1 1
0.00680582 -0.00743764 0.042541 0 0 1 1
-0.0226398 -0.00478243 0.0542757 0.243137 0.243137 1 3
-0.00627672 0.00704295 0.0692594 1 1 0 1
-0.00500234 0.0075 0.0466617 0.847059 0.847059 0.14902 1
0.0122578 0.00367557 0.0539117 0 0 1 1
0.0137946 -0.00267714 0.0812937 0 0 1 1
0.00501185 0.005 -0.0139588 1 1 1 1
0.00744092 0.005 -0.0060131 1 1 1 1
-0.00937618 0.005 -0.00975005 1 1 1 1
-0.0175732 0.0045 0.047712 0.560784 0.560784 1 3
0.00194539 0.0075 0.0671047 0.345098 0.345098 0.647059 1
-0.0030958 -0.005 0.0216019 1 1 0.552941 1
-0.0178691 -0.0045 0.0238342 1 1 1 3
0.0142438 -0.00420314 0.0982404 0 0 1 1
-0.00394631 0.005 -0.00564929 1 1 1 1
0.00701174 -0.005 0.0143261 1 1 0.886275 1
-0.00849815 0.00117179 0.00450068 1 1 1 0
-0.0285402 -0.005 0.00487574 1 1 1 3
-0.00804382 0.005 -0.0131016 1 1 1 1
0.01067 -0.0056627 0.0489632 0 0 1 1
-0.00758381 0.00520973 0.0359454 1 1 0.164706 1
-0.0108009 -0.002444 -0.0515785 1 1 1 1
0.00739663 -0.0075 0.0999829 0 0 1 1
-0.00855041 0.00270491 -0.0426915 1 1 1 1
-0.00843067 0.00676778 0.0466994 1 1 0 1
0.012602 -0.00324085 0.043809 0 0 1 1
-0.00865071 -0.004 -0.0485967 1 1 1 1
-0.016379 0.0045 0.0291279 0.87451 0.87451 1 3
0.00510809 0.0075 0.0963083 0 0 1 1
-0.00969618 -0.005 -0.000881934 1 1 1 1
-0.00241258 -0.005 0.0188695 1 1 0.886275 1
-0.0299377 0.000630723 0.029008 1 1 1 3
-0.0260393 0.005 -0.00178516 1 1 1 3
0.00371396 -0.0075 0.0658372 0.164706 0.164706 0.831373 1
0.00724775 0.005 0.0164416 1 1 0.788235 1
0.0129056 0.00584528 0.100549 0 0 1 1
-0.0110548 -0.005 -0.00280338 1 1 1 1
0.00531569 -0.005 0.00401104 1 1 1 1
-0.00854938 -0.005 -0.00634665 1 1 1 1
0.014443 -0.000645706 0.126096 1 1 1 1
0.00607474 0.005 0.0116131 1 1 0.788235 1
-0.0160175 -0.0045 0.0392198 0.901961 0.901961 1 3
0.00100962 -0.0075 0.0296993 0.87451 0.87451 0.121569 1
-0.0265537 -0.00429756 0.0318452 1 1 1 3
-0.0276323 -0.00490276 -0.00556566 1 1 1 3
0.00278724 0.00399463 0.130099 1 1 1 1
0.00533929 -0.005 -0.00666751 1 1 1 1
-0.0270917 0.00579255 0.101537 0 0 1 3
0.00938646 0.00654212 0.0533958 0 0 1 1
0.014106 0.000943215 -0.00893252 1 1 1 1
-0.0272686 0.00336308 0.0651536 0 0 1 3
0.00531569 0.0075 0.0422105 0.133333 0.133333 0.866667 1
-0.0236653 -0.00696659 0.102546 0 0 1 3
0.015041 0.00112667 0.0929731 0 0 1 1
-0.0150629 -0.0069792 0.0766701 0 0 1 3
0.00076526 0.00165598 0.122933 0 0 1 1
-0.00937618 0.0022328 0.00377824 1 1 1 0
-0.0231449 -0.0025 -0.0211058 1 1 1 0
-0.0320283 -0.00499655 0.00580743 1 1 1 3
-0.0217333 0.007 0.101877 0 0 1 3
0.012602 -0.0031707 0.044958 0 0 1 1
0.0133021 -0.00458249 0.0157197 1 1 0 1
-0.0286929 -0.0027972 0.107901 0 0 1 3
-0.0301871 0.0025 -0.00874545 1 1 1 0
-0.0275295 -0.00461542 0.00736769 1 1 1 3
-0.0279714 -0.0025 -0.0138195 1 1 1 0
-0.00490607 -0.0075 0.0433611 0.847059 0.847059 0.14902 1
0.0159677 0.00311907 0.111773 0 0 1 1
-0.0159371 -0.0025 -0.0211058 1 1 1 0
-0.0255974 -0.00663614 0.0942793 0 0 1 3
-0.0130791 -0.00401353 0.0636346 0 0 1 3
0.00869663 -0.00495629 0.0126969 1 1 0.854902 1
-0.0237405 -0.0025 -0.0215561 1 1 1 0
-0.0193628 0.0025 -0.0227449 1 1 1 0
-0.0229211 0.000719505 -0.0397324 1 1 1 0
-0.0011813 0.00609762 0.103404 0 0 1 1
-0.0276243 0.0046811 0.0831786 0 0 1 3
-0.018311 0.00663652 0.0864713 0 0 1 3
-0.00969441 0.0015 0.0500002 1 1 1 7
-0.0222921 -0.0045934 0.00743325 1 1 1 3
-0.00640502 0.0016976 0.0832132 0.321569 0.321569 0.67451 1
0.0132181 0.00101145 0.00549935 1 1 1 1
-0.0160151 -0.00381201 -0.00144494 1 1 1 1
-0.00695631 -0.005 -0.0124637 1 1 1 1
0.00365488 -0.00745707 0.0236282 1 1 0 1
-0.0242569 -0.00372027 0.12623 0 0 1 3
0.00843628 -0.00752058 0.133417 1 1 1 1
0.000610031 0.005 0.00355015 1 1 0.788235 1
0.0140276 0.00109648 -0.00424606 1 1 1 1
-0.0370759 -0.00368419 0.000534612 1 1 1 3
0.0045191 -0.0075 0.0423549 0.164706 0.164706 0.831373 1
-0.0228767 -0.00642374 0.120318 0 0 1 3
0.0027322 -0.0075 0.102715 0 0 1 1
-0.0150812 -0.00212957 0.00636047 1 1 1 6
-0.00211405 -0.00266719 -0.041044 1 1 1 1
0.013044 0.0054287 0.0963083 0 0 1 1
-0.00467536 0.00362167 0.0943763 0 0 1 1
0.002739 0.00376956 0.131778 1 1 1 1
-0.0262355 0.0045 0.00936531 1 1 1 3
0.0102195 -0.00629589 0.0363681 0 0 1 1
0.0104341 0.00492749 -0.0216746 1 1 1 1
0.0111119 0.00661876 0.0924442 0 0 1 1
0.00420432 0.00633133 0.127441 1 1 1 1
0.00249392 0.0075 0.0349621 0.752941 0.752941 0.243137 1
0.00780714 -0.0075 0.114402 0 0 1 1
0.00510809 0.0075 0.107901 0 0 1 1
0.0136768 -0.000745069 0.071264 0 0 1 1
-0.0257294 0.00652806 0.0914195 0 0 1 3
0.00680582 -0.00746732 0.0707173 0 0 1 1
-0.00590837 -0.005 0.0317153 1 1 0.584314 1
-0.0233562 0.0025 -0.0206641 1 1 1 0
-0.00832249 -0.005 0.0165173 1 1 1 1
-0.0289236 -0.000867152 0.109481 0 0 1 3
0.0088071 0.00736943 0.0909855 0 0 1 1
-0.000199869 -0.00631853 0.106411 0 0 1 1
-0.0224514 0.007 0.0879694 0 0 1 3
-0.0045016 0.005 0.0213996 1 1 0.788235 1
-0.00251403 0.00470048 0.103059 0 0 1 1
-0.0217333 -0.0025 -0.0300805 1 1 1 0
-0.0141054 -0.004 -0.0439536 1 1 1 0
-0.0266296 0.00348342 0.0400153 1 1 1 3
0.0123297 0.00467111 0.0314964 0.141176 0.141176 0.854902 1
0.00867513 -0.00701796 0.038401 0 0 1 1
-0.023129 -0.0044926 0.0484758 1 1 1 3
-0.0313936 -0.001187 0.0229164 1 1 1 3
0.0134878 0.00386288 0.0851579 0 0 1 1
-0.013934 -0.0017 0.109833 1 1 1 3
-0.0140063 -0.0017 0.108692 1 1 1 3
0.00548223 -0.0075 0.0716334 0.133333 0.133333 0.866667 1
0.00634372 -0.0075 0.0236096 1 1 0 1
-0.0333257 -0.00358149 0.0119863 1 1 1 3
-0.0241536 -0.00634702 0.0690859 0 0 1 3
-0.0125148 -0.00202753 -0.0215478 1 1 1 0
-0.0137476 0.005 -0.00807515 1 1 1 1
0.01067 0.00682986 0.0925866 0 0 1 1
0.0124401 0.00527764 0.0859179 0 0 1 1
-0.0140203 -0.00442377 0.0348829 0.831373 0.831373 1 3
-0.016379 0.0045 0.0246802 1 1 1 3
0.0133144 -0.000745069 0.0433855 0 0 1 1
0.00644631 -0.0075 0.0774296 0.133333 0.133333 0.866667 1
-0.0264207 0.0045 0.0116434 1 1 1 3
-0.022306 -0.0025 -0.00371723 1 1 1 0
-0.00254529 0.0075 0.0642364 0.678431 0.678431 0.313726 1
-0.01448 -0.0025 -0.0225084 1 1 1 0
0.0130369 -0.00104473 0.00694809 1 1 1 1
0.00946072 0.0069358 0.0290384 0.164706 0.164706 0.831373 1
-0.0135016 -0.004 -0.0312081 1 1 1 0
-0.0127393 -0.00135724 0.114132 1 1 1 3
0.00838413 0.00709565 0.0397634 0 0 1 1
0.0133098 0.00134204 0.0408411 0 0 1 1
-0.0148409 0.0017 0.105854 1 1 1 3
0.0100628 -0.00667984 0.0283619 0.352941 0.352941 0.639216 1
0.0128203 -0.00311907 0.0670502 0 0 1 1
0.0116612 -0.0045215 -0.0198619 1 1 1 1
-0.0173289 0.004 -0.0344731 1 1 1 0
0.0112225 -0.00660251 0.128297 1 1 1 1
0.0111119 -0.00550586 0.0677693 0 0 1 1
0.00710189 -0.005 -0.0166511 1 1 1 1
-0.00798671 -0.00286648 -0.0405672 1 1 1 1
-0.000839823 -0.005 0.0228898 1 1 0.537255 1
0.00977045 0.00494502 0.00594311 1 1 1 1
-0.0198012 0.0065939 0.120299 0 0 1 3
-0.0137366 0.0039407 0.0329212 0.737255 0.737255 1 3
-0.00485468 0.0055656 0.0882532 0 0 1 1
0.0007519 -0.0025 -0.0400257 1 1 1 1
-0.0008211 0.0075 0.0849829 0.164706 0.164706 0.831373 1
-0.0122577 -0.00209731 -0.0201701 1 1 1 0
0.0129056 0.00349985 -0.0197319 1 1 1 1
-0.0367598 0.0014916 0.00224712 1 1 1 0
-0.00838993 -0.00633373 0.0527244 1 1 0 1
0.00470856 0.0075 0.0978164 0 0 1 1
0.00338362 0.00732917 0.111765 0 0 1 1
-0.0246098 0.0025 -0.016205 1 1 1 0
-0.00610496 -0.004 -0.0468825 1 1 1 1
-0.00864072 -0.00124058 0.0627331 1 1 1 7
-0.027658 0.00336308 0.0563315 0 0 1 3
0.00744092 0.00748732 0.0213105 1 1 0 1
-0.00254529 0.00582711 0.000737392 0.776471 0.756863 0.737255 4
-0.00871213 -0.00256786 0.0465165 1 1 0.403922 1
0.000730755 0.0075 0.0407203 0.133333 0.133333 0.866667 1
-0.00832249 0.00117911 -0.0515363 1 1 1 1
-0.00582681 0.00749999 0.0420998 0.847059 0.847059 0.14902 1
0.00145155 -0.0075 0.0291279 0.87451 0.87451 0.121569 1
-0.00522934 0.00250493 -0.0491317 1 1 1 1
-0.00720366 -0.000629248 -0.0180771 1 1 1 0
-0.0277469 0.00267714 0.0598556 0 0 1 3
-0.0276267 0.00336308 0.0344727 1 1 1 3
0.00299905 0.00195399 -0.0428174 1 1 1 1
-0.0247328 0.00665998 0.0851579 0 0 1 3
-0.00403974 -0.00670491 0.0863358 0 0 1 1
-0.0101409 -0.0015 0.040539 1 1 1 7
-0.0154323 -0.0046092 -0.0076525 1 1 1 1
0.00274361 0.005 -0.0052457 1 1 1 1
-0.00180983 -0.00749213 0.0854894 0.164706 0.164706 0.831373 1
-0.0276344 0.000729365 -0.0175407 1 1 1 0
-0.0254578 -0.00660058 0.10186 0 0 1 3
0.00838413 0.00733258 0.0254277 0.831373 0.831373 0.164706 1
0.00297896 -0.005 -0.00878604 1 1 1 1
0.0137866 -0.00228415 -0.00359779 1 1 1 1
0.0137672 0.00157322 -0.0191738 1 1 1 1
-0.0199574 -0.00205495 0.0979885 0.188235 0.188235 1 3
0.00676161 -0.0025 -0.0246158 1 1 1 1
-0.0255974 0.00466844 0.118374 0 0 1 3
0.0132638 0.00339059 -0.00600519 1 1 1 1
0.00965582 0.00640793 0.0593764 0 0 1 1
-0.0236653 -0.0025 -0.0233052 1 1 1 0
0.006756 0.00743555 0.0460746 0 0 1 1
0.0150794 0.00338016 0.128015 1 1 1 1
0.00639064 0.00665354 0.122466 0 0 1 1
-0.0183677 0.0025 -0.00347358 1 1 1 0
0.0126408 0.00311907 0.0619731 0 0 1 1
-0.00864338 0.0015 0.060041 1 1 1 7
-0.0163649 -0.0045 0.0521518 0.588235 0.588235 1 3
-0.00412604 0.00307236 0.0982404 0 0 1 1
-0.0293656 0.000592896 -0.0141226 1 1 1 0
0.00724775 0.00746001 0.0789197 0 0 1 1
-0.00727745 -0.0072394 0.0567834 1 1 0 1
-0.0118122 0.0025 -0.016579 1 1 1 0
0.00398751 0.00460782 0.123153 0.133333 0.133333 1 1
-0.0172068 0.00629419 0.0840981 0 0 1 3
0.00913717 0.00247912 -0.0326527 1 1 1 1
-0.0275295 -0.00365725 0.0557798 0 0 1 3
-0.00560203 0.00749999 0.0419669 0.847059 0.847059 0.14902 1
0.00534003 0.0075 0.0853567 0.133333 0.133333 0.866667 1
-0.0035167 0.0074411 0.0797347 0.662745 0.662745 0.329412 1
0.00289031 -0.00286369 0.123322 0.133333 0.133333 1 1
0.00195475 0.00228831 -0.0436909 1 1 1 1
-0.0162808 -0.00128047 0.0822918 1 1 1 3
-0.017475 0.0045 0.0406349 0.87451 0.87451 1 3
0.00237518 -0.00676874 0.114509 0 0 1 1
-0.0261975 -0.0042856 -0.0040091 1 1 1 3
-0.00117673 0.0075 0.0803767 0.329412 0.329412 0.662745 1
-0.0020016 0.0075 0.0581089 0.678431 0.678431 0.313726 1
0.00516581 0.0025 -0.0335044 1 1 1 1
-0.0225785 0.0045 0.0125249 1 1 1 3
-0.0183426 0.00334469 0.087802 0.215686 0.215686 1 3
-0.00999166 -0.00311907 -0.0152486 1 1 1 1
-0.00941534 0.00434566 0.0204533 1 1 1 1
-0.016379 -0.0025 -0.0157516 1 1 1 0
-0.00244268 -0.004 -0.0329158 1 1 1 1
-0.0288272 0.0019746 0.0330842 1 1 1 3
0.0131489 0.0035065 0.0308392 0 0 1 1
-0.022306 -0.0025 -0.0384944 1 1 1 0
-0.0270647 0.000745069 0.12069 0 0 1 3
-0.00434465 -0.004 -0.0384944 1 1 1 1
0.00509532 0.0075 0.0244296 0.886275 0.886275 0.109804 1
0.0115926 -0.0062386 0.017265 1 1 0 1
0.0134954 -0.00291942 0.0780182 0 0 1 1
-0.0143501 0.0007 0.105296 1 1 1 3
-0.00662308 -0.00325266 -0.0505288 1 1 1 1
-0.0291334 -0.00498429 0.00597001 1 1 1 3
-0.00256122 0.00125464 0.108247 0 0 1 1
0.00520151 0.00117911 -0.0401561 1 1 1 1
0.0105966 0.00444091 0.0101793 1 1 1 1
0.00990638 0.00654127 0.0344822 0.164706 0.164706 0.831373 1
0.00214338 0.005 0.00356911 1 1 1 1
-0.0274196 -0.00167343 0.116872 0 0 1 3
0.0153691 -0.000422963 0.0962632 0 0 1 1
0.00584834 0.0075 0.111993 0 0 1 1
-0.0144469 0.0017 0.124196 1 1 1 3
-0.00865071 -0.005 -0.000881934 1 1 1 1
0.01067 0.00654213 0.02399 0.831373 0.831373 0.164706 1
-0.00303165 0.005 0.0244997 1 1 0.788235 1
-0.00860809 -0.004 -0.0447326 1 1 1 1
-0.00901036 -0.004 -0.0510643 1 1 1 1
-0.000480515 -0.005 0.0188695 1 1 0.886275 1
-0.0178572 0.00393379 -0.0329529 1 1 1 0
0.00388959 0.0075 0.0685887 0.164706 0.164706 0.831373 1
-0.0224892 0.00674271 0.116421 0 0 1 3
-0.022169 0.00472926 0.126632 0 0 1 3
-0.00270762 -0.005 -0.0148757 1 1 1 1
0.010027 0.00696594 0.0211642 1 1 0 1
-0.0297869 0.000784699 0.0870899 0 0 1 3
-0.021401 0.0045 0.0415328 0.831373 0.831373 1 3
-0.0145364 -0.004 -0.0307228 1 1 1 0
-0.0178691 0.0012 0.00550118 1 1 1 0
