ply
format ascii 1.0
comment Created by Open3D
element vertex 753
property float32 x
property float32 y
property float32 z
property float32 red
property float32 green
property float32 blue
property uint8 segmentation
end_header
0.00206386 -0.00583305 0.0786377 0.00784314 0.239216 0.823529 0
-0.00271281 -0.00527527 0.0763227 0.00784314 0.239216 0.823529 0
-0.00601001 -0.000359336 0.0741297 0.00784314 0.239216 0.823529 0
-0.00166277 -0.00110045 0.117403 0.898039 0.898039 0.898039 1
0.00197182 0.000322131 0.0926468 0.898039 0.898039 0.898039 1
0.00645696 -0.00286545 0.0819029 0.00784314 0.239216 0.823529 0
0.00605302 -0.00328347 0.0793078 0.00784314 0.239216 0.823529 0
0.00678044 0.00237116 0.0238873 0.00784314 0.239216 0.823529 0
0.00488976 0.00598224 0.0443374 0.00784314 0.239216 0.823529 0
-0.00463553 -0.00669728 0.0522301 0.00784314 0.239216 0.823529 0
0.00590039 -0.00377002 0.0394132 0.00784314 0.239216 0.823529 0
0.00175174 -0.00095778 0.117661 0.898039 0.898039 0.898039 1
4.52472e-05 0.00686919 0.0792979 0.00784314 0.239216 0.823529 0
0.00725986 0.00169047 0.0180881 0.00784314 0.239216 0.823529 0
0.00170821 -0.00103679 0.14635 0.898039 0.898039 0.898039 1
-0.00228455 -0.00714836 0.000702007 0.00784314 0.239216 0.823529 0
0.00258359 0.00719734 0.0529698 0.00784314 0.239216 0.823529 0
0.00749418 -0.00139526 0.00603803 0.00784314 0.239216 0.823529 0
0.00478784 0.00624906 0.0571456 0.00784314 0.239216 0.823529 0
0.00327697 -0.0073214 0.0338349 0.00784314 0.239216 0.823529 0
-0.00462337 -0.00673128 0.0176067 0.00784314 0.239216 0.823529 0
-0.00191852 0.000538006 0.0923335 0.898039 0.898039 0.898039 1
-0.00615965 -0.000322131 0.070853 0.00784314 0.239216 0.823529 0
0.00111902 -0.00608201 0.0708365 0.00784314 0.239216 0.823529 0
0.00323445 0.00532581 0.0696952 0.00784314 0.239216 0.823529 0
-0.00563489 0.00429542 0.040003 0.00784314 0.239216 0.823529 0
-0.00162257 0.00116701 0.162135 0.898039 0.898039 0.898039 1
-3.79394e-05 -0.00646068 0.0646692 0.00784314 0.239216 0.823529 0
0.000276479 0.00699392 0.0403477 0.00784314 0.239216 0.823529 0
0.00610994 0.00340042 0.0268155 0.00784314 0.239216 0.823529 0
0.00662335 0.00260265 0.0817365 0.00784314 0.239216 0.823529 0
0.000532899 -0.00701722 0.0192972 0.00784314 0.239216 0.823529 0
-0.00234629 -0.00708214 0.0838208 0.00784314 0.239216 0.823529 0
0.00767324 0.00118143 0.0185486 0.00784314 0.239216 0.823529 0
-0.000474764 -0.00219635 0.19162 0.898039 0.898039 0.898039 1
0.00103566 0.00170708 0.159897 0.898039 0.898039 0.898039 1
-0.00193891 -0.000474764 0.120849 0.898039 0.898039 0.898039 1
-0.000634697 -0.00517213 0.085 0.00784314 0.239216 0.823529 0
-0.000554366 -0.00191592 0.100774 0.898039 0.898039 0.898039 1
-0.00555755 0.0033745 0.0637049 0.00784314 0.239216 0.823529 0
0.00577105 -0.00170338 0.0743468 0.00784314 0.239216 0.823529 0
-0.00172945 0.00100402 0.0887599 0.898039 0.898039 0.898039 1
0.00181005 -0.000838078 0.0916016 0.898039 0.898039 0.898039 1
-0.00524623 0.00510199 0.0810651 0.00784314 0.239216 0.823529 0
-0.00165461 -0.00111902 0.158947 0.898039 0.898039 0.898039 1
0.00718684 0.0017878 0.0236971 0.00784314 0.239216 0.823529 0
0.00737096 -0.00112698 0.0841192 0.00784314 0.239216 0.823529 0
0.00650487 0.00195575 0.0847814 0.00784314 0.239216 0.823529 0
0.00488035 0.00601846 0.0223334 0.00784314 0.239216 0.823529 0
0.00225396 0.00405235 0.085 0.00784314 0.239216 0.823529 0
-0.00820763 0.000564696 0.0406804 0.00784314 0.239216 0.823529 0
-0.00428121 -0.00729477 0.0145734 0.00784314 0.239216 0.823529 0
0.000988461 0.00702858 0.0464066 0.00784314 0.239216 0.823529 0
0.00622293 0.00158567 0.0653372 0.00784314 0.239216 0.823529 0
0.00162215 0.00116658 0.166272 0.898039 0.898039 0.898039 1
-0.00328844 0.00669728 0.0825981 0.00784314 0.239216 0.823529 0
0.00571223 0.00412483 0.0524979 0.00784314 0.239216 0.823529 0
0.00111902 -0.00647449 0.0622132 0.00784314 0.239216 0.823529 0
-0.000205731 -0.00600778 0.0746916 0.00784314 0.239216 0.823529 0
0.00222337 -0.00715113 0.0097377 0.00784314 0.239216 0.823529 0
0.00845806 -7.7338e-05 0.0456732 0.00784314 0.239216 0.823529 0
-0.00327301 -0.00517029 0.0721284 0.00784314 0.239216 0.823529 0
-0.00505017 0.00554819 0.0507224 0.00784314 0.239216 0.823529 0
-0.00157175 -0.00122894 0.102047 0.898039 0.898039 0.898039 1
-0.00182899 0.00594507 0.0699033 0.00784314 0.239216 0.823529 0
0.00279819 0.00724158 0.0405052 0.00784314 0.239216 0.823529 0
0.000378884 0.00196142 0.154963 0.898039 0.898039 0.898039 1
-0.00709246 -0.00191313 0.0171002 0.00784314 0.239216 0.823529 0
-0.000516741 -0.00459808 -1.52388e-16 0.00784314 0.239216 0.823529 0
-0.00198378 0.000185385 0.106505 0.898039 0.898039 0.898039 1
-0.00340042 0.00734368 0.0176178 0.00784314 0.239216 0.823529 0
0.00286545 0.00590039 0.0849221 0.00784314 0.239216 0.823529 0
0.00843698 0.000264367 0.028336 0.00784314 0.239216 0.823529 0
0.000712682 -0.00701899 0.0322412 0.00784314 0.239216 0.823529 0
0.00169975 0.00104964 0.114419 0.898039 0.898039 0.898039 1
-0.00737791 -0.0010716 0.0816486 0.00784314 0.239216 0.823529 0
-0.00829057 -0.000474764 0.00371181 0.00784314 0.239216 0.823529 0
0.00263781 -0.00721651 0.0325268 0.00784314 0.239216 0.823529 0
-0.00617052 0.00331748 0.00561601 0.00784314 0.239216 0.823529 0
-0.000594079 -0.00701336 0.0263347 0.00784314 0.239216 0.823529 0
0.00845806 0.000138518 0.0152448 0.00784314 0.239216 0.823529 0
-0.00621502 -0.0018314 0.0642048 0.00784314 0.239216 0.823529 0
-0.00760433 0.00127166 0.0413725 0.00784314 0.239216 0.823529 0
-0.000474764 -0.00701213 0.0131638 0.00784314 0.239216 0.823529 0
0.00829107 -0.000473798 0.0521635 0.00784314 0.239216 0.823529 0
-0.00731129 0.00148532 0.0816507 0.00784314 0.239216 0.823529 0
-0.00735595 -0.00157607 0.0305669 0.00784314 0.239216 0.823529 0
0.00641759 -0.00111902 0.0634727 0.00784314 0.239216 0.823529 0
-0.00326575 0.00731811 0.0418039 0.00784314 0.239216 0.823529 0
-0.00144497 -0.0013727 0.103318 0.898039 0.898039 0.898039 1
-0.00654573 -0.00270883 0.0486766 0.00784314 0.239216 0.823529 0
0.0019304 -0.00710304 0.0249079 0.00784314 0.239216 0.823529 0
-0.000112284 0.00588896 0.07756 0.00784314 0.239216 0.823529 0
-0.00170821 0.00103679 0.116865 0.898039 0.898039 0.898039 1
0.0051035 0.00310885 0.0753853 0.00784314 0.239216 0.823529 0
-0.00521502 -0.00339361 0.0698982 0.00784314 0.239216 0.823529 0
-0.00384223 -0.00744062 0.0532393 0.00784314 0.239216 0.823529 0
0.00643607 0.00288208 0.042014 0.00784314 0.239216 0.823529 0
0.0074027 0.00151175 0.0529986 0.00784314 0.239216 0.823529 0
0.0084437 -0.000240815 0.0323938 0.00784314 0.239216 0.823529 0
-0.000516741 -0.0043066 -8.70791e-17 0.00784314 0.239216 0.823529 0
0.00604557 0.00350971 0.0194909 0.00784314 0.239216 0.823529 0
0.00167476 -0.00108429 0.0962672 0.898039 0.898039 0.898039 1
-0.00253952 0.00718981 0.0563213 0.00784314 0.239216 0.823529 0
0.0028733 -0.00725361 0.0263919 0.00784314 0.239216 0.823529 0
0.00170815 0.00103673 0.133447 0.898039 0.898039 0.898039 1
-0.00557005 0.00350971 0.0618789 0.00784314 0.239216 0.823529 0
0.00598488 -0.00361853 0.0308622 0.00784314 0.239216 0.823529 0
0.00492677 -0.00587854 0.0441641 0.00784314 0.239216 0.823529 0
-0.00841213 -0.000322131 0.0371838 0.00784314 0.239216 0.823529 0
0.00660101 -0.00265351 0.0347257 0.00784314 0.239216 0.823529 0
0.00391383 -0.00744624 0.0517637 0.00784314 0.239216 0.823529 0
0.000466291 0.00193876 0.0912061 0.898039 0.898039 0.898039 1
0.00749418 -0.00139989 0.0409697 0.00784314 0.239216 0.823529 0
0.00810841 0.000675118 0.041007 0.00784314 0.239216 0.823529 0
-0.00679212 -0.00233405 0.0560346 0.00784314 0.239216 0.823529 0
0.00722745 -0.00173413 0.0588157 0.00784314 0.239216 0.823529 0
-0.00659456 0.0026639 0.034132 0.00784314 0.239216 0.823529 0
-0.00154294 0.00127166 0.130474 0.898039 0.898039 0.898039 1
-0.00829107 0.000473442 0.0541129 0.00784314 0.239216 0.823529 0
0.00193546 -0.000474764 0.10671 0.898039 0.898039 0.898039 1
0.004884 0.00600163 0.0172705 0.00784314 0.239216 0.823529 0
-0.00221644 0.00713919 0.0364186 0.00784314 0.239216 0.823529 0
-0.00764681 0.00123394 0.0331907 0.00784314 0.239216 0.823529 0
-0.00461674 0.00513456 0.0846945 0.00784314 0.239216 0.823529 0
-0.00749121 -0.00140477 0.0459935 0.00784314 0.239216 0.823529 0
-0.000571466 -0.00700807 0.0387425 0.00784314 0.239216 0.823529 0
0.00458525 0.00684701 0.0529633 0.00784314 0.239216 0.823529 0
0.00229021 0.00684992 0.0795237 0.00784314 0.239216 0.823529 0
0.00404104 0.00451321 0.0736529 0.00784314 0.239216 0.823529 0
-0.00676601 -0.00240074 0.0141873 0.00784314 0.239216 0.823529 0
0.0034022 0.00735048 0.0539743 0.00784314 0.239216 0.823529 0
0.00415283 0.00619838 0.0817591 0.00784314 0.239216 0.823529 0
-0.0031465 -0.00729356 0.0223796 0.00784314 0.239216 0.823529 0
0.00126657 -0.00706388 0.038009 0.00784314 0.239216 0.823529 0
-0.00449109 -0.0020141 0.085 0.00784314 0.239216 0.823529 0
-0.00101743 0.00172106 0.0934619 0.898039 0.898039 0.898039 1
-0.000185385 -0.00198378 0.10252 0.898039 0.898039 0.898039 1
0.00445923 -0.00715908 0.0123996 0.00784314 0.239216 0.823529 0
0.00684992 -0.00225475 0.0570823 0.00784314 0.239216 0.823529 0
-0.00635279 -0.00282667 0.0793493 0.00784314 0.239216 0.823529 0
0.00680053 0.00234205 0.0220571 0.00784314 0.239216 0.823529 0
0.00158796 0.00636749 -1.08849e-17 0.00784314 0.239216 0.823529 0
0.0049181 0.00589799 0.00656941 0.00784314 0.239216 0.823529 0
0.000474764 0.0070136 0.0808517 0.00784314 0.239216 0.823529 0
0.00605302 0.00349635 0.0469929 0.00784314 0.239216 0.823529 0
-0.0043066 0.00490343 0.0630507 0.00784314 0.239216 0.823529 0
0.00504081 -0.00550173 0.080154 0.00784314 0.239216 0.823529 0
0.00447732 -0.00713567 0.010629 0.00784314 0.239216 0.823529 0
0.00493361 0.00585432 0.00405592 0.00784314 0.239216 0.823529 0
0.00112698 0.00164812 0.158789 0.898039 0.898039 0.898039 1
-0.00126456 -0.000533838 0.186194 0.898039 0.898039 0.898039 1
-0.000223523 0.00699391 0.025866 0.00784314 0.239216 0.823529 0
-0.00687271 -0.00222337 0.0333844 0.00784314 0.239216 0.823529 0
-0.00479759 0.00622897 0.0159162 0.00784314 0.239216 0.823529 0
-0.00191592 -0.00710142 0.0202308 0.00784314 0.239216 0.823529 0
-0.0038365 -0.00350971 -1.13611e-16 0.00784314 0.239216 0.823529 0
-0.00445212 0.00426306 0.0712104 0.00784314 0.239216 0.823529 0
-0.00732536 0.00141602 0.0825466 0.00784314 0.239216 0.823529 0
0.00654434 0.00274011 0.0113004 0.00784314 0.239216 0.823529 0
-0.00735595 -0.00157443 0.0362018 0.00784314 0.239216 0.823529 0
0.00684992 0.000474764 -1.71565e-16 0.00784314 0.239216 0.823529 0
-0.00345774 -0.00735648 0.0314443 0.00784314 0.239216 0.823529 0
-0.00609045 -0.00235968 0.0629856 0.00784314 0.239216 0.823529 0
0.00632407 0.00305161 0.0480612 0.00784314 0.239216 0.823529 0
0.00486418 -0.00607029 0.0396803 0.00784314 0.239216 0.823529 0
0.00820889 -0.000563489 0.0397574 0.00784314 0.239216 0.823529 0
-0.00198378 0.000185385 0.0881764 0.898039 0.898039 0.898039 1
-0.00684976 0.00228455 0.0142257 0.00784314 0.239216 0.823529 0
0.000821778 0.00701881 0.045914 0.00784314 0.239216 0.823529 0
0.00584828 -0.00386344 0.0551067 0.00784314 0.239216 0.823529 0
0.00764681 0.00121352 0.0458371 0.00784314 0.239216 0.823529 0
-0.0080707 -0.000721227 0.0509075 0.00784314 0.239216 0.823529 0
-0.00594479 -0.00257184 0.0641613 0.00784314 0.239216 0.823529 0
0.002 0 0.11689 0.898039 0.898039 0.898039 1
-0.00695569 -0.00210809 0.0195295 0.00784314 0.239216 0.823529 0
0.00192649 0.00710582 0.0515193 0.00784314 0.239216 0.823529 0
-0.00206855 0.00712011 0.00713623 0.00784314 0.239216 0.823529 0
0.00419834 -0.00734262 0.0486464 0.00784314 0.239216 0.823529 0
0.00641324 -0.000424972 0.0653953 0.00784314 0.239216 0.823529 0
0.0055356 -0.00450791 0.0193207 0.00784314 0.239216 0.823529 0
-0.00111902 0.00164993 0.0901521 0.898039 0.898039 0.898039 1
-0.000792014 0.00183036 0.0928289 0.898039 0.898039 0.898039 1
0.00258882 -0.00719926 0.0471602 0.00784314 0.239216 0.823529 0
-0.00271281 -0.00722048 0.0304926 0.00784314 0.239216 0.823529 0
-0.00705647 -0.00196385 0.008111 0.00784314 0.239216 0.823529 0
-0.0084437 -0.000239508 0.0210419 0.00784314 0.239216 0.823529 0
0.00590039 0.00377366 0.0315969 0.00784314 0.239216 0.823529 0
-0.00345783 0.0073564 0.00689318 0.00784314 0.239216 0.823529 0
-0.00243277 -0.00535814 0.0778168 0.00784314 0.239216 0.823529 0
0.0017984 -0.000857723 0.140989 0.898039 0.898039 0.898039 1
0.000553052 0.00191592 0.125478 0.898039 0.898039 0.898039 1
-0.00397501 -0.00744066 0.00892507 0.00784314 0.239216 0.823529 0
0.00800583 0.0007884 0.0196435 0.00784314 0.239216 0.823529 0
0.0082903 -0.000474764 0.0513666 0.00784314 0.239216 0.823529 0
-0.000138518 0.00699229 0.0445462 0.00784314 0.239216 0.823529 0
-0.00608819 -0.00127166 0.0698478 0.00784314 0.239216 0.823529 0
-0.000563489 0.00191759 0.148393 0.898039 0.898039 0.898039 1
0.00582801 0.00394442 0.00836345 0.00784314 0.239216 0.823529 0
0.00425306 -0.00571223 0.0603239 0.00784314 0.239216 0.823529 0
-0.0014919 -0.00132874 0.169199 0.898039 0.898039 0.898039 1
0.00684992 -0.00228431 0.0268155 0.00784314 0.239216 0.823529 0
-0.00498916 0.0045336 0.0609293 0.00784314 0.239216 0.823529 0
-0.000644261 0.00225396 -1.17523e-16 0.00784314 0.239216 0.823529 0
0.00656814 -0.00271281 0.008754 0.00784314 0.239216 0.823529 0
0.00127166 0.00704475 0.0813763 0.00784314 0.239216 0.823529 0
0.00827963 0.000486151 0.0394748 0.00784314 0.239216 0.823529 0
-0.00536151 0.00486631 0.00939003 0.00784314 0.239216 0.823529 0
0.00164771 0.00112698 0.142438 0.898039 0.898039 0.898039 1
-0.000474764 -0.0069991 0.0521635 0.00784314 0.239216 0.823529 0
0.00206855 0.00712126 0.0215699 0.00784314 0.239216 0.823529 0
-0.00341153 -0.00734746 0.0367232 0.00784314 0.239216 0.823529 0
0.00105389 0.00605302 0.0717442 0.00784314 0.239216 0.823529 0
-0.00524042 0.0051035 0.0374672 0.00784314 0.239216 0.823529 0
-0.00464883 0.00665605 0.0465819 0.00784314 0.239216 0.823529 0
-0.00845806 3.05898e-05 0.00724802 0.00784314 0.239216 0.823529 0
0.00445923 -0.00715975 0.0395019 0.00784314 0.239216 0.823529 0
0.00524578 0.0051035 0.0290191 0.00784314 0.239216 0.823529 0
-0.00506255 -0.00551812 0.0402101 0.00784314 0.239216 0.823529 0
0.00396237 0.00744297 0.0419237 0.00784314 0.239216 0.823529 0
0.00540092 0.00478304 0.0485171 0.00784314 0.239216 0.823529 0
-0.00134719 -0.00147047 0.144202 0.898039 0.898039 0.898039 1
-0.00656424 -0.00271281 0.00753744 0.00784314 0.239216 0.823529 0
0.00154294 -0.00127166 0.169307 0.898039 0.898039 0.898039 1
-0.000564199 0.00191592 0.116068 0.898039 0.898039 0.898039 1
-0.00366234 0.00545699 0.0618789 0.00784314 0.239216 0.823529 0
-0.00735914 -0.00158254 0.0169219 0.00784314 0.239216 0.823529 0
-0.0045385 -0.00699917 0.0239298 0.00784314 0.239216 0.823529 0
0.00114043 0.00163372 0.0915111 0.898039 0.898039 0.898039 1
-0.000125809 0.0069921 0.0480189 0.00784314 0.239216 0.823529 0
0.000551476 0.00191592 0.113524 0.898039 0.898039 0.898039 1
0.00179621 0.00709009 0.043609 0.00784314 0.239216 0.823529 0
0.00132005 0.00609045 -2.17698e-17 0.00784314 0.239216 0.823529 0
0.0069918 -0.00206855 0.0139126 0.00784314 0.239216 0.823529 0
0.00148375 -0.00707651 0.0427534 0.00784314 0.239216 0.823529 0
-0.00436493 0.00521978 0.0847797 0.00784314 0.239216 0.823529 0
0.000322131 -0.00197182 0.159744 0.898039 0.898039 0.898039 1
0.00454895 -0.00696486 0.0380357 0.00784314 0.239216 0.823529 0
0.00669728 0.0024972 0.0244248 0.00784314 0.239216 0.823529 0
-0.000335751 -0.00197111 0.151196 0.898039 0.898039 0.898039 1
-0.000563489 0.00701996 0.0196176 0.00784314 0.239216 0.823529 0
0.0029916 -0.0068281 0.0818012 0.00784314 0.239216 0.823529 0
-0.00735624 0.00158456 0.011056 0.00784314 0.239216 0.823529 0
-0.00595188 0.000785394 0.0747104 0.00784314 0.239216 0.823529 0
-0.00619544 -8.70435e-05 0.070457 0.00784314 0.239216 0.823529 0
-0.00282909 -0.00724088 0.0326589 0.00784314 0.239216 0.823529 0
0.00662335 0.00258883 0.0508463 0.00784314 0.239216 0.823529 0
-0.00459313 0.00682655 0.00630281 0.00784314 0.239216 0.823529 0
-0.000594079 -0.00634198 0.0666303 0.00784314 0.239216 0.823529 0
0.00676187 0.0024158 0.00306006 0.00784314 0.239216 0.823529 0
-0.00560365 0.0043815 0.0132558 0.00784314 0.239216 0.823529 0
0.00118434 0.00174771 0.18719 0.898039 0.898039 0.898039 1
0.00845806 -3.83432e-05 0.0339842 0.00784314 0.239216 0.823529 0
-0.0066538 -0.00255456 0.0355611 0.00784314 0.239216 0.823529 0
0.0075992 -0.00127166 0.0475602 0.00784314 0.239216 0.823529 0
-0.00101629 0.00172178 0.122341 0.898039 0.898039 0.898039 1
-0.00502405 0.00561768 0.0579143 0.00784314 0.239216 0.823529 0
-0.00100594 0.00545937 0.085 0.00784314 0.239216 0.823529 0
-0.00281745 0.00723871 0.0341805 0.00784314 0.239216 0.823529 0
0.00421893 0.00733073 0.0570482 0.00784314 0.239216 0.823529 0
7.7338e-05 0.00699082 0.0524351 0.00784314 0.239216 0.823529 0
0.0043066 0.00524051 -1.08849e-17 0.00784314 0.239216 0.823529 0
-0.00549493 0.00286545 0.0704921 0.00784314 0.239216 0.823529 0
0.00366234 0.00740132 0.0123188 0.00784314 0.239216 0.823529 0
-0.00791944 -0.000899247 0.0390193 0.00784314 0.239216 0.823529 0
-0.00566548 -0.00276713 0.0681049 0.00784314 0.239216 0.823529 0
-0.00225396 0.00714423 0.028813 0.00784314 0.239216 0.823529 0
-0.00497285 0.00575463 0.044004 0.00784314 0.239216 0.823529 0
-0.000322131 0.00700371 0.0147095 0.00784314 0.239216 0.823529 0
0.00161992 -0.00116436 0.110337 0.898039 0.898039 0.898039 1
0.00828952 -0.000474764 0.056148 0.00784314 0.239216 0.823529 0
0.00772282 0.00111902 0.048179 0.00784314 0.239216 0.823529 0
0.00541258 0.00350971 0.0645322 0.00784314 0.239216 0.823529 0
0.00760227 0.00127166 0.0358943 0.00784314 0.239216 0.823529 0
0.0011833 0.00577341 0.0772286 0.00784314 0.239216 0.823529 0
0.000191457 0.00198985 0.179022 0.898039 0.898039 0.898039 1
-0.00445923 -0.00715878 0.0171002 0.00784314 0.239216 0.823529 0
-0.0048599 -0.00605302 0.0172528 0.00784314 0.239216 0.823529 0
-0.00655512 -0.00270952 0.0814632 0.00784314 0.239216 0.823529 0
0.00271281 0.00271281 -1.77092e-16 0.00784314 0.239216 0.823529 0
-0.00350971 -0.00500708 0.0722314 0.00784314 0.239216 0.823529 0
0.00425472 0.00731007 0.0354157 0.00784314 0.239216 0.823529 0
0.00549637 0.0045873 0.0434193 0.00784314 0.239216 0.823529 0
-0.000756458 -0.00701821 0.0369612 0.00784314 0.239216 0.823529 0
-0.00499407 0.00569718 0.0473637 0.00784314 0.239216 0.823529 0
-0.00781151 0.00102877 0.0468002 0.00784314 0.239216 0.823529 0
0.00210476 0.00623965 0.0618789 0.00784314 0.239216 0.823529 0
-0.00463354 -0.00312495 0.085 0.00784314 0.239216 0.823529 0
-0.001937 0.000485231 0.164461 0.898039 0.898039 0.898039 1
-0.00301822 0.00644088 0.0844917 0.00784314 0.239216 0.823529 0
0.00288588 0.00726146 0.0326094 0.00784314 0.239216 0.823529 0
0.00554619 -0.00446479 0.0421969 0.00784314 0.239216 0.823529 0
-0.000474764 0.0070014 0.0410643 0.00784314 0.239216 0.823529 0
-0.00199156 9.65138e-05 0.131366 0.898039 0.898039 0.898039 1
0.00759724 -0.00127166 0.0548421 0.00784314 0.239216 0.823529 0
-0.00169047 0.00708854 0.00056075 0.00784314 0.239216 0.823529 0
0.00318417 -0.00563489 0.0643992 0.00784314 0.239216 0.823529 0
0.00394442 0.00744498 0.0458485 0.00784314 0.239216 0.823529 0
0.000354522 -0.00701084 0.00312522 0.00784314 0.239216 0.823529 0
-0.00562751 0.00434226 0.00180938 0.00784314 0.239216 0.823529 0
0.00225396 -0.0017984 0.085 0.00784314 0.239216 0.823529 0
-0.00604177 0.00351641 0.0455992 0.00784314 0.239216 0.823529 0
-0.00111902 0.00165504 0.147623 0.898039 0.898039 0.898039 1
-0.00255372 0.0055147 0.0729794 0.00784314 0.239216 0.823529 0
-0.00287979 0.00724925 0.0216578 0.00784314 0.239216 0.823529 0
0.000947265 0.00703772 0.018694 0.00784314 0.239216 0.823529 0
-0.00596117 0.00366234 0.0193491 0.00784314 0.239216 0.823529 0
0.00600616 0.00358038 0.018349 0.00784314 0.239216 0.823529 0
0.00198788 0.000138518 0.100895 0.898039 0.898039 0.898039 1
0.00591681 0.00375061 0.0170517 0.00784314 0.239216 0.823529 0
0.00271281 0.00721773 0.0538794 0.00784314 0.239216 0.823529 0
0.00575441 -0.00261345 0.0675132 0.00784314 0.239216 0.823529 0
-0.00170821 0.00103679 0.142365 0.898039 0.898039 0.898039 1
0.00450791 0.00708241 0.00484436 0.00784314 0.239216 0.823529 0
0.00367519 0.00740378 0.0450496 0.00784314 0.239216 0.823529 0
-0.000569102 0.00191592 0.137655 0.898039 0.898039 0.898039 1
0.000423384 0.00701172 0.00768314 0.00784314 0.239216 0.823529 0
-0.00514971 -0.00531047 0.0443603 0.00784314 0.239216 0.823529 0
-0.00554094 -0.00445923 0.0594294 0.00784314 0.239216 0.823529 0
0.00614627 0.00333943 0.0398583 0.00784314 0.239216 0.823529 0
0.0074027 0.00150895 0.0169353 0.00784314 0.239216 0.823529 0
-0.00475749 0.00634003 0.0124714 0.00784314 0.239216 0.823529 0
-0.00576106 0.00406852 0.012727 0.00784314 0.239216 0.823529 0
-0.00841169 0.000322131 0.016972 0.00784314 0.239216 0.823529 0
0.000474764 0.00701348 0.010725 0.00784314 0.239216 0.823529 0
-0.0074434 0.000522963 0.082121 0.00784314 0.239216 0.823529 0
-0.00206855 -0.00712089 0.0442646 0.00784314 0.239216 0.823529 0
-0.00563888 0.0043066 0.019834 0.00784314 0.239216 0.823529 0
0.00842175 -0.000301944 0.0427478 0.00784314 0.239216 0.823529 0
0.0055452 -0.00445923 0.0500141 0.00784314 0.239216 0.823529 0
0.00575471 0.00286545 0.0650902 0.00784314 0.239216 0.823529 0
0.00155195 0.00125721 0.142227 0.898039 0.898039 0.898039 1
-0.0057906 0.00397501 0.0835349 0.00784314 0.239216 0.823529 0
0.0051035 0.00543733 0.00609628 0.00784314 0.239216 0.823529 0
-0.000254616 -0.00700189 0.00723985 0.00784314 0.239216 0.823529 0
0.00616732 -0.00330407 0.0483317 0.00784314 0.239216 0.823529 0
0.00191515 0.000563489 0.120959 0.898039 0.898039 0.898039 1
0.00429751 0.00728536 0.00706821 0.00784314 0.239216 0.823529 0
-0.00773385 -0.00111902 0.0453797 0.00784314 0.239216 0.823529 0
0.000532899 -0.00192404 0.114974 0.898039 0.898039 0.898039 1
0.000640827 0.00189285 0.14956 0.898039 0.898039 0.898039 1
0.00778761 -0.00104551 0.0289273 0.00784314 0.239216 0.823529 0
-0.000474764 -0.00193656 0.135099 0.898039 0.898039 0.898039 1
-0.00651464 -0.00277455 0.0249197 0.00784314 0.239216 0.823529 0
0.00493289 0.0058782 0.0356036 0.00784314 0.239216 0.823529 0
-0.00563212 -0.00191592 0.0760703 0.00784314 0.239216 0.823529 0
8.16367e-18 0.002 0.160429 0.898039 0.898039 0.898039 1
-0.00839867 -0.000344349 0.0101497 0.00784314 0.239216 0.823529 0
-0.000185385 -0.00198378 0.115271 0.898039 0.898039 0.898039 1
0.00111902 -0.00176904 0.18126 0.898039 0.898039 0.898039 1
-0.0066463 0.00259395 0.0037056 0.00784314 0.239216 0.823529 0
-0.000568839 0.00191592 0.147943 0.898039 0.898039 0.898039 1
-0.00445923 0.00715946 0.0279006 0.00784314 0.239216 0.823529 0
0.00579952 0.00400113 0.00514676 0.00784314 0.239216 0.823529 0
-0.00700205 -0.00203858 0.0276124 0.00784314 0.239216 0.823529 0
0.00531558 -0.00493289 0.0597604 0.00784314 0.239216 0.823529 0
0.00759052 -0.00128421 0.0419565 0.00784314 0.239216 0.823529 0
0.00647758 0.00281745 0.0430825 0.00784314 0.239216 0.823529 0
-0.00575872 -0.00403673 0.0471171 0.00784314 0.239216 0.823529 0
-0.00540463 -0.00350971 0.0649848 0.00784314 0.239216 0.823529 0
0.00161677 0.000563489 0.181822 0.898039 0.898039 0.898039 1
0.0080067 -0.000789268 0.0354287 0.00784314 0.239216 0.823529 0
0.00623695 0.00183007 0.0635037 0.00784314 0.239216 0.823529 0
0.00198924 -0.00012304 0.10883 0.898039 0.898039 0.898039 1
0.00380591 0.00743287 0.0579557 0.00784314 0.239216 0.823529 0
-0.00111078 0.00206855 0.185245 0.898039 0.898039 0.898039 1
-0.00604638 -0.00350971 0.000105255 0.00784314 0.239216 0.823529 0
-0.00508994 -0.00543001 0.0600417 0.00784314 0.239216 0.823529 0
0.0047483 0.00636383 0.0238955 0.00784314 0.239216 0.823529 0
-0.00111902 0.00165484 0.1454 0.898039 0.898039 0.898039 1
-0.000322131 0.00699887 0.023448 0.00784314 0.239216 0.823529 0
0.00191592 0.0071069 0.0810043 0.00784314 0.239216 0.823529 0
-0.00271281 -0.00721998 0.0440159 0.00784314 0.239216 0.823529 0
-0.000403546 0.00605302 0.0733668 0.00784314 0.239216 0.823529 0
-0.000594079 -0.00588618 0.0765572 0.00784314 0.239216 0.823529 0
-0.00764681 0.000474764 0.059893 0.00784314 0.239216 0.823529 0
0.00150424 0.00705968 0.0539238 0.00784314 0.239216 0.823529 0
-0.00194176 -0.000463103 0.117274 0.898039 0.898039 0.898039 1
-0.00192245 -0.000532899 0.109455 0.898039 0.898039 0.898039 1
-0.0012655 0.00154712 0.0873714 0.898039 0.898039 0.898039 1
0.00222337 0.00524493 0.085 0.00784314 0.239216 0.823529 0
-0.00271281 0.00562813 0.0692692 0.00784314 0.239216 0.823529 0
-0.000138518 0.00198788 0.0884984 0.898039 0.898039 0.898039 1
-0.00311988 -0.0052777 0.0720283 0.00784314 0.239216 0.823529 0
-2.17698e-17 0.002 0.128859 0.898039 0.898039 0.898039 1
-0.00841165 0.000322131 0.0507224 0.00784314 0.239216 0.823529 0
0.00461339 -0.00676187 0.0263128 0.00784314 0.239216 0.823529 0
-0.00486223 0.00605302 0.0250691 0.00784314 0.239216 0.823529 0
0.00830915 0.000453777 0.0439781 0.00784314 0.239216 0.823529 0
-0.00525613 -0.00305808 0.078461 0.00784314 0.239216 0.823529 0
0.00765704 -0.00120432 0.0355304 0.00784314 0.239216 0.823529 0
-0.000565762 0.00191592 0.122951 0.898039 0.898039 0.898039 1
-0.000672541 0.00702353 0.0248536 0.00784314 0.239216 0.823529 0
-0.00557755 -0.00442494 0.0379802 0.00784314 0.239216 0.823529 0
-0.00684992 0.00227481 0.0489365 0.00784314 0.239216 0.823529 0
0.00674624 -0.00240449 0.057232 0.00784314 0.239216 0.823529 0
-0.00520568 0.00517933 0.00839325 0.00784314 0.239216 0.823529 0
0.00328844 -0.00669728 0.0807794 0.00784314 0.239216 0.823529 0
0.00156555 0.0070681 0.0324161 0.00784314 0.239216 0.823529 0
-0.0050759 0.00317449 0.0751539 0.00784314 0.239216 0.823529 0
0.00356906 -0.0073809 0.00924047 0.00784314 0.239216 0.823529 0
-0.00578724 0.00398885 0.0395658 0.00784314 0.239216 0.823529 0
0.00532874 -0.00493289 0.00566548 0.00784314 0.239216 0.823529 0
-0.00161313 0.00707844 0.0541256 0.00784314 0.239216 0.823529 0
-0.00316672 0.00729883 0.00695751 0.00784314 0.239216 0.823529 0
0.00410063 -0.0051035 0.0626758 0.00784314 0.239216 0.823529 0
-0.00104964 0.00170074 0.166487 0.898039 0.898039 0.898039 1
0.00800614 0.000788707 0.0252217 0.00784314 0.239216 0.823529 0
-0.00669728 -0.00251298 0.00437256 0.00784314 0.239216 0.823529 0
-0.00462321 0.00672985 0.0298502 0.00784314 0.239216 0.823529 0
0.00398961 0.00743877 0.0148721 0.00784314 0.239216 0.823529 0
-0.0081097 -0.000671417 0.0304227 0.00784314 0.239216 0.823529 0
-0.00109966 0.00705418 0.0192158 0.00784314 0.239216 0.823529 0
-0.00645717 -0.00188724 0.0848362 0.00784314 0.239216 0.823529 0
0.00489785 -0.00595256 0.0470405 0.00784314 0.239216 0.823529 0
-0.00121486 -0.0064359 0.08493 0.00784314 0.239216 0.823529 0
0.00184729 0.000757662 0.13669 0.898039 0.898039 0.898039 1
-0.00622007 0.00206855 0.0625231 0.00784314 0.239216 0.823529 0
-0.00684992 0.00228431 0.0365492 0.00784314 0.239216 0.823529 0
0.00589078 -0.00380591 0.0800461 0.00784314 0.239216 0.823529 0
-0.00618226 0.00328186 0.0831011 0.00784314 0.239216 0.823529 0
0.000532899 -0.00192397 0.113747 0.898039 0.898039 0.898039 1
0.000562704 -0.00191592 0.109485 0.898039 0.898039 0.898039 1
0.00158254 -0.00593241 0.0785384 0.00784314 0.239216 0.823529 0
0.000322131 0.00237292 0.188585 0.898039 0.898039 0.898039 1
-0.00158254 -0.00121352 0.145415 0.898039 0.898039 0.898039 1
0.00560065 -0.00434851 0.0514341 0.00784314 0.239216 0.823529 0
0.00557307 0.00445194 0.0173043 0.00784314 0.239216 0.823529 0
0.00445923 0.00597322 0.0824478 0.00784314 0.239216 0.823529 0
0.000532899 -0.00650042 0.0630335 0.00784314 0.239216 0.823529 0
0.00463809 0.00668453 0.0197527 0.00784314 0.239216 0.823529 0
-0.00350929 0.00736852 0.0505571 0.00784314 0.239216 0.823529 0
-0.00610218 0.00159589 0.0678907 0.00784314 0.239216 0.823529 0
-0.00477226 0.00628553 0.0399077 0.00784314 0.239216 0.823529 0
0.0043066 0.00728011 0.00359529 0.00784314 0.239216 0.823529 0
-0.0019327 -0.000489365 0.0912319 0.898039 0.898039 0.898039 1
-0.00202227 -0.00607462 0.0658633 0.00784314 0.239216 0.823529 0
-0.00413097 0.00738151 0.0520051 0.00784314 0.239216 0.823529 0
-0.0051663 0.00348886 0.0697147 0.00784314 0.239216 0.823529 0
-0.00206855 0.00712021 0.0109567 0.00784314 0.239216 0.823529 0
-0.00829107 -0.000473928 0.0212373 0.00784314 0.239216 0.823529 0
0.00345827 0.00735823 0.0524521 0.00784314 0.239216 0.823529 0
0.00151351 -0.00707824 0.0170439 0.00784314 0.239216 0.823529 0
0.00472287 0.00577341 0.0839905 0.00784314 0.239216 0.823529 0
0.00414185 -0.00459741 0.0786137 0.00784314 0.239216 0.823529 0
0.000563489 0.00701956 0.00846071 0.00784314 0.239216 0.823529 0
0.00445522 -0.00716474 0.0315969 0.00784314 0.239216 0.823529 0
-0.000322131 -0.00700165 0.0172528 0.00784314 0.239216 0.823529 0
0.00524008 -0.0051035 0.0326216 0.00784314 0.239216 0.823529 0
0.0061098 -0.00340028 0.0362256 0.00784314 0.239216 0.823529 0
0.00640173 -0.00292532 0.0544674 0.00784314 0.239216 0.823529 0
-0.00199732 3.05898e-05 0.1222 0.898039 0.898039 0.898039 1
0.0050371 -0.00558507 0.0547777 0.00784314 0.239216 0.823529 0
0.00164875 -0.00112698 0.140843 0.898039 0.898039 0.898039 1
-0.00197276 -0.000311325 0.158821 0.898039 0.898039 0.898039 1
-0.00554436 0.00448733 0.0301246 0.00784314 0.239216 0.823529 0
-0.00555755 0.00224231 0.0749747 0.00784314 0.239216 0.823529 0
0.00476901 0.0063369 0.0451097 0.00784314 0.239216 0.823529 0
0.00239969 0.00716715 0.0020053 0.00784314 0.239216 0.823529 0
0.00351823 0.00736849 0.0504569 0.00784314 0.239216 0.823529 0
-0.003403 0.00663678 0.080726 0.00784314 0.239216 0.823529 0
0.000953366 -0.00175615 0.130259 0.898039 0.898039 0.898039 1
-0.00677766 -0.00236188 0.0410441 0.00784314 0.239216 0.823529 0
0.00111902 -0.0070553 0.0290536 0.00784314 0.239216 0.823529 0
-0.00196907 -0.000349739 0.141739 0.898039 0.898039 0.898039 1
-0.0001114 -0.00199051 0.144874 0.898039 0.898039 0.898039 1
0.000722331 0.00702 0.0301009 0.00784314 0.239216 0.823529 0
-0.00323001 -0.00730893 0.0125211 0.00784314 0.239216 0.823529 0
0.00656814 -0.00271281 0.0140652 0.00784314 0.239216 0.823529 0
0.00515678 0.00529779 0.00591336 0.00784314 0.239216 0.823529 0
-0.000185385 -0.00198378 0.118458 0.898039 0.898039 0.898039 1
0.000935366 0.00176504 0.113704 0.898039 0.898039 0.898039 1
0.00127166 0.00704331 0.0513666 0.00784314 0.239216 0.823529 0
-0.00529127 0.00498654 0.0430792 0.00784314 0.239216 0.823529 0
-0.00474414 0.00636996 0.0440158 0.00784314 0.239216 0.823529 0
-0.00445923 -0.00597322 0.0819975 0.00784314 0.239216 0.823529 0
-0.00256843 0.00583071 0.0665473 0.00784314 0.239216 0.823529 0
-0.00505017 0.00554819 0.053113 0.00784314 0.239216 0.823529 0
0.0051035 0.0040722 0.0631306 0.00784314 0.239216 0.823529 0
-0.00175353 -0.000955992 0.149385 0.898039 0.898039 0.898039 1
-0.00578953 0.00397501 0.0506367 0.00784314 0.239216 0.823529 0
0.00484549 0.00608692 0.0540914 0.00784314 0.239216 0.823529 0
-0.000476718 -0.00656717 0.0617262 0.00784314 0.239216 0.823529 0
0.00192147 -0.000538234 0.139889 0.898039 0.898039 0.898039 1
0.00524095 -0.0051035 0.0451441 0.00784314 0.239216 0.823529 0
-0.000870604 0.0017984 0.150687 0.898039 0.898039 0.898039 1
0.00162064 -0.00708447 0.0149995 0.00784314 0.239216 0.823529 0
0.00604557 -0.00350971 0.00769007 0.00784314 0.239216 0.823529 0
-0.00481899 -0.00616779 0.032605 0.00784314 0.239216 0.823529 0
-0.0019753 -0.000282307 0.0993474 0.898039 0.898039 0.898039 1
0.00772902 0.00111902 0.0250691 0.00784314 0.239216 0.823529 0
0.00206855 -0.00712297 0.0123635 0.00784314 0.239216 0.823529 0
-0.00571097 0.00412843 0.0529604 0.00784314 0.239216 0.823529 0
-0.00549359 -0.00461016 0.00824217 0.00784314 0.239216 0.823529 0
-0.000185385 0.00198378 0.107149 0.898039 0.898039 0.898039 1
-0.00556032 -0.00447732 0.0117559 0.00784314 0.239216 0.823529 0
-0.00039756 0.00699775 0.0419791 0.00784314 0.239216 0.823529 0
0.00687545 0.00222121 0.0308512 0.00784314 0.239216 0.823529 0
-0.00705266 0.00197601 0.0238442 0.00784314 0.239216 0.823529 0
-0.00161818 -0.00116262 0.127224 0.898039 0.898039 0.898039 1
-0.00730314 0.00163465 0.000224921 0.00784314 0.239216 0.823529 0
-0.000424409 -0.00700888 0.0139126 0.00784314 0.239216 0.823529 0
0.00842248 -0.000300251 0.0339647 0.00784314 0.239216 0.823529 0
-0.00122777 0.00157603 0.129886 0.898039 0.898039 0.898039 1
0.000322131 -0.00607286 0.078461 0.00784314 0.239216 0.823529 0
-0.00351945 0.00533919 0.0659588 0.00784314 0.239216 0.823529 0
0.00155796 0.00124862 0.137157 0.898039 0.898039 0.898039 1
0.00197182 0.000322131 0.163729 0.898039 0.898039 0.898039 1
-0.000379895 0.00196244 0.144756 0.898039 0.898039 0.898039 1
0.00221816 -0.00669265 0.0794133 0.00784314 0.239216 0.823529 0
0.00492655 0.00590039 0.020094 0.00784314 0.239216 0.823529 0
0.00170815 0.00103673 0.166916 0.898039 0.898039 0.898039 1
0.00764681 -0.00121612 0.0379721 0.00784314 0.239216 0.823529 0
-0.00393161 0.00744583 0.0338219 0.00784314 0.239216 0.823529 0
0.000769436 -0.00645327 0.0635348 0.00784314 0.239216 0.823529 0
-0.00327669 -0.00732168 0.0586913 0.00784314 0.239216 0.823529 0
-0.00791944 -0.000902992 0.0424002 0.00784314 0.239216 0.823529 0
0.00764681 0.0012093 0.0117042 0.00784314 0.239216 0.823529 0
-0.00416727 -0.00736055 0.00874623 0.00784314 0.239216 0.823529 0
0.000424972 0.00700368 0.0282051 0.00784314 0.239216 0.823529 0
0.000926556 -0.00701701 0.0594882 0.00784314 0.239216 0.823529 0
-0.000322131 -0.00699501 0.0449179 0.00784314 0.239216 0.823529 0
-0.00170821 0.00103679 0.100927 0.898039 0.898039 0.898039 1
0.00660651 -0.000322131 0.0614341 0.00784314 0.239216 0.823529 0
-0.00388972 0.00744577 0.0263403 0.00784314 0.239216 0.823529 0
-0.00535053 -0.00489497 0.00848697 0.00784314 0.239216 0.823529 0
-0.0021793 -0.0071346 0.0369528 0.00784314 0.239216 0.823529 0
0.00516601 0.00286545 0.0768983 0.00784314 0.239216 0.823529 0
0.00543722 -0.00467149 0.0581562 0.00784314 0.239216 0.823529 0
-0.00502833 -0.0056043 0.0176067 0.00784314 0.239216 0.823529 0
0.000532899 -0.00192489 0.129319 0.898039 0.898039 0.898039 1
-0.00610573 0.0033165 0.0605402 0.00784314 0.239216 0.823529 0
0.00373677 -0.00741783 0.0485058 0.00784314 0.239216 0.823529 0
0.00175174 -0.00095778 0.116865 0.898039 0.898039 0.898039 1
0.0050714 0.00549809 0.000564091 0.00784314 0.239216 0.823529 0
-0.00327685 -0.00732152 0.0563006 0.00784314 0.239216 0.823529 0
0.00487364 0.00605093 0.028491 0.00784314 0.239216 0.823529 0
0.00813898 -0.000640827 0.0428558 0.00784314 0.239216 0.823529 0
-0.000209034 -0.00629949 0.0681014 0.00784314 0.239216 0.823529 0
-0.000634977 0.000179416 0.194011 0.898039 0.898039 0.898039 1
0.00170815 0.00103673 0.143009 0.898039 0.898039 0.898039 1
0.00580973 0.00394442 0.0386637 0.00784314 0.239216 0.823529 0
-0.0072374 0.00172106 0.0585255 0.00784314 0.239216 0.823529 0
0.00216575 0.00713334 0.0447792 0.00784314 0.239216 0.823529 0
0.00627572 0.00313241 0.0367556 0.00784314 0.239216 0.823529 0
-0.00650171 0.00281383 0.0111356 0.00784314 0.239216 0.823529 0
0.00500226 -0.00567368 0.0593356 0.00784314 0.239216 0.823529 0
-0.00274011 0.00722333 0.0225702 0.00784314 0.239216 0.823529 0
0.00581755 -0.00393987 0.0269441 0.00784314 0.239216 0.823529 0
-0.00417525 0.00735595 0.0170432 0.00784314 0.239216 0.823529 0
0.00626345 -0.000792517 0.067801 0.00784314 0.239216 0.823529 0
-0.00389197 -0.00684992 0.0597356 0.00784314 0.239216 0.823529 0
-0.00573055 0.00411355 0.0304284 0.00784314 0.239216 0.823529 0
-0.00196121 0.000378669 0.162932 0.898039 0.898039 0.898039 1
0.00189301 -0.000640827 0.105967 0.898039 0.898039 0.898039 1
-0.00512658 0.00536501 0.0210722 0.00784314 0.239216 0.823529 0
-0.00533482 -0.00286545 0.073625 0.00784314 0.239216 0.823529 0
-0.00655447 0.00270952 0.040024 0.00784314 0.239216 0.823529 0
0.00604557 0.00350971 0.00275607 0.00784314 0.239216 0.823529 0
-0.00250994 -0.0051035 0.085 0.00784314 0.239216 0.823529 0
-0.00669728 -0.00219446 0.060403 0.00784314 0.239216 0.823529 0
-0.00576993 -0.00401109 0.0526698 0.00784314 0.239216 0.823529 0
0.00605302 0.00349635 0.0242722 0.00784314 0.239216 0.823529 0
-0.00644962 0.00284804 0.0564874 0.00784314 0.239216 0.823529 0
0.00343012 -0.00735026 0.0350194 0.00784314 0.239216 0.823529 0
0.00788666 0.000926639 0.0514444 0.00784314 0.239216 0.823529 0
0.00133336 -0.00705188 0.0527152 0.00784314 0.239216 0.823529 0
0.00436049 0.00724802 0.0394748 0.00784314 0.239216 0.823529 0
0.00103718 -0.0017086 0.141416 0.898039 0.898039 0.898039 1
-0.00759359 0.00128728 0.0387689 0.00784314 0.239216 0.823529 0
-0.00253512 -0.00719139 0.0455306 0.00784314 0.239216 0.823529 0
-0.000379895 0.00196244 0.155912 0.898039 0.898039 0.898039 1
0.000397955 -0.00219635 0.19162 0.898039 0.898039 0.898039 1
0.00198884 -0.000127562 0.103199 0.898039 0.898039 0.898039 1
-0.00479365 0.00623443 0.0317864 0.00784314 0.239216 0.823529 0
-0.0081076 -0.00067431 0.0426008 0.00784314 0.239216 0.823529 0
0.00533941 -0.00488384 0.0433977 0.00784314 0.239216 0.823529 0
0.00391432 -0.0074456 0.0338828 0.00784314 0.239216 0.823529 0
-0.00127166 -0.000322131 0.186106 0.898039 0.898039 0.898039 1
-0.000959076 0.00702746 0.0475842 0.00784314 0.239216 0.823529 0
0.0069918 -0.00206855 0.0402101 0.00784314 0.239216 0.823529 0
0.00829107 0.000473571 0.0430842 0.00784314 0.239216 0.823529 0
-0.00764681 0.00120675 0.0017798 0.00784314 0.239216 0.823529 0
0.00108775 0.00167517 0.170867 0.898039 0.898039 0.898039 1
-0.000548306 -0.00700695 0.0385016 0.00784314 0.239216 0.823529 0
-0.0045385 -0.00391761 0.0782477 0.00784314 0.239216 0.823529 0
0.00328351 0.00732279 0.0353667 0.00784314 0.239216 0.823529 0
0.00669039 0.00249729 0.0376355 0.00784314 0.239216 0.823529 0
0.0043066 -0.00728011 0.0123048 0.00784314 0.239216 0.823529 0
-0.00841169 0.000322131 0.0137335 0.00784314 0.239216 0.823529 0
-0.00829107 -0.000474164 0.00674327 0.00784314 0.239216 0.823529 0
-0.00178302 -0.000893515 0.154473 0.898039 0.898039 0.898039 1
-0.00517471 0.00525613 0.0394132 0.00784314 0.239216 0.823529 0
-0.00112698 0.00164933 0.14604 0.898039 0.898039 0.898039 1
-0.00728947 -0.0016528 0.0510449 0.00784314 0.239216 0.823529 0
0.00684936 -0.00225903 0.0840628 0.00784314 0.239216 0.823529 0
0.00669728 -0.0025157 0.0368418 0.00784314 0.239216 0.823529 0
-0.00554492 0.00445923 0.0524477 0.00784314 0.239216 0.823529 0
-0.0012135 0.00592741 0.0736937 0.00784314 0.239216 0.823529 0
-0.0017961 -0.00605302 0.0678323 0.00784314 0.239216 0.823529 0
-0.00172106 -0.00591647 0.0711382 0.00784314 0.239216 0.823529 0
-0.00389768 -0.00333438 -1.46946e-16 0.00784314 0.239216 0.823529 0
0.00463306 -0.00669728 0.0339876 0.00784314 0.239216 0.823529 0
-0.00476661 -0.00630631 0.0589554 0.00784314 0.239216 0.823529 0
0.00771616 -0.00112458 0.0027683 0.00784314 0.239216 0.823529 0
0.000474764 0.00193819 0.157483 0.898039 0.898039 0.898039 1
0.00772503 0.00111902 0.0138767 0.00784314 0.239216 0.823529 0
-0.00130592 0.00151367 0.149085 0.898039 0.898039 0.898039 1
-0.00127166 -0.00154263 0.134366 0.898039 0.898039 0.898039 1
-0.0043066 0.00515976 0.0848362 0.00784314 0.239216 0.823529 0
0.000594567 -0.00700827 0.0359153 0.00784314 0.239216 0.823529 0
0.00444978 -0.00717147 0.019126 0.00784314 0.239216 0.823529 0
-0.00555755 0.00197478 0.0772286 0.00784314 0.239216 0.823529 0
-0.00142438 -0.000614245 0.18421 0.898039 0.898039 0.898039 1
-0.000791389 -0.00183445 0.173652 0.898039 0.898039 0.898039 1
0.00246254 -0.00609773 0.0618789 0.00784314 0.239216 0.823529 0
-0.00127166 -0.00154263 0.138228 0.898039 0.898039 0.898039 1
-0.0050403 0.00366234 0.0696952 0.00784314 0.239216 0.823529 0
-0.00777101 0.00106944 0.0220265 0.00784314 0.239216 0.823529 0
0.00244876 -0.00206855 0.085 0.00784314 0.239216 0.823529 0
-0.00193546 0.000474764 0.124681 0.898039 0.898039 0.898039 1
-0.000751058 -0.000474764 0.19257 0.898039 0.898039 0.898039 1
0.00574282 -0.00408801 0.0269909 0.00784314 0.239216 0.823529 0
-0.00271281 -0.00721672 0.0594882 0.00784314 0.239216 0.823529 0
0.0018897 0.00065132 0.126417 0.898039 0.898039 0.898039 1
-0.00463387 -0.00669728 0.0319462 0.00784314 0.239216 0.823529 0
0.00116653 -0.00162209 0.151131 0.898039 0.898039 0.898039 1
-0.00123491 -0.00705301 0.0208383 0.00784314 0.239216 0.823529 0
0.00291711 0.00520992 0.0755382 0.00784314 0.239216 0.823529 0
0.00176781 0.000926731 0.0963376 0.898039 0.898039 0.898039 1
0.000107928 -0.00699135 0.0209 0.00784314 0.239216 0.823529 0
0.00162456 0.00577341 0.0749747 0.00784314 0.239216 0.823529 0
0.00845671 -0.00015783 0.0076523 0.00784314 0.239216 0.823529 0
0.000474764 0.0019402 0.169877 0.898039 0.898039 0.898039 1
0.00164871 0.00111902 0.0959927 0.898039 0.898039 0.898039 1
0.00602763 0.00354188 0.0583083 0.00784314 0.239216 0.823529 0
0.0068698 -0.00225408 0.00810555 0.00784314 0.239216 0.823529 0
-0.00494926 -0.00453147 0.0791797 0.00784314 0.239216 0.823529 0
-0.00191592 0.00605302 -9.33294e-17 0.00784314 0.239216 0.823529 0
0.000550212 0.00191592 0.121654 0.898039 0.898039 0.898039 1
0.000927245 -0.00176965 0.156682 0.898039 0.898039 0.898039 1
0.00271281 -0.00448686 0.085 0.00784314 0.239216 0.823529 0
0.00604557 -0.00350971 0.00928386 0.00784314 0.239216 0.823529 0
-0.00127166 -0.00154263 0.108446 0.898039 0.898039 0.898039 1
0.00132625 -0.00149255 0.0874934 0.898039 0.898039 0.898039 1
-0.00329006 0.00510199 0.0731763 0.00784314 0.239216 0.823529 0
0.00377023 0.00742514 0.00691176 0.00784314 0.239216 0.823529 0
-0.00196872 0.000350644 0.17034 0.898039 0.898039 0.898039 1
-0.00127166 0.00154267 0.134982 0.898039 0.898039 0.898039 1
-0.000563489 -0.00461584 0.085 0.00784314 0.239216 0.823529 0
-0.00288814 -0.00335366 -6.53093e-17 0.00784314 0.239216 0.823529 0
-0.0066463 0.00259395 0.0204404 0.00784314 0.239216 0.823529 0
-0.00450791 0.00708276 0.0109146 0.00784314 0.239216 0.823529 0
0.00281745 0.00690145 0.0803683 0.00784314 0.239216 0.823529 0
0.00127166 0.00127166 -2.56645e-16 0.00784314 0.239216 0.823529 0
-0.00684992 -0.00174734 0.0845335 0.00784314 0.239216 0.823529 0
-0.00397429 0.00744063 0.0182549 0.00784314 0.239216 0.823529 0
-0.00845234 0.000201225 0.0430809 0.00784314 0.239216 0.823529 0
-0.00154183 -0.00127166 0.0980064 0.898039 0.898039 0.898039 1
-0.00042573 0.00700756 0.0810043 0.00784314 0.239216 0.823529 0
-0.00525613 -0.00508289 0.0192551 0.00784314 0.239216 0.823529 0
-0.00460391 0.00679246 0.008375 0.00784314 0.239216 0.823529 0
-0.00579104 -0.00399264 0.0282567 0.00784314 0.239216 0.823529 0
-0.00695421 0.00212571 0.0309716 0.00784314 0.239216 0.823529 0
-0.00428511 0.00495653 0.0625231 0.00784314 0.239216 0.823529 0
0.00709699 0.00191592 0.0819943 0.00784314 0.239216 0.823529 0
-0.00112698 0.00164576 0.105886 0.898039 0.898039 0.898039 1
0.00445498 0.0071643 0.00783572 0.00784314 0.239216 0.823529 0
-0.00286545 0.00566533 0.0669777 0.00784314 0.239216 0.823529 0
-0.00195727 0.000395361 0.166509 0.898039 0.898039 0.898039 1
-0.00791944 -0.000904538 0.0433358 0.00784314 0.239216 0.823529 0
-0.00135691 0.00706914 0.00611961 0.00784314 0.239216 0.823529 0
-6.28963e-05 0.00199724 0.161931 0.898039 0.898039 0.898039 1
-0.00694085 0.00214603 0.0443949 0.00784314 0.239216 0.823529 0
0.00349508 -0.00506518 0.0714416 0.00784314 0.239216 0.823529 0
-0.00649706 -0.00280402 0.021441 0.00784314 0.239216 0.823529 0
-0.0047361 -0.00639415 0.0444566 0.00784314 0.239216 0.823529 0
0.00543049 -0.00394442 0.0791929 0.00784314 0.239216 0.823529 0
-0.001568 -0.00123491 0.163338 0.898039 0.898039 0.898039 1
-0.00199673 -0.000107928 0.166954 0.898039 0.898039 0.898039 1
0.0042836 0.0043066 0.0784414 0.00784314 0.239216 0.823529 0
0.00644482 0.00286545 0.0477486 0.00784314 0.239216 0.823529 0
-0.000699165 -0.00191592 0.193214 0.898039 0.898039 0.898039 1
-0.00670622 -0.00246774 0.0813728 0.00784314 0.239216 0.823529 0
-0.00655168 -0.00271281 0.0318008 0.00784314 0.239216 0.823529 0
0.00337184 0.00178248 0.085 0.00784314 0.239216 0.823529 0
-0.000322131 0.00699778 0.0279548 0.00784314 0.239216 0.823529 0
0.00828813 -0.000477225 0.050524 0.00784314 0.239216 0.823529 0
0.00297895 -0.00727177 0.0472788 0.00784314 0.239216 0.823529 0
0.00114984 0.00704031 0.0413267 0.00784314 0.239216 0.823529 0
0.000698528 -0.00223492 0.190957 0.898039 0.898039 0.898039 1
-0.00271281 -0.00721928 0.0473312 0.00784314 0.239216 0.823529 0
0.00724876 0.00170487 0.0111763 0.00784314 0.239216 0.823529 0
0.00175741 -0.000945607 0.128201 0.898039 0.898039 0.898039 1
-0.00199324 -0.00582974 0.071289 0.00784314 0.239216 0.823529 0
0.00842175 -0.000301721 0.0212169 0.00784314 0.239216 0.823529 0
-0.0026665 0.00559829 0.0702993 0.00784314 0.239216 0.823529 0
0.00721743 -0.00112698 -9.36696e-17 0.00784314 0.239216 0.823529 0
0.00292009 0.00718763 0.0598305 0.00784314 0.239216 0.823529 0
-0.00485891 -0.00605302 0.0139053 0.00784314 0.239216 0.823529 0
-0.00775327 -0.00109639 0.0457812 0.00784314 0.239216 0.823529 0
-0.0076341 -0.00123491 0.0163999 0.00784314 0.239216 0.823529 0
0.00643894 -0.00289597 0.0270769 0.00784314 0.239216 0.823529 0
-0.0055015 0.0045385 0.0795905 0.00784314 0.239216 0.823529 0
-0.00611015 0.00340063 0.0521635 0.00784314 0.239216 0.823529 0
-0.00532438 -0.00286545 0.0738323 0.00784314 0.239216 0.823529 0
-0.00845806 3.1872e-05 0.0046713 0.00784314 0.239216 0.823529 0
-0.00286545 0.00724257 0.0520929 0.00784314 0.239216 0.823529 0
-0.00669728 -0.00247721 0.0498194 0.00784314 0.239216 0.823529 0
0.0069918 -0.00206855 0.0413179 0.00784314 0.239216 0.823529 0
0.00345827 0.00550047 0.0637049 0.00784314 0.239216 0.823529 0
-0.000138518 0.00699229 0.0591932 0.00784314 0.239216 0.823529 0
0.00366234 0.00740129 0.0148346 0.00784314 0.239216 0.823529 0
-0.00759661 0.0012903 0.0228311 0.00784314 0.239216 0.823529 0
0.00590865 -0.00178466 0.070879 0.00784314 0.239216 0.823529 0
0.00461234 0.00676187 0.0438456 0.00784314 0.239216 0.823529 0
0.00315041 -0.00676121 0.0823793 0.00784314 0.239216 0.823529 0
-0.00281693 0.00658652 0.0602872 0.00784314 0.239216 0.823529 0
0.000225021 0.00699241 0.045941 0.00784314 0.239216 0.823529 0
0.00386381 0.00744354 0.05393 0.00784314 0.239216 0.823529 0
-0.00399947 -0.00743647 0.0215266 0.00784314 0.239216 0.823529 0
-0.00111902 0.00164994 0.0902257 0.898039 0.898039 0.898039 1
0.00525613 0.00292537 -2.25521e-16 0.00784314 0.239216 0.823529 0
0.00321509 0.00731537 0.0427884 0.00784314 0.239216 0.823529 0
0.00445923 -0.00484007 0.0619216 0.00784314 0.239216 0.823529 0
-0.00386709 0.00482463 -1.63273e-16 0.00784314 0.239216 0.823529 0
0.00388739 0.00744535 0.00515818 0.00784314 0.239216 0.823529 0
0.00596046 0.00366234 0.0252217 0.00784314 0.239216 0.823529 0
-0.00162147 0.00116591 0.140619 0.898039 0.898039 0.898039 1
-0.00492256 0.00589167 0.0370225 0.00784314 0.239216 0.823529 0
0.00619838 0.00325262 0.0416562 0.00784314 0.239216 0.823529 0
-0.00823616 -0.000532899 0.0495097 0.00784314 0.239216 0.823529 0
-0.00658561 0.00264967 0.050616 0.00784314 0.239216 0.823529 0
-0.0019733 0.000322131 0.0993329 0.898039 0.898039 0.898039 1
-0.00590226 -0.00271281 0.0638337 0.00784314 0.239216 0.823529 0
-0.00115757 -0.00703349 0.0555347 0.00784314 0.239216 0.823529 0
0.00502934 -0.0040959 0.0789932 0.00784314 0.239216 0.823529 0
-0.0041246 0.00565921 0.0793809 0.00784314 0.239216 0.823529 0
-0.000425714 -0.00700757 0.0171002 0.00784314 0.239216 0.823529 0
-0.0047548 0.00633734 0.0411596 0.00784314 0.239216 0.823529 0
-0.00717854 0.0017984 0.0406481 0.00784314 0.239216 0.823529 0
-0.000322131 0.005901 0.0768672 0.00784314 0.239216 0.823529 0
-0.00164386 -0.00707485 0.0588186 0.00784314 0.239216 0.823529 0
-0.00107698 0.00705286 0.0304058 0.00784314 0.239216 0.823529 0
-0.00127166 0.00704973 0.0499255 0.00784314 0.239216 0.823529 0
-0.00698166 -0.00206855 0.0220342 0.00784314 0.239216 0.823529 0
-0.000953604 -0.00175591 0.176632 0.898039 0.898039 0.898039 1
-0.00366234 -0.0074012 0.0225717 0.00784314 0.239216 0.823529 0
-0.00555755 0.00443733 0.0501811 0.00784314 0.239216 0.823529 0
0.00605986 0.0034849 0.0826229 0.00784314 0.239216 0.823529 0
0.000962621 -0.00647067 0.0626758 0.00784314 0.239216 0.823529 0
0.000154009 0.00199282 0.174548 0.898039 0.898039 0.898039 1
0.00289385 0.00610733 0.0608737 0.00784314 0.239216 0.823529 0
