ply
format ascii 1.0
comment Created by Open3D
element vertex 773
property float32 x
property float32 y
property float32 z
property float32 red
property float32 green
property float32 blue
property uint8 segmentation
end_header
0.00246528 -0.00707446 -0.17476 0.772549 0.756863 0.741176 3
-0.000985896 0.00741375 -0.105316 0.772549 0.756863 0.741176 3
0.00749098 -0.000103118 -0.143039 0.772549 0.756863 0.741176 3
0.00904836 -0.0374641 0.00189954 0.776471 0.756863 0.737255 0
0.00492948 0.00338084 -0.0870403 0.898039 0.898039 0.898039 3
0.00113173 -0.0279409 0.00691583 0.776471 0.756863 0.737255 0
-0.00577142 0.00478365 -0.182455 0.772549 0.756863 0.741176 3
0.0121166 -0.00690127 -0.0109285 0.898039 0.898039 0.898039 3
0.000241338 0.0075 -0.0142131 0.898039 0.898039 0.898039 3
0.00540978 -0.00515646 -0.176377 0.772549 0.756863 0.741176 3
-0.00738704 -0.00129115 -0.17476 0.772549 0.756863 0.741176 3
0.0146848 -0.00129115 0.00948949 0.898039 0.898039 0.898039 3
-0.00409446 -0.0316139 -0.0065242 0.776471 0.756863 0.737255 0
0.00336762 0.00493878 -0.0682909 0.898039 0.898039 0.898039 3
-0.00480929 -0.0035525 -0.0917676 0.898039 0.898039 0.898039 3
0.00644838 0.0075 -0.00326515 0.776471 0.756863 0.737255 4
0.010699 -0.0085 -0.00710573 0.647059 0.517647 0 2
0.00519358 -0.00300439 -0.0425118 0.898039 0.898039 0.898039 3
0.00639271 0.00271801 -0.10273 0.898039 0.898039 0.898039 3
0.00110417 0.00936041 -0.00322179 0.776471 0.756863 0.737255 4
-0.0116849 0.000925174 -0.0130175 0.898039 0.898039 0.898039 3
-0.00343961 0.00763108 0.00580511 0.776471 0.756863 0.737255 4
0.00568019 -0.00192236 -0.0710809 0.898039 0.898039 0.898039 3
0.00607614 -0.00189903 -0.100783 0.898039 0.898039 0.898039 3
-0.000654545 -0.00744274 -0.111555 0.772549 0.756863 0.741176 3
-0.0149374 -0.00690442 0.00649472 0.898039 0.898039 0.898039 3
-0.00520257 -0.00298785 -0.0694592 0.898039 0.898039 0.898039 3
0.00709554 0.00238661 -0.123954 0.772549 0.756863 0.741176 3
-0.00342476 0.00847315 0.000313781 0.776471 0.756863 0.737255 4
0.0136165 0.00547395 0.0109707 0.898039 0.898039 0.898039 3
-0.000562291 -0.00655263 -0.101506 0.898039 0.898039 0.898039 3
-0.000976549 0.00948895 0.00623658 0.776471 0.756863 0.737255 4
-0.00696007 -0.00275306 -0.176154 0.772549 0.756863 0.741176 3
0.0152338 0.0075 -0.000532999 0.898039 0.898039 0.898039 3
-0.00731967 0.00155012 -0.146875 0.772549 0.756863 0.741176 3
-0.00318768 -0.00506627 -0.0370154 0.898039 0.898039 0.898039 3
-0.00415952 -0.00430535 -0.0420984 0.898039 0.898039 0.898039 3
-0.00027433 -0.0275962 -0.00999593 0.776471 0.756863 0.737255 0
-0.0024389 -0.0268666 -0.00676487 0.776471 0.756863 0.737255 0
0.00749098 -0.000103118 -0.105047 0.772549 0.756863 0.741176 3
0.0146728 0.0075 -0.00148391 0.898039 0.898039 0.898039 3
0.00801155 -0.0149067 -0.00519358 0.776471 0.756863 0.737255 0
-0.000584102 -0.0074489 -0.181731 0.772549 0.756863 0.741176 3
0.00310352 -0.02538 0.00668811 0.776471 0.756863 0.737255 0
0.00716538 -0.00212596 -0.183891 0.772549 0.756863 0.741176 3
-0.00407969 -0.00626434 -0.122285 0.772549 0.756863 0.741176 3
0.00149739 -0.0356121 0.00988492 0.776471 0.756863 0.737255 0
-0.016903 -0.00428592 -0.00445318 0.898039 0.898039 0.898039 3
0.00189084 0.00568859 -0.0562473 0.898039 0.898039 0.898039 3
-0.0167401 -0.000860163 0.00510045 0.898039 0.898039 0.898039 3
-0.00738704 -0.00129115 -0.132756 0.772549 0.756863 0.741176 3
0.00120581 -0.00739451 -0.151296 0.772549 0.756863 0.741176 3
-0.00129115 0.00584252 -0.0938926 0.898039 0.898039 0.898039 3
0.00144172 -0.00659128 -0.102052 0.898039 0.898039 0.898039 3
-0.00529487 0.00281186 -0.0323504 0.898039 0.898039 0.898039 3
0.00119616 0.00920389 -9.98906e-05 0.776471 0.756863 0.737255 4
0.00599805 -0.000103118 -0.0317772 0.898039 0.898039 0.898039 3
0.000584102 0.0074489 -0.17476 0.772549 0.756863 0.741176 3
-0.00665793 0.003401 -0.106608 0.772549 0.756863 0.741176 3
-0.00599211 0.0075 0.0049177 0.776471 0.756863 0.737255 4
0.00976729 -0.0362702 0.00213743 0.776471 0.756863 0.737255 0
0.00592037 -0.000961833 -0.0418124 0.898039 0.898039 0.898039 3
0.0138396 -0.00296427 0.0106925 0.898039 0.898039 0.898039 3
0.00746701 -0.0147884 -0.00586651 0.776471 0.756863 0.737255 0
0.00863479 0.0075 -0.0101845 0.647059 0.517647 0 2
-0.00826249 -0.000999974 -0.0154484 0.898039 0.898039 0.898039 3
-0.00646175 0.00379775 -0.141331 0.772549 0.756863 0.741176 3
-0.0174849 0.00428592 -0.000476617 0.898039 0.898039 0.898039 3
-0.0173351 0.00568019 -0.000263044 0.898039 0.898039 0.898039 3
0.0174907 0.00492948 0.000428585 0.898039 0.898039 0.898039 3
-0.0140197 -0.00365196 -0.0104585 0.898039 0.898039 0.898039 3
-0.00547395 0.00075576 0.016608 0.898039 0.898039 0.898039 3
-0.0112772 -0.00826848 0.0078861 0.647059 0.517647 0 2
0.00519358 -0.00537266 -0.11372 0.772549 0.756863 0.741176 3
-0.00137123 0.00736761 -0.165412 0.772549 0.756863 0.741176 3
-0.00524745 0.00289165 -0.0966239 0.898039 0.898039 0.898039 3
0.000225369 0.00748028 -0.17791 0.772549 0.756863 0.741176 3
0.00665957 -0.0329221 -0.00744796 0.776471 0.756863 0.737255 0
-0.0079873 -0.00464507 -0.015557 0.898039 0.898039 0.898039 3
-0.00488848 0.0075 0.00735417 0.776471 0.756863 0.737255 4
-0.00986299 -0.0184929 -0.00160743 0.776471 0.756863 0.737255 0
0.00445393 -0.0215 0.00174875 0.776471 0.756863 0.737255 4
-0.000236785 -0.0225298 0.00999666 0.776471 0.756863 0.737255 0
0.00743711 0.000718892 -0.167023 0.772549 0.756863 0.741176 3
0.0059079 0.00458874 -0.170893 0.772549 0.756863 0.741176 3
-0.0147884 0.0075 -0.00484217 0.898039 0.898039 0.898039 3
0.00334582 -0.00668366 -0.179158 0.772549 0.756863 0.741176 3
0.00500009 0.00556615 -0.105 0.772549 0.756863 0.741176 3
-0.00332703 -0.018732 -0.00942761 0.776471 0.756863 0.737255 0
0.00603502 -0.00440719 -0.183639 0.772549 0.756863 0.741176 3
-0.0045256 0.00393592 -0.0531002 0.898039 0.898039 0.898039 3
-0.0136843 0.00713923 -0.0022359 0.647059 0.517647 0 2
-0.00826249 -0.0374983 0.00359549 0.776471 0.756863 0.737255 0
-0.00547395 0.00241727 -0.0799499 0.898039 0.898039 0.898039 3
-0.00997777 -0.0305037 0.000544441 0.776471 0.756863 0.737255 0
-0.00303837 0.00682703 -0.112006 0.772549 0.756863 0.741176 3
0.00101169 0.0059138 -0.0691601 0.898039 0.898039 0.898039 3
-0.0124453 -0.0085 0.00318492 0.647059 0.517647 0 2
0.00749098 0.000103118 -0.149457 0.772549 0.756863 0.741176 3
-0.0057971 0.00658843 0.0155102 0.898039 0.898039 0.898039 3
0.0130976 0.0075 0.00764583 0.898039 0.898039 0.898039 3
-0.00343937 0.00936347 -0.00429324 0.776471 0.756863 0.737255 4
0.0016449 -0.0220195 0.00986225 0.776471 0.756863 0.737255 0
0.0052102 0.00535604 -0.175948 0.772549 0.756863 0.741176 3
0.00547395 0.00393292 -0.102052 0.898039 0.898039 0.898039 3
0.00591206 -0.00458279 -0.169317 0.772549 0.756863 0.741176 3
0.00151818 -0.00732823 -0.139153 0.772549 0.756863 0.741176 3
0.00343263 -0.00681986 0.0160048 0.898039 0.898039 0.898039 3
0.000103118 -0.00599788 -0.050464 0.898039 0.898039 0.898039 3
0.00211762 -0.00716761 -0.15496 0.772549 0.756863 0.741176 3
-0.00935568 -0.0329617 -0.00353069 0.776471 0.756863 0.737255 0
0.000262664 0.00568019 0.0173376 0.898039 0.898039 0.898039 3
-0.00693265 -0.00281186 -0.153408 0.772549 0.756863 0.741176 3
-0.00463754 -0.00379775 -0.039979 0.898039 0.898039 0.898039 3
6.70756e-05 0.00599413 -0.0924983 0.898039 0.898039 0.898039 3
-0.00305343 -0.00682 -0.181174 0.772549 0.756863 0.741176 3
-0.00273267 0.00846505 0.00634743 0.776471 0.756863 0.737255 4
-0.00484941 -0.0327605 -0.00605369 0.776471 0.756863 0.737255 0
-0.0153334 -0.00316507 0.0084064 0.898039 0.898039 0.898039 3
0.00568019 -0.00289165 0.0165445 0.898039 0.898039 0.898039 3
0.00487967 -0.0075 0.0143355 0.898039 0.898039 0.898039 3
0.0055046 -0.0182479 0.00834812 0.776471 0.756863 0.737255 0
0.00675544 -0.031064 -0.00736145 0.776471 0.756863 0.737255 0
-0.00479306 -0.00358396 -0.0403986 0.898039 0.898039 0.898039 3
0.000118273 0.00598965 -0.0357564 0.898039 0.898039 0.898039 3
0.00379775 -0.0046418 -0.0687781 0.898039 0.898039 0.898039 3
-0.00493584 -0.0127766 -0.00868718 0.776471 0.756863 0.737255 0
-0.00321577 -0.00674431 -0.140972 0.772549 0.756863 0.741176 3
-0.0066898 0.00268542 -0.103585 0.898039 0.898039 0.898039 3
-0.00428507 -0.00418173 -0.0457352 0.898039 0.898039 0.898039 3
-0.00330679 0.00768869 0.00616979 0.776471 0.756863 0.737255 4
-0.00550544 0.00235432 -0.0732204 0.898039 0.898039 0.898039 3
-0.00554783 0.00226807 -0.0389525 0.898039 0.898039 0.898039 3
-0.0141215 0.00426936 0.0103306 0.898039 0.898039 0.898039 3
-0.0174849 0.00382814 -0.000476617 0.898039 0.898039 0.898039 3
0.00209007 0.00717499 -0.127456 0.772549 0.756863 0.741176 3
-0.000264477 0.00747686 -0.160817 0.772549 0.756863 0.741176 3
0.00534397 0.00268542 -0.0952868 0.898039 0.898039 0.898039 3
-0.00985896 -0.0198638 0.00161978 0.776471 0.756863 0.737255 0
0.00479334 -0.0246474 -0.00876991 0.776471 0.756863 0.737255 0
0.00557396 -0.00499228 -0.121003 0.772549 0.756863 0.741176 3
0.00934286 -0.0157743 -0.00355956 0.776471 0.756863 0.737255 0
-0.00444858 -0.00947436 -0.0113003 0.776471 0.756863 0.737255 4
-0.00367948 -0.00924813 0.0118694 0.776471 0.756863 0.737255 4
0.00568019 -0.0333319 0.0082216 0.776471 0.756863 0.737255 0
-0.00672117 0.00326539 -0.138558 0.772549 0.756863 0.741176 3
-0.00504989 -0.00322393 -0.050464 0.898039 0.898039 0.898039 3
0.00913698 -0.00662681 -0.0137651 0.898039 0.898039 0.898039 3
-0.0155102 -0.00671532 0.00550544 0.898039 0.898039 0.898039 3
-0.00700019 0.00266702 -0.148962 0.772549 0.756863 0.741176 3
0.0140458 0.0075 -0.000286869 0.898039 0.898039 0.898039 3
0.00450886 0.000380018 0.016905 0.898039 0.898039 0.898039 3
0.0172883 0.00457399 0.00263914 0.898039 0.898039 0.898039 3
0.00794735 -0.0216964 -0.00606786 0.776471 0.756863 0.737255 0
0.00679102 -0.00311559 -0.137343 0.772549 0.756863 0.741176 3
-0.0024415 -0.00547395 -0.0325448 0.898039 0.898039 0.898039 3
0.00235793 -0.00556057 -0.0996185 0.898039 0.898039 0.898039 3
-0.00170769 -0.00574849 -0.0257516 0.898039 0.898039 0.898039 3
-0.00417464 0.00619786 -0.110714 0.772549 0.756863 0.741176 3
-0.00194384 -0.00608916 -0.100864 0.898039 0.898039 0.898039 3
-0.00826249 -0.00572478 0.0152014 0.898039 0.898039 0.898039 3
0.00407969 0.00626434 -0.12436 0.772549 0.756863 0.741176 3
0.00707446 -0.00246528 -0.128543 0.772549 0.756863 0.741176 3
-0.00910667 -0.0340705 0.00411128 0.776471 0.756863 0.737255 0
-0.00679665 0.00310352 -0.136813 0.772549 0.756863 0.741176 3
-0.00418733 -0.00428592 -0.0239729 0.898039 0.898039 0.898039 3
-0.00232998 0.00739365 0.0134549 0.647059 0.517647 0 2
0.0112548 0.00624755 0.0125525 0.898039 0.898039 0.898039 3
0.00899134 0.0075 0.00188637 0.776471 0.756863 0.737255 4
0.00942928 -0.0136307 0.00112589 0.776471 0.756863 0.737255 0
0.00322554 -0.0050515 -0.0239729 0.898039 0.898039 0.898039 3
-0.0167433 -0.00125 -0.00504775 0.898039 0.898039 0.898039 3
0.017374 0.00526 0.0020386 0.898039 0.898039 0.898039 3
0.00626434 -0.00407969 -0.145946 0.772549 0.756863 0.741176 3
-0.00422517 -0.00424662 -0.0299479 0.898039 0.898039 0.898039 3
0.0154685 0.0057971 0.00762307 0.898039 0.898039 0.898039 3
-0.0055984 0.00325919 -0.1011 0.898039 0.898039 0.898039 3
0.00420769 -0.000414858 0.0169788 0.898039 0.898039 0.898039 3
-0.00417182 0.00428592 -0.0620278 0.898039 0.898039 0.898039 3
0.00644838 0.0075 0.00231192 0.776471 0.756863 0.737255 4
0.00898891 -0.0202756 0.00437129 0.776471 0.756863 0.737255 0
-0.00321778 -0.00504374 -0.0478817 0.898039 0.898039 0.898039 3
-0.00233841 0.0075 0.015533 0.898039 0.898039 0.898039 3
-0.006783 0.00313279 -0.105288 0.772549 0.756863 0.741176 3
-0.00275306 -0.00696007 -0.110418 0.772549 0.756863 0.741176 3
0.00411911 -0.00623674 -0.121778 0.772549 0.756863 0.741176 3
-0.00682992 0.00303217 -0.165 0.772549 0.756863 0.741176 3
-0.0152413 -0.0075 0.00391242 0.898039 0.898039 0.898039 3
0.00707446 -0.00246528 -0.174554 0.772549 0.756863 0.741176 3
0.00428592 -0.00418355 -0.0398216 0.898039 0.898039 0.898039 3
-0.0138515 -0.00187494 0.0106775 0.898039 0.898039 0.898039 3
0.00595191 0.000612637 -0.0466379 0.898039 0.898039 0.898039 3
-0.00473192 0.00367948 -0.0516765 0.898039 0.898039 0.898039 3
-0.0115004 0.00707446 0.0113545 0.898039 0.898039 0.898039 3
0.00951504 -0.0310589 -0.00305892 0.776471 0.756863 0.737255 0
0.00138806 0.00942106 -0.00166465 0.776471 0.756863 0.737255 4
0.00702216 -0.00686822 -0.0147635 0.898039 0.898039 0.898039 3
-0.00283326 -0.00692267 -0.120177 0.772549 0.756863 0.741176 3
-0.00534544 0.00268542 -0.0908978 0.898039 0.898039 0.898039 3
-0.00686822 0.00295003 -0.134326 0.772549 0.756863 0.741176 3
0.00149739 -0.0073338 -0.106235 0.772549 0.756863 0.741176 3
0.009988 -0.0285468 0.000303188 0.776471 0.756863 0.737255 0
0.00214775 0.00559359 -0.0490698 0.898039 0.898039 0.898039 3
-0.00699161 -0.00268542 -0.135721 0.772549 0.756863 0.741176 3
0.00241511 0.00548288 -0.0360706 0.898039 0.898039 0.898039 3
0.00842017 0.0075 -0.00326515 0.776471 0.756863 0.737255 4
0.00152658 -0.00578146 -0.0738804 0.898039 0.898039 0.898039 3
-0.00374321 0.0046836 -0.0672229 0.898039 0.898039 0.898039 3
0.00764583 0.0075 -0.00326515 0.776471 0.756863 0.737255 4
0.00118501 0.0075 -0.0123544 0.647059 0.517647 0 2
0.00430918 0.00416335 -0.0367276 0.898039 0.898039 0.898039 3
-0.0090189 -0.0075 -0.0116828 0.898039 0.898039 0.898039 3
-0.00240119 0.00709163 -0.172358 0.772549 0.756863 0.741176 3
0.00731967 -0.00155012 -0.105047 0.772549 0.756863 0.741176 3
-0.00420637 -0.0370008 0.00892214 0.776471 0.756863 0.737255 0
-0.00547395 -0.00241905 -0.0769551 0.898039 0.898039 0.898039 3
-0.00290537 0.00851525 0.00459943 0.776471 0.756863 0.737255 4
-0.00948602 -0.00846872 0.00963185 0.647059 0.517647 0 2
0.004425 -0.00602255 -0.108724 0.772549 0.756863 0.741176 3
-0.00576955 -0.00478633 -0.124693 0.772549 0.756863 0.741176 3
0.00768158 0.00197179 -0.015841 0.898039 0.898039 0.898039 3
-0.0154401 0.0075 -0.000532999 0.898039 0.898039 0.898039 3
-0.00646175 -0.00379775 -0.158062 0.772549 0.756863 0.741176 3
0.00630781 -0.0040176 -0.154915 0.772549 0.756863 0.741176 3
-0.00580585 -0.00149739 -0.0219626 0.898039 0.898039 0.898039 3
0.00561857 -0.00210303 -0.0509024 0.898039 0.898039 0.898039 3
0.00620532 0.00416398 -0.153892 0.772549 0.756863 0.741176 3
0.00289165 0.00525332 -0.0650811 0.898039 0.898039 0.898039 3
-0.00568019 0.00192363 -0.0693469 0.898039 0.898039 0.898039 3
-0.00206873 0.00563157 -0.0612241 0.898039 0.898039 0.898039 3
-0.00955343 0.0075 0.00751867 0.647059 0.517647 0 2
-0.00597367 0.000524975 -0.0248605 0.898039 0.898039 0.898039 3
-0.000182194 -0.00748406 -0.158529 0.772549 0.756863 0.741176 3
-0.0105759 -0.00420769 -0.0139208 0.898039 0.898039 0.898039 3
0.0024708 -0.0152126 0.00968393 0.776471 0.756863 0.737255 0
0.00341909 -0.00491455 -0.065976 0.898039 0.898039 0.898039 3
-0.00651133 0.00371538 -0.122405 0.772549 0.756863 0.741176 3
-0.0154401 0.00568019 0.00790137 0.898039 0.898039 0.898039 3
0.00407969 0.00437415 -0.0441924 0.898039 0.898039 0.898039 3
-0.00965676 -0.0166281 -0.00257849 0.776471 0.756863 0.737255 0
-0.00740099 0.00113173 -0.158517 0.772549 0.756863 0.741176 3
-0.0136862 0.00368142 0.0108838 0.898039 0.898039 0.898039 3
-0.0074679 0.00036694 -0.137804 0.772549 0.756863 0.741176 3
-0.00661387 -0.00281186 -0.103533 0.898039 0.898039 0.898039 3
0.00978798 -0.0201655 0.00203696 0.776471 0.756863 0.737255 0
0.00149739 -0.0299852 0.00988492 0.776471 0.756863 0.737255 0
0.00707446 -0.00246528 -0.181294 0.772549 0.756863 0.741176 3
0.0147884 0.0053582 0.00933476 0.898039 0.898039 0.898039 3
0.00845223 -0.0175571 0.00534402 0.776471 0.756863 0.737255 0
0.00591538 0.000967083 -0.0852713 0.898039 0.898039 0.898039 3
0.00339797 -0.0215 -0.00253314 0.776471 0.756863 0.737255 4
0.000548968 0.00872431 0.00783003 0.776471 0.756863 0.737255 4
0.00428429 0.00612107 -0.152161 0.772549 0.756863 0.741176 3
-0.00382531 0.00919318 -0.00677814 0.776471 0.756863 0.737255 4
-0.00972904 -0.0312729 0.00231192 0.776471 0.756863 0.737255 0
0.00738704 -0.00129115 -0.109331 0.772549 0.756863 0.741176 3
0.000631277 0.00594817 -0.0645679 0.898039 0.898039 0.898039 3
0.0128911 0.00440934 -0.0118162 0.898039 0.898039 0.898039 3
-0.00441548 -0.00602921 -0.146172 0.772549 0.756863 0.741176 3
0.00965676 0.0073306 -0.00584745 0.647059 0.517647 0 2
0.00492948 0.0075 -0.0132078 0.898039 0.898039 0.898039 3
-0.00590485 0.0010635 -0.0349663 0.898039 0.898039 0.898039 3
0.00868769 -0.0174926 -0.00494423 0.776471 0.756863 0.737255 0
-0.00549093 -0.00507531 -0.107445 0.772549 0.756863 0.741176 3
0.00291762 -0.00688334 -0.136876 0.772549 0.756863 0.741176 3
0.00665957 -0.0171478 -0.00744796 0.776471 0.756863 0.737255 0
0.00689544 0.00289165 -0.119142 0.772549 0.756863 0.741176 3
0.00748965 -0.000118273 -0.110684 0.772549 0.756863 0.741176 3
0.0140173 -0.00742272 0.0074279 0.898039 0.898039 0.898039 3
0.000103118 0.00599098 -0.0953957 0.898039 0.898039 0.898039 3
-0.00170504 -0.00727816 -0.115581 0.772549 0.756863 0.741176 3
0.00287915 -0.00690127 -0.137917 0.772549 0.756863 0.741176 3
-0.00740099 -0.00113173 -0.166882 0.772549 0.756863 0.741176 3
-0.00379775 0.0041204 -0.1855 0.898039 0.898039 0.898039 3
-0.0089866 -0.0135256 0.00306441 0.776471 0.756863 0.737255 0
0.00568019 -0.0075 0.013033 0.898039 0.898039 0.898039 3
0.00596621 0.000985896 -0.0995884 0.898039 0.898039 0.898039 3
-0.0144739 0.00217712 -0.00979947 0.898039 0.898039 0.898039 3
-0.00319669 -0.0302383 0.00707995 0.776471 0.756863 0.737255 0
-0.00299248 0.00684843 -0.133717 0.772549 0.756863 0.741176 3
0.000834079 0.00742703 -0.155694 0.772549 0.756863 0.741176 3
-0.00160022 -0.0358614 -0.00986977 0.776471 0.756863 0.737255 0
0.00289165 0.00525666 -0.0353333 0.898039 0.898039 0.898039 3
-0.00772495 -0.0233826 0.00634008 0.776471 0.756863 0.737255 0
-0.00528643 -0.00281186 -0.090918 0.898039 0.898039 0.898039 3
0.0161139 -0.00373523 -0.00679776 0.898039 0.898039 0.898039 3
-0.00213364 -0.00716332 -0.132946 0.772549 0.756863 0.741176 3
-0.00559587 0.00215306 -0.033485 0.898039 0.898039 0.898039 3
-0.00283942 0.00528264 -0.0229397 0.898039 0.898039 0.898039 3
-0.00178467 -0.00572035 -0.0591046 0.898039 0.898039 0.898039 3
-0.00978754 -0.0238057 0.00204621 0.776471 0.756863 0.737255 0
-0.0166686 0.00547395 0.00530669 0.898039 0.898039 0.898039 3
-0.0147052 0.000801797 -0.0094639 0.898039 0.898039 0.898039 3
0.00566383 0.00197179 -0.0839491 0.898039 0.898039 0.898039 3
-0.00822325 -0.00836908 0.0108838 0.647059 0.517647 0 2
-0.00986469 -0.0265942 0.00158369 0.776471 0.756863 0.737255 0
-0.00549093 0.00507531 -0.179947 0.772549 0.756863 0.741176 3
0.00663308 0.00345429 -0.1577 0.772549 0.756863 0.741176 3
0.00429066 -0.00611662 -0.118783 0.772549 0.756863 0.741176 3
-0.00242666 -0.0070848 -0.170759 0.772549 0.756863 0.741176 3
0.00716538 -0.0112694 0.00691938 0.776471 0.756863 0.737255 0
-0.000462048 -0.00597365 -0.0398371 0.898039 0.898039 0.898039 3
0.00599174 0.000222193 -0.0518583 0.898039 0.898039 0.898039 3
0.00211734 0.00637257 -0.10193 0.898039 0.898039 0.898039 3
0.00579355 -0.00725004 0.0149026 0.898039 0.898039 0.898039 3
0.00549773 -0.00238173 -0.0574461 0.898039 0.898039 0.898039 3
0.00776466 -0.0297257 0.0062909 0.776471 0.756863 0.737255 0
-0.00560556 -0.00213102 -0.0473956 0.898039 0.898039 0.898039 3
-0.00390617 0.00455416 -0.0302135 0.898039 0.898039 0.898039 3
0.00626434 0.00407969 -0.159423 0.772549 0.756863 0.741176 3
-0.00503295 -0.0246626 0.00863853 0.776471 0.756863 0.737255 0
0.00609051 0.00432794 -0.13514 0.772549 0.756863 0.741176 3
0.00679449 -0.0374674 0.00414866 0.776471 0.756863 0.737255 0
-0.0055192 -0.00236763 -0.0199211 0.898039 0.898039 0.898039 3
-0.00595184 -0.000550251 -0.0753325 0.898039 0.898039 0.898039 3
-0.0136567 -0.00394358 -0.0109276 0.898039 0.898039 0.898039 3
0.00738704 0.00129115 -0.171972 0.772549 0.756863 0.741176 3
-0.00738794 0.00128085 -0.140542 0.772549 0.756863 0.741176 3
-0.00173045 0.0075 -0.0156073 0.898039 0.898039 0.898039 3
-0.00518521 -0.00306759 -0.0994696 0.898039 0.898039 0.898039 3
0.011109 -0.00948512 0.00481121 0.776471 0.756863 0.737255 4
-0.00407969 -0.00626434 -0.105 0.772549 0.756863 0.741176 3
0.00435352 0.00412347 -0.0323823 0.898039 0.898039 0.898039 3
0.00958032 -0.0085 0.0091003 0.647059 0.517647 0 2
0.0100048 -0.00197179 -0.0143339 0.898039 0.898039 0.898039 3
0.000584102 0.0074489 -0.116201 0.772549 0.756863 0.741176 3
-0.00428592 -0.00631975 0.0162546 0.898039 0.898039 0.898039 3
-0.00407969 -0.00626434 -0.125754 0.772549 0.756863 0.741176 3
-0.00485525 0.00762307 -0.00632531 0.776471 0.756863 0.737255 4
0.00283326 -0.00692267 -0.135721 0.772549 0.756863 0.741176 3
-0.00481121 0.0075 0.0125525 0.647059 0.517647 0 2
0.00778591 0.00737508 0.0082597 0.647059 0.517647 0 2
-0.00525422 -0.00288122 -0.0904671 0.898039 0.898039 0.898039 3
-0.00516693 -0.00304931 -0.0423046 0.898039 0.898039 0.898039 3
0.00577378 -0.00157751 -0.0665008 0.898039 0.898039 0.898039 3
-0.00408942 -0.00613472 -0.184601 0.811765 0.803922 0.792157 3
-0.00426014 0.00419593 -0.0750711 0.898039 0.898039 0.898039 3
0.00581063 -0.00143819 -0.0683333 0.898039 0.898039 0.898039 3
0.0152338 -0.0075 0.00231192 0.898039 0.898039 0.898039 3
0.00435352 0.00411303 -0.0518916 0.898039 0.898039 0.898039 3
0.000211914 0.00598146 -0.0604301 0.898039 0.898039 0.898039 3
-0.000273604 -0.00597606 -0.0455577 0.898039 0.898039 0.898039 3
0.00749098 -0.000103118 -0.124566 0.772549 0.756863 0.741176 3
0.00186245 0.00723598 -0.16247 0.772549 0.756863 0.741176 3
0.00428592 -0.00611993 -0.181525 0.772549 0.756863 0.741176 3
0.00813426 -0.0095 0.000259873 0.776471 0.756863 0.737255 4
-0.00761168 -0.0095 -0.00738238 0.776471 0.756863 0.737255 4
0.00394358 0.00450941 -0.0705748 0.898039 0.898039 0.898039 3
-0.00303014 0.00683087 -0.125521 0.772549 0.756863 0.741176 3
0.00458036 0.00710457 -0.0100303 0.647059 0.517647 0 2
0.0135953 0.00244107 -0.0110023 0.898039 0.898039 0.898039 3
0.00585338 0.00129115 -0.0598898 0.898039 0.898039 0.898039 3
0.000229277 0.00597994 -0.0398247 0.898039 0.898039 0.898039 3
-0.00875479 0.00708216 0.00663717 0.647059 0.517647 0 2
0.00292087 0.00749515 0.0132647 0.647059 0.517647 0 2
-0.00983257 0.0075 0.00341059 0.776471 0.756863 0.737255 4
0.00954371 -0.0365884 0.0029543 0.776471 0.756863 0.737255 0
-0.00320886 -0.00504997 -0.0571213 0.898039 0.898039 0.898039 3
0.00535722 0.00268542 -0.0506703 0.898039 0.898039 0.898039 3
-0.00632267 0.00686822 0.0150666 0.898039 0.898039 0.898039 3
0.00591538 -0.000469571 0.0164679 0.898039 0.898039 0.898039 3
-0.00967446 -0.0299072 0.00251815 0.776471 0.756863 0.737255 0
-0.00394358 0.004517 -0.0398933 0.898039 0.898039 0.898039 3
0.00482329 -0.0338509 -0.00875413 0.776471 0.756863 0.737255 0
0.0057771 -0.00154701 -0.0852031 0.898039 0.898039 0.898039 3
-0.000103118 -0.00599098 -0.0966811 0.898039 0.898039 0.898039 3
0.00595935 -0.00155033 -0.01855 0.898039 0.898039 0.898039 3
-0.00328501 0.00500662 -0.0707083 0.898039 0.898039 0.898039 3
-0.00268542 -0.00535426 -0.0518583 0.898039 0.898039 0.898039 3
-0.00738667 0.0012954 -0.138848 0.772549 0.756863 0.741176 3
0.00289165 0.00525422 -0.0591667 0.898039 0.898039 0.898039 3
0.00584482 0.00129115 -0.0897097 0.898039 0.898039 0.898039 3
0.00585144 -0.00129115 -0.0550004 0.898039 0.898039 0.898039 3
0.000409934 0.0075 -0.0162391 0.898039 0.898039 0.898039 3
-0.00430056 0.00415473 -0.0811379 0.898039 0.898039 0.898039 3
-0.00126474 0.00585163 -0.0711941 0.898039 0.898039 0.898039 3
-0.00040816 -0.0075 0.0146921 0.898039 0.898039 0.898039 3
0.00145707 -0.000522504 -0.1855 0.898039 0.898039 0.898039 3
-0.00507531 -0.00318363 -0.0659257 0.898039 0.898039 0.898039 3
-0.00397514 -0.0157623 0.0091729 0.776471 0.756863 0.737255 0
0.011051 -0.00428592 -0.0135643 0.898039 0.898039 0.898039 3
0.00417028 -0.00428592 -0.0772724 0.898039 0.898039 0.898039 3
-0.00599522 -0.000103118 -0.0806178 0.898039 0.898039 0.898039 3
-0.005871 0.00120892 -0.0634472 0.898039 0.898039 0.898039 3
0.00032021 -0.00747199 -0.11319 0.772549 0.756863 0.741176 3
-0.011051 0.00500311 -0.0135643 0.898039 0.898039 0.898039 3
-0.00863008 0.00149739 -0.0152195 0.898039 0.898039 0.898039 3
-0.00129115 -0.00584207 -0.0848596 0.898039 0.898039 0.898039 3
-0.00666958 -0.0203263 -0.00744796 0.776471 0.756863 0.737255 0
-0.0117671 -0.00716538 -0.0109631 0.898039 0.898039 0.898039 3
-0.00289165 -0.00525404 -0.0622902 0.898039 0.898039 0.898039 3
-0.00516638 -0.00304875 -0.0729785 0.898039 0.898039 0.898039 3
0.00570162 0.00185352 -0.0495589 0.898039 0.898039 0.898039 3
-0.00826249 -0.0095 0.00670096 0.776471 0.756863 0.737255 4
-0.0118817 -0.00138628 0.0128347 0.898039 0.898039 0.898039 3
0.00748197 -0.000206122 -0.146324 0.772549 0.756863 0.741176 3
-0.0122099 -0.0075 -0.00696855 0.898039 0.898039 0.898039 3
0.00889409 -0.0305708 0.00456813 0.776471 0.756863 0.737255 0
-0.00310116 -0.00679775 -0.117847 0.772549 0.756863 0.741176 3
0.00149739 0.0073338 -0.142692 0.772549 0.756863 0.741176 3
0.00492948 0.00402091 0.0167756 0.898039 0.898039 0.898039 3
-0.00504441 -0.00547395 -0.0175492 0.898039 0.898039 0.898039 3
0.000673826 0.0075 -0.0177463 0.898039 0.898039 0.898039 3
0.00568019 -0.00191664 -0.0769906 0.898039 0.898039 0.898039 3
-0.00548971 -0.00238989 -0.0700508 0.898039 0.898039 0.898039 3
0.00507531 -0.0323168 -0.00861423 0.776471 0.756863 0.737255 0
0.0073338 -0.00149739 -0.108041 0.772549 0.756863 0.741176 3
0.00216647 0.00558486 -0.0417512 0.898039 0.898039 0.898039 3
-0.00547395 -0.00240989 -0.0906467 0.898039 0.898039 0.898039 3
-0.00599195 -0.000222409 -0.0518583 0.898039 0.898039 0.898039 3
-0.00159329 -0.0085 0.0133355 0.647059 0.517647 0 2
0.00428592 -0.00611993 -0.111812 0.772549 0.756863 0.741176 3
0.00663138 -0.00345794 -0.178329 0.772549 0.756863 0.741176 3
0.00738131 0.0013201 -0.123172 0.772549 0.756863 0.741176 3
0.00547395 -0.00509229 -0.159241 0.772549 0.756863 0.741176 3
-0.00699161 0.00268542 -0.121572 0.772549 0.756863 0.741176 3
-0.00826249 -0.0291478 -0.00563216 0.776471 0.756863 0.737255 0
-0.0101719 -0.000103118 -0.0142131 0.898039 0.898039 0.898039 3
-0.00580323 0.00149739 -0.0353333 0.898039 0.898039 0.898039 3
-0.0053606 -0.0026724 -0.0616182 0.898039 0.898039 0.898039 3
-0.00435625 -0.0268833 -0.00899134 0.776471 0.756863 0.737255 0
0.00525178 0.00289165 -0.0818895 0.898039 0.898039 0.898039 3
-0.00320654 -0.00674861 -0.145558 0.772549 0.756863 0.741176 3
0.0126515 -0.000616665 0.012065 0.898039 0.898039 0.898039 3
-0.00558346 0.00218279 -0.0403209 0.898039 0.898039 0.898039 3
-0.00743685 0.000721792 -0.109844 0.772549 0.756863 0.741176 3
0.00947296 -0.0321592 0.00318721 0.776471 0.756863 0.737255 0
0.00576913 -0.00478692 -0.148582 0.772549 0.756863 0.741176 3
0.00720668 0.00197179 -0.118542 0.772549 0.756863 0.741176 3
-0.00151835 -0.0257791 0.00988396 0.776471 0.756863 0.737255 0
-0.00568019 0.00712396 -0.0127398 0.898039 0.898039 0.898039 3
-0.00670524 -0.00329956 -0.110418 0.772549 0.756863 0.741176 3
-0.00571776 -0.00175504 -0.0903399 0.898039 0.898039 0.898039 3
0.00547395 0.00509229 -0.181525 0.772549 0.756863 0.741176 3
-0.0124488 0.000472233 0.012278 0.898039 0.898039 0.898039 3
-0.00300377 -0.00519358 -0.0467471 0.898039 0.898039 0.898039 3
0.00591538 0.0075 0.00729376 0.776471 0.756863 0.737255 4
-0.0160263 -0.00684519 0.0031596 0.898039 0.898039 0.898039 3
-0.00419921 -0.00426946 -0.0356723 0.898039 0.898039 0.898039 3
-0.0136865 -0.00565354 0.0106775 0.898039 0.898039 0.898039 3
-0.00995065 -0.0291765 0.000917651 0.776471 0.756863 0.737255 0
0.00426866 -0.00418475 -0.0962064 0.898039 0.898039 0.898039 3
0.00129115 -0.0287407 0.00689742 0.776471 0.756863 0.737255 0
-0.00579783 0.00149739 -0.0597103 0.898039 0.898039 0.898039 3
0.00289165 0.00525415 -0.0596692 0.898039 0.898039 0.898039 3
-0.00944867 -0.023926 -0.00326515 0.776471 0.756863 0.737255 0
-0.00213875 -0.00611331 -0.101111 0.898039 0.898039 0.898039 3
0.00568019 -0.00192578 -0.0654975 0.898039 0.898039 0.898039 3
0.000278012 -0.0208109 -0.00999114 0.776471 0.756863 0.737255 0
0.00846872 -0.0251999 0.00531716 0.776471 0.756863 0.737255 0
0.0142722 0.0075 4.79195e-06 0.898039 0.898039 0.898039 3
0.000594971 -0.00596503 -0.0415519 0.898039 0.898039 0.898039 3
0.000211914 0.00598146 -0.0590359 0.898039 0.898039 0.898039 3
0.00747303 0.000308281 -0.105302 0.772549 0.756863 0.741176 3
-0.00477876 -0.00501361 0.0168219 0.898039 0.898039 0.898039 3
-0.00505109 -0.00322179 -0.0523708 0.898039 0.898039 0.898039 3
-0.00993567 -0.0219123 0.00112389 0.776471 0.756863 0.737255 0
-0.0025439 0.00705339 -0.129146 0.772549 0.756863 0.741176 3
-0.00149739 -0.00578681 -0.0869212 0.898039 0.898039 0.898039 3
-0.00116357 -0.0370493 -0.00975353 0.776471 0.756863 0.737255 0
0.00110417 0.00589219 -0.058432 0.898039 0.898039 0.898039 3
-0.00822493 -0.0280488 0.00568505 0.776471 0.756863 0.737255 0
-0.00404359 0.00784134 -0.00166465 0.776471 0.756863 0.737255 4
0.000248655 -0.0208384 -0.00999268 0.776471 0.756863 0.737255 0
0.00442059 -0.0283521 0.00896615 0.776471 0.756863 0.737255 0
-0.00423721 -0.00615404 -0.175633 0.772549 0.756863 0.741176 3
-0.00295769 -0.0208496 0.00954446 0.776471 0.756863 0.737255 0
-0.00470713 -0.00369838 -0.0764137 0.898039 0.898039 0.898039 3
0.00690127 0.0075 -0.0132078 0.898039 0.898039 0.898039 3
-0.00533922 -0.00322179 -0.0188503 0.898039 0.898039 0.898039 3
-0.00562859 -0.0309112 -0.00826351 0.776471 0.756863 0.737255 0
-0.00426135 -0.0075 0.0150742 0.898039 0.898039 0.898039 3
0.00887307 0.0075 0.000734898 0.776471 0.756863 0.737255 4
-0.0104944 0.0075 0.0105804 0.898039 0.898039 0.898039 3
0.0132266 0.0075 -0.00125 0.647059 0.517647 0 2
0.000695412 -0.00594812 -0.0688996 0.898039 0.898039 0.898039 3
-0.00406191 0.00439256 -0.0875902 0.898039 0.898039 0.898039 3
-0.00295003 0.00686822 -0.178737 0.772549 0.756863 0.741176 3
0.00731121 -0.0312012 -0.0068175 0.776471 0.756863 0.737255 0
0.0132266 0.0075 -0.00647923 0.898039 0.898039 0.898039 3
-0.00738276 -0.000264104 -0.0161843 0.898039 0.898039 0.898039 3
0.0174553 0.00060199 0.0010069 0.898039 0.898039 0.898039 3
-0.0158134 0.00412845 -0.00744796 0.898039 0.898039 0.898039 3
0.0120817 0.00130417 -0.0126442 0.898039 0.898039 0.898039 3
0.00407969 -0.00289165 -0.1855 0.898039 0.898039 0.898039 3
-0.0156285 -0.00701948 -0.00423095 0.898039 0.898039 0.898039 3
-0.00866293 -0.0126138 0.00498645 0.776471 0.756863 0.737255 0
-0.0143477 0.000439089 0.00999273 0.898039 0.898039 0.898039 3
0.00060656 -0.00744693 -0.151604 0.772549 0.756863 0.741176 3
0.00179099 0.00571818 -0.0594968 0.898039 0.898039 0.898039 3
-0.00699954 -0.0085 -0.0103052 0.647059 0.517647 0 2
-0.000575962 0.0075 -0.0170243 0.898039 0.898039 0.898039 3
-0.000387252 0.0059668 -0.0688155 0.898039 0.898039 0.898039 3
0.0115894 0.0075 0.00649472 0.647059 0.517647 0 2
-0.00149739 0.00879217 -0.00863599 0.776471 0.756863 0.737255 4
-0.0143785 0.00654806 -0.00831583 0.898039 0.898039 0.898039 3
-0.00999836 -0.00551381 -0.0143243 0.898039 0.898039 0.898039 3
0.00289165 -0.00689544 -0.145067 0.772549 0.756863 0.741176 3
-0.00283326 -0.00692267 -0.152246 0.772549 0.756863 0.741176 3
-0.00730449 0.0016068 -0.110076 0.772549 0.756863 0.741176 3
0.00971313 -0.00197179 -0.0145449 0.898039 0.898039 0.898039 3
-0.00268542 0.00534353 -0.09672 0.898039 0.898039 0.898039 3
0.00428592 0.00611993 -0.109327 0.772549 0.756863 0.741176 3
0.00400634 0.00444665 -0.0958231 0.898039 0.898039 0.898039 3
0.00217781 -0.00558831 -0.0529934 0.898039 0.898039 0.898039 3
-0.00163459 -0.0057643 -0.0472818 0.898039 0.898039 0.898039 3
0.00407969 -0.00438638 -0.0298738 0.898039 0.898039 0.898039 3
-0.00504967 -0.00322371 -0.0532526 0.898039 0.898039 0.898039 3
-0.0057499 0.00170769 -0.0296952 0.898039 0.898039 0.898039 3
0.00583061 0.00136406 -0.0717381 0.898039 0.898039 0.898039 3
-0.00573995 0.00170769 -0.0651874 0.898039 0.898039 0.898039 3
-0.00524851 -0.00289165 -0.0931953 0.898039 0.898039 0.898039 3
-0.00777955 0.000103118 -0.0158136 0.898039 0.898039 0.898039 3
0.00545661 0.00199449 0.0166133 0.898039 0.898039 0.898039 3
-0.0114425 0.00466538 -0.0132266 0.898039 0.898039 0.898039 3
-0.00568019 -0.0095 -0.0102365 0.776471 0.756863 0.737255 4
-0.00597575 0.000475612 -0.0373758 0.898039 0.898039 0.898039 3
-0.00599607 0.000103118 -0.0552753 0.898039 0.898039 0.898039 3
-0.00149739 0.0057879 -0.086715 0.898039 0.898039 0.898039 3
-0.00407969 0.00437977 -0.0487128 0.898039 0.898039 0.898039 3
-0.0159044 0.00663717 0.00451955 0.898039 0.898039 0.898039 3
0.00462079 -0.00382547 -0.0687179 0.898039 0.898039 0.898039 3
-0.00139406 -0.0075 0.015678 0.898039 0.898039 0.898039 3
0.000409934 0.00746414 -0.127745 0.772549 0.756863 0.741176 3
0.0104525 -0.00129115 0.0140138 0.898039 0.898039 0.898039 3
-0.00846313 0.0075 -0.00519358 0.776471 0.756863 0.737255 4
0.0082393 -0.0319586 0.00565127 0.776471 0.756863 0.737255 0
-0.00589006 -0.00113173 -0.0540634 0.898039 0.898039 0.898039 3
0.00268542 0.00535416 -0.0530595 0.898039 0.898039 0.898039 3
0.00246528 -0.00707446 -0.128347 0.772549 0.756863 0.741176 3
-0.00699161 0.00268542 -0.13286 0.772549 0.756863 0.741176 3
0.00830055 -0.0175379 -0.00556127 0.776471 0.756863 0.737255 0
-0.00775433 -0.0142388 0.00548717 0.776471 0.756863 0.737255 0
0.00238173 0.00548448 -0.0504745 0.898039 0.898039 0.898039 3
-0.00418492 0.0075 0.0134661 0.898039 0.898039 0.898039 3
0.00560281 0.00213853 -0.0646129 0.898039 0.898039 0.898039 3
0.00577421 0.00423058 -0.103446 0.898039 0.898039 0.898039 3
0.00420769 -0.00424688 -0.0883545 0.898039 0.898039 0.898039 3
-0.00155012 0.00731967 -0.138303 0.772549 0.756863 0.741176 3
0.00549081 -0.00238173 -0.0791358 0.898039 0.898039 0.898039 3
-0.0117125 0.0075 0.00367948 0.647059 0.517647 0 2
-0.0052102 0.00535604 -0.144086 0.772549 0.756863 0.741176 3
-0.00149739 -0.0073338 -0.156635 0.772549 0.756863 0.741176 3
-0.00781745 -0.0210171 -0.00622803 0.776471 0.756863 0.737255 0
-0.00295789 -0.0245321 -0.0095473 0.776471 0.756863 0.737255 0
-0.00057757 -0.00744947 -0.182517 0.772549 0.756863 0.741176 3
-0.00449551 0.00395765 -0.0977131 0.898039 0.898039 0.898039 3
0.00589476 -0.00110417 -0.0860371 0.898039 0.898039 0.898039 3
-0.000521042 -0.00745441 -0.122096 0.772549 0.756863 0.741176 3
0.00295769 0.009629 0.00844096 0.776471 0.756863 0.737255 4
-0.00243633 0.00547395 -0.0476755 0.898039 0.898039 0.898039 3
-0.00521063 -0.00297258 -0.0220808 0.898039 0.898039 0.898039 3
-0.00745964 -0.00183004 0.0158195 0.898039 0.898039 0.898039 3
-0.00589659 0.00460489 -0.109492 0.772549 0.756863 0.741176 3
-0.00111903 -0.0074021 -0.161508 0.772549 0.756863 0.741176 3
-0.00721247 -0.0019502 -0.111966 0.772549 0.756863 0.741176 3
-0.00594713 0.000748258 -0.0543161 0.898039 0.898039 0.898039 3
-0.0103408 0.00604709 -0.013525 0.898039 0.898039 0.898039 3
-0.00565127 -0.00200316 -0.0766556 0.898039 0.898039 0.898039 3
-0.000315313 -0.00597241 -0.0778892 0.898039 0.898039 0.898039 3
0.00630757 -0.0085 0.0113024 0.647059 0.517647 0 2
-0.00242126 0.00547395 -0.0718164 0.898039 0.898039 0.898039 3
-0.00599391 0.000145831 -0.0497768 0.898039 0.898039 0.898039 3
-0.00568019 -0.00189524 -0.0510442 0.898039 0.898039 0.898039 3
-0.0124137 0.00652693 -0.0110734 0.898039 0.898039 0.898039 3
-0.00599995 8.58892e-06 -0.0257658 0.898039 0.898039 0.898039 3
0.00129115 0.00584759 -0.0338351 0.898039 0.898039 0.898039 3
0.00192746 -0.00567898 -0.0275145 0.898039 0.898039 0.898039 3
0.00606121 -0.00436979 -0.177259 0.772549 0.756863 0.741176 3
0.00322179 -0.0067415 -0.11514 0.772549 0.756863 0.741176 3
-0.00594891 -0.000583897 -0.0927644 0.898039 0.898039 0.898039 3
-0.000377725 -0.00597553 -0.0401285 0.898039 0.898039 0.898039 3
-0.00255892 0.0075 -0.0120721 0.647059 0.517647 0 2
-0.00987551 0.0075 0.00354466 0.776471 0.756863 0.737255 4
0.00589684 0.00109987 -0.0243876 0.898039 0.898039 0.898039 3
0.00476749 -0.0356211 -0.00878353 0.776471 0.756863 0.737255 0
0.00408237 0.00437062 -0.0929178 0.898039 0.898039 0.898039 3
-0.00562211 -0.0208109 -0.00826794 0.776471 0.756863 0.737255 0
-0.00696007 0.00275306 -0.155034 0.772549 0.756863 0.741176 3
0.00661697 0.00348885 -0.139925 0.772549 0.756863 0.741176 3
-0.00626434 -0.00407969 -0.114161 0.772549 0.756863 0.741176 3
0.00291044 0.0075 -0.0122904 0.647059 0.517647 0 2
-0.00430689 0.00416106 -0.0448869 0.898039 0.898039 0.898039 3
-0.00334837 -0.00606121 -0.102616 0.898039 0.898039 0.898039 3
-0.00698781 0.00269358 -0.135186 0.772549 0.756863 0.741176 3
0.00295003 0.00686822 -0.139903 0.772549 0.756863 0.741176 3
-0.00462342 0.00382307 -0.0419612 0.898039 0.898039 0.898039 3
-0.00206979 -0.00718043 -0.168983 0.772549 0.756863 0.741176 3
0.00165661 -0.00574602 -0.0799499 0.898039 0.898039 0.898039 3
-0.00466134 -0.0194166 -0.00884222 0.776471 0.756863 0.737255 0
0.00965676 0.0075 -0.010392 0.898039 0.898039 0.898039 3
-0.00742165 -0.0361036 -0.000476617 0.776471 0.756863 0.737255 0
0.00314273 -0.00677836 -0.133601 0.772549 0.756863 0.741176 3
0.00174735 -0.00572133 -0.0838003 0.898039 0.898039 0.898039 3
0.00568019 -0.0019481 -0.0198401 0.898039 0.898039 0.898039 3
-0.00547395 -0.031965 -0.00836749 0.776471 0.756863 0.737255 0
0.00897378 -0.00685616 0.0136723 0.898039 0.898039 0.898039 3
-0.00507531 -0.00549093 -0.115638 0.772549 0.756863 0.741176 3
-0.00826249 -0.0212607 -0.00563216 0.776471 0.756863 0.737255 0
-0.00565127 -0.0215 -0.000118273 0.776471 0.756863 0.737255 0
-0.00578679 -0.00149739 -0.0650519 0.898039 0.898039 0.898039 3
0.00707446 -0.0335655 0.00706511 0.776471 0.756863 0.737255 0
0.00110417 0.00589216 -0.0939242 0.898039 0.898039 0.898039 3
0.00686822 0.00295003 -0.12339 0.772549 0.756863 0.741176 3
0.00519358 -0.00537266 -0.157924 0.772549 0.756863 0.741176 3
-0.00797418 -0.019982 -0.00603365 0.776471 0.756863 0.737255 0
-0.00259566 0.00703347 -0.17531 0.772549 0.756863 0.741176 3
-0.00638117 -0.000319965 -0.100864 0.898039 0.898039 0.898039 3
0.00695424 -0.00276557 -0.149445 0.772549 0.756863 0.741176 3
0.0055745 0.00499174 -0.111851 0.772549 0.756863 0.741176 3
-0.00985245 -0.0210171 -0.00166465 0.776471 0.756863 0.737255 0
0.000409934 0.00746414 -0.122168 0.772549 0.756863 0.741176 3
0.0041027 -0.00435352 -0.077164 0.898039 0.898039 0.898039 3
-0.00289165 -0.0314255 -0.00671258 0.776471 0.756863 0.737255 0
-0.00894771 -0.0182286 -0.00445318 0.776471 0.756863 0.737255 0
-0.0057957 0.00149739 -0.0673064 0.898039 0.898039 0.898039 3
-0.0124453 0.0075 -0.00418492 0.647059 0.517647 0 2
-0.00748556 -0.000165094 -0.154309 0.772549 0.756863 0.741176 3
0.00129115 0.00909406 0.00235431 0.776471 0.756863 0.737255 4
-0.00623674 0.00411911 -0.110418 0.772549 0.756863 0.741176 3
-0.00747367 0.000300935 -0.112653 0.772549 0.756863 0.741176 3
0.00686822 0.00295003 -0.125584 0.772549 0.756863 0.741176 3
8.18257e-05 0.0060253 -0.022182 0.898039 0.898039 0.898039 3
0.0018624 -0.0305708 0.00982253 0.776471 0.756863 0.737255 0
0.00295769 0.00686465 -0.144904 0.772549 0.756863 0.741176 3
-0.00996444 -0.0305708 -0.000779516 0.776471 0.756863 0.737255 0
0.00129115 0.00584209 -0.0630124 0.898039 0.898039 0.898039 3
0.00538924 0.00630239 -0.0165437 0.898039 0.898039 0.898039 3
0.00373781 0.00481121 -0.0998396 0.898039 0.898039 0.898039 3
-0.00684606 0.00299755 -0.157471 0.772549 0.756863 0.741176 3
-0.00052048 0.00576955 0.0172517 0.898039 0.898039 0.898039 3
0.00160004 -0.0073063 -0.115327 0.772549 0.756863 0.741176 3
0.000225727 -0.00599527 -0.02955 0.898039 0.898039 0.898039 3
0.00289165 -0.0153374 -0.00956782 0.776471 0.756863 0.737255 0
0.000985896 0.0051159 0.0174581 0.898039 0.898039 0.898039 3
-0.0090189 -0.028591 -0.00430045 0.776471 0.756863 0.737255 0
-0.00194178 -0.00826249 0.0136267 0.647059 0.517647 0 2
0.00591777 0.000939054 -0.0321503 0.898039 0.898039 0.898039 3
-0.00436699 0.00409893 -0.0540678 0.898039 0.898039 0.898039 3
0.0147884 0.0075 0.00311096 0.898039 0.898039 0.898039 3
-0.00149739 -0.00578683 -0.0599563 0.898039 0.898039 0.898039 3
-0.0105808 -0.0094577 -0.00604651 0.776471 0.756863 0.737255 4
0.00171929 -0.00727434 -0.131065 0.772549 0.756863 0.741176 3
-0.00699762 -0.0363541 0.00714345 0.776471 0.756863 0.737255 0
0.011109 -0.00626759 0.0126592 0.898039 0.898039 0.898039 3
0.00420769 -0.00424793 -0.0812534 0.898039 0.898039 0.898039 3
-0.00268542 -0.00699161 -0.113614 0.772549 0.756863 0.741176 3
-0.00699161 -0.00268542 -0.106441 0.772549 0.756863 0.741176 3
-0.00295769 0.00521888 -0.0796252 0.898039 0.898039 0.898039 3
0.00733326 -0.0374519 -0.00570019 0.776471 0.756863 0.737255 0
0.00394358 0.00450941 -0.0343238 0.898039 0.898039 0.898039 3
0.00686822 -0.0290952 -0.00725968 0.776471 0.756863 0.737255 0
0.0163641 0.00675215 0.00149432 0.898039 0.898039 0.898039 3
-0.00626434 -0.00407969 -0.139903 0.772549 0.756863 0.741176 3
0.00716538 -0.00212596 -0.109553 0.772549 0.756863 0.741176 3
-0.0164074 -0.00547395 -0.00605369 0.898039 0.898039 0.898039 3
-0.00547395 -0.0369401 0.00530669 0.776471 0.756863 0.737255 0
-0.00956153 -0.0306667 -0.00291582 0.776471 0.756863 0.737255 0
-0.0070471 -0.0133371 -0.00636577 0.776471 0.756863 0.737255 0
-0.0073338 -0.00149739 -0.136461 0.772549 0.756863 0.741176 3
0.00567404 0.0075 -0.00744796 0.776471 0.756863 0.737255 4
-0.00449324 -0.0187636 0.00892693 0.776471 0.756863 0.737255 0
-0.0057971 0.00146145 -0.0966451 0.898039 0.898039 0.898039 3
0.00997073 -0.0349163 0.000721792 0.776471 0.756863 0.737255 0
-0.000430951 0.00928218 0.00788899 0.776471 0.756863 0.737255 4
-0.00554483 0.0075 0.0138073 0.898039 0.898039 0.898039 3
-0.00965676 -0.0095 -0.00570225 0.776471 0.756863 0.737255 4
0.0109315 -0.0095 0.00169803 0.776471 0.756863 0.737255 4
-0.00428592 0.00557848 -0.103016 0.898039 0.898039 0.898039 3
0.0159498 -0.00651102 -0.00468506 0.898039 0.898039 0.898039 3
-0.00868222 -0.0095 -0.00300479 0.776471 0.756863 0.737255 4
0.00406186 0.0075 -0.00508496 0.776471 0.756863 0.737255 4
0.00430282 0.00868695 0.00838514 0.776471 0.756863 0.737255 4
-0.00407969 0.00438662 -0.028362 0.898039 0.898039 0.898039 3
0.00720668 0.00197179 -0.115753 0.772549 0.756863 0.741176 3
0.00670957 -0.00329026 -0.169162 0.772549 0.756863 0.741176 3
-0.00826249 0.0075 0.00957209 0.647059 0.517647 0 2
-0.000264477 -0.00747686 -0.131332 0.772549 0.756863 0.741176 3
0.00717312 -0.0335205 -0.00696688 0.776471 0.756863 0.737255 0
-0.016952 -0.000724179 -0.00427064 0.898039 0.898039 0.898039 3
0.0059169 -0.000985896 -0.0572986 0.898039 0.898039 0.898039 3
-0.00524879 -0.00289165 -0.092292 0.898039 0.898039 0.898039 3
-0.00692267 0.00283326 -0.128543 0.772549 0.756863 0.741176 3
0.00307596 0.00514302 -0.0564602 0.898039 0.898039 0.898039 3
0.00595478 -0.00149739 -0.0186021 0.898039 0.898039 0.898039 3
0.00428592 -0.00419124 -0.024055 0.898039 0.898039 0.898039 3
0.00505906 -0.0355326 0.00862026 0.776471 0.756863 0.737255 0
-0.00269358 -0.00669682 -0.103618 0.898039 0.898039 0.898039 3
-0.00736968 -0.0013635 -0.123533 0.772549 0.756863 0.741176 3
0.00268542 -0.0095 0.00882596 0.776471 0.756863 0.737255 4
0.00692267 -0.00283326 -0.182919 0.772549 0.756863 0.741176 3
0.0019237 0.00568019 -0.0309443 0.898039 0.898039 0.898039 3
0.00268542 0.0080916 -0.00863599 0.776471 0.756863 0.737255 4
-0.00407969 -0.00407969 -0.1855 0.898039 0.898039 0.898039 3
-0.004385 0.00407969 -0.0580058 0.898039 0.898039 0.898039 3
0.00131628 -0.0075 0.0143978 0.898039 0.898039 0.898039 3
0.00394358 0.00450941 -0.0458905 0.898039 0.898039 0.898039 3
0.009283 -0.000883775 -0.0148267 0.898039 0.898039 0.898039 3
-0.00572811 0.00176813 -0.0496443 0.898039 0.898039 0.898039 3
0.00323138 -0.00504775 -0.0505448 0.898039 0.898039 0.898039 3
-0.0013201 -0.00738131 -0.150851 0.772549 0.756863 0.741176 3
-0.00568019 -0.0095 0.00928326 0.776471 0.756863 0.737255 4
-0.00283942 0.00527856 -0.0623756 0.898039 0.898039 0.898039 3
-0.00325197 -0.00672743 -0.145895 0.772549 0.756863 0.741176 3
-0.00531002 0.00275763 -0.0963948 0.898039 0.898039 0.898039 3
-0.00441396 0.00403974 -0.093527 0.898039 0.898039 0.898039 3
0.0115441 0.00438585 0.0131335 0.898039 0.898039 0.898039 3
-0.00583568 -0.00131496 -0.0949371 0.898039 0.898039 0.898039 3
-0.00551835 -0.00233664 -0.043397 0.898039 0.898039 0.898039 3
-0.00488605 0.00568019 -0.13767 0.772549 0.756863 0.741176 3
0.00967449 -0.018732 -0.00249692 0.776471 0.756863 0.737255 0
-0.00428592 -0.00611993 -0.134326 0.772549 0.756863 0.741176 3
-0.00861751 -0.0315044 -0.0050563 0.776471 0.756863 0.737255 0
0.00385264 -0.0271103 -0.00921831 0.776471 0.756863 0.737255 0
0.0110675 0.0075 -0.00903277 0.898039 0.898039 0.898039 3
0.00312071 -0.00678863 -0.105782 0.772549 0.756863 0.741176 3
-0.00412531 0.00750562 0.00337948 0.776471 0.756863 0.737255 4
0.00738131 -0.0013201 -0.135514 0.772549 0.756863 0.741176 3
0.000543129 -0.00719821 -0.103652 0.898039 0.898039 0.898039 3
-0.00254775 0.00540796 -0.095896 0.898039 0.898039 0.898039 3
-0.00775819 -0.00761236 -0.0116308 0.647059 0.517647 0 2
-0.00149739 -0.00578681 -0.0845127 0.898039 0.898039 0.898039 3
-0.00709344 0.00239442 -0.132915 0.772549 0.756863 0.741176 3
0.0050608 0.00550544 -0.136318 0.772549 0.756863 0.741176 3
0.00109868 -0.00740388 -0.156637 0.772549 0.756863 0.741176 3
-0.00569748 0.00187027 -0.06129 0.898039 0.898039 0.898039 3
-0.0130653 -0.0075 0.00824202 0.898039 0.898039 0.898039 3
0.00701955 0.0075 -0.00926777 0.647059 0.517647 0 2
-0.00507615 -0.00549009 -0.180948 0.772549 0.756863 0.741176 3
-0.00606148 0.0043694 -0.133802 0.772549 0.756863 0.741176 3
-0.00581785 -0.000173792 0.0165022 0.898039 0.898039 0.898039 3
-0.00547395 0.00240631 -0.0960375 0.898039 0.898039 0.898039 3
-0.00289165 0.00689544 -0.117473 0.772549 0.756863 0.741176 3
-0.00599716 -0.000103118 -0.0267615 0.898039 0.898039 0.898039 3
0.00224912 -0.00713238 -0.135219 0.772549 0.756863 0.741176 3
-6.70755e-05 -0.00599413 -0.0980754 0.898039 0.898039 0.898039 3
0.00778135 0.0065862 0.0146192 0.898039 0.898039 0.898039 3
0.0117454 0.00492664 -0.0129653 0.898039 0.898039 0.898039 3
-0.00283326 0.00692267 -0.137115 0.772549 0.756863 0.741176 3
-0.0129033 0.0075 -0.00737026 0.898039 0.898039 0.898039 3
0.0019218 0.00568019 -0.0412118 0.898039 0.898039 0.898039 3
-0.00283942 0.0052754 -0.0840653 0.898039 0.898039 0.898039 3
-0.00817292 0.0075 -0.00263992 0.776471 0.756863 0.737255 4
-0.00742448 0.00289677 -0.0159857 0.898039 0.898039 0.898039 3
0.00454689 -0.0375 0.00711656 0.776471 0.756863 0.737255 0
0.00181243 0.0097069 -0.0076845 0.776471 0.756863 0.737255 4
-0.00686822 -0.0293827 0.00726657 0.776471 0.756863 0.737255 0
0.00524323 -0.0321713 0.00851278 0.776471 0.756863 0.737255 0
-0.00576955 -0.00156176 -0.0796408 0.898039 0.898039 0.898039 3
-0.00534344 0.00268956 -0.091104 0.898039 0.898039 0.898039 3
-0.00451256 -0.00395136 -0.0482744 0.898039 0.898039 0.898039 3
-0.00458167 0.00591285 -0.170886 0.772549 0.756863 0.741176 3
0.00238173 0.00548446 -0.0929383 0.898039 0.898039 0.898039 3
-0.00826249 0.00146423 0.0154126 0.898039 0.898039 0.898039 3
0.00689244 -0.0144716 0.00653451 0.776471 0.756863 0.737255 0
-0.00593975 -0.000740287 -0.0380585 0.898039 0.898039 0.898039 3
0.00332537 0.00503263 -0.0995902 0.898039 0.898039 0.898039 3
0.0140458 -0.00613339 0.00948949 0.898039 0.898039 0.898039 3
-0.0129625 -0.0047718 -0.0117431 0.898039 0.898039 0.898039 3
0.0155616 0.00381093 0.00799373 0.898039 0.898039 0.898039 3
-0.0053499 0.00269336 -0.0651777 0.898039 0.898039 0.898039 3
0.011453 -0.0085 -0.00470225 0.647059 0.517647 0 2
-0.00394358 0.00451229 -0.0765615 0.898039 0.898039 0.898039 3
-0.00268542 0.00535746 -0.028362 0.898039 0.898039 0.898039 3
-0.0067415 -0.00322179 -0.105901 0.772549 0.756863 0.741176 3
0.00253012 0.00541528 -0.0641382 0.898039 0.898039 0.898039 3
0.00223938 -0.0124453 0.00974418 0.776471 0.756863 0.737255 0
0.000278012 -0.0277822 -0.00999114 0.776471 0.756863 0.737255 0
-0.00864063 -0.0126515 -0.00501609 0.776471 0.756863 0.737255 0
0.00138739 -0.00736328 -0.170541 0.772549 0.756863 0.741176 3
0.00568019 -0.00363839 -0.102052 0.898039 0.898039 0.898039 3
0.00611993 -0.00428592 -0.180337 0.772549 0.756863 0.741176 3
-0.0164451 0.00520719 0.00594952 0.898039 0.898039 0.898039 3
