ply
format ascii 1.0
comment Created by Open3D
element vertex 797
property float32 x
property float32 y
property float32 z
property float32 red
property float32 green
property float32 blue
property uint8 segmentation
end_header
-0.0622887 -0.094735 0.351335 0.00784314 0.239216 0.823529 13
-0.0733158 -0.104684 0.174355 0.898039 0.898039 0.898039 1
-0.0655164 -0.105627 0.293187 0.898039 0.898039 0.898039 0
-0.0962219 -0.103686 0.42553 0.898039 0.898039 0.898039 0
-0.0856462 -0.108627 0.347586 0.00784314 0.239216 0.823529 13
-0.0700166 -0.105627 0.265069 0.898039 0.898039 0.898039 0
-0.0699786 -0.108627 0.347586 0.898039 0.898039 0.898039 1
-0.0662675 -0.0947731 0.31764 0.00784314 0.239216 0.823529 13
-0.068104 -0.102627 0.426278 0.898039 0.917647 0.929412 10
-0.0691859 -0.102627 0.223552 0.898039 0.917647 0.929412 10
-0.063747 -0.0946267 0.338214 0.00784314 0.239216 0.823529 12
-0.0737656 -0.0956267 0.368206 0.00784314 0.239216 0.823529 13
-0.0578721 -0.0993557 0.341963 0.00784314 0.239216 0.823529 13
-0.0595009 -0.0983873 0.376623 0.00784314 0.239216 0.823529 13
-0.0727558 -0.0983335 0.37666 0.00784314 0.239216 0.823529 13
-0.0579125 -0.102627 0.383202 0.898039 0.898039 0.898039 1
-0.0803721 -0.10356 0.254727 0.898039 0.898039 0.898039 0
-0.074747 -0.105627 0.317556 0.898039 0.898039 0.898039 0
-0.0531901 -0.102627 0.424442 0.898039 0.898039 0.898039 0
-0.064355 -0.108627 0.340088 0.898039 0.898039 0.898039 1
-0.0658654 -0.102627 0.231366 0.898039 0.898039 0.898039 0
-0.100591 -0.105015 0.429509 0.898039 0.898039 0.898039 0
-0.0887238 -0.107857 0.399684 0.898039 0.898039 0.898039 1
-0.0699786 -0.0956267 0.353172 0.00784314 0.239216 0.823529 13
-0.0568949 -0.0984841 0.339086 0.117647 0.305882 0.780392 12
-0.0575635 -0.105627 0.433776 0.898039 0.898039 0.898039 0
-0.0718531 -0.102127 0.204216 0.898039 0.917647 0.929412 9
-0.0924629 -0.103449 0.34919 0.776471 0.756863 0.737255 5
-0.0363018 -0.105627 0.426316 0.898039 0.898039 0.898039 0
-0.0619082 -0.0947731 0.371917 0.00784314 0.239216 0.823529 13
-0.0942447 -0.103916 0.428191 0.898039 0.898039 0.898039 0
-0.0306135 -0.105627 0.422567 0.898039 0.898039 0.898039 0
-0.0775147 -0.102627 0.377579 0.898039 0.917647 0.929412 10
-0.0662675 -0.0956267 0.366332 0.00784314 0.239216 0.823529 13
-0.0924729 -0.106015 0.349461 0.776471 0.756863 0.737255 5
-0.086818 -0.094735 0.354375 0.00784314 0.239216 0.823529 13
-0.0495567 -0.105627 0.428191 0.898039 0.898039 0.898039 0
-0.0700166 -0.102437 0.206557 0.898039 0.917647 0.929412 9
-0.0707646 -0.105627 0.266982 0.898039 0.898039 0.898039 1
-0.0718911 -0.105627 0.268818 0.898039 0.898039 0.898039 1
-0.0702145 -0.0956267 0.349461 0.00784314 0.239216 0.823529 13
-0.0737656 -0.102627 0.216369 0.898039 0.917647 0.929412 10
-0.0925109 -0.107467 0.400151 0.898039 0.898039 0.898039 1
-0.0587314 -0.0950908 0.368168 0.00784314 0.239216 0.823529 13
-0.0793892 -0.0946267 0.325092 0.00784314 0.239216 0.823529 13
-0.0681421 -0.102627 0.395364 0.898039 0.917647 0.929412 10
-0.077398 -0.105627 0.216331 0.898039 0.898039 0.898039 0
-0.0756402 -0.102627 0.231366 0.898039 0.917647 0.929412 10
-0.0803721 -0.104146 0.215016 0.898039 0.898039 0.898039 0
-0.0883721 -0.100397 0.374028 0.00784314 0.239216 0.823529 13
-0.068104 -0.105627 0.203248 0.898039 0.898039 0.898039 0
-0.0549823 -0.102627 0.384707 0.898039 0.898039 0.898039 1
-0.064393 -0.0951267 0.356959 0.00784314 0.239216 0.823529 13
-0.0797 -0.102627 0.270731 0.898039 0.898039 0.898039 0
-0.032526 -0.102634 0.384713 0.898039 0.898039 0.898039 1
-0.0699786 -0.108627 0.338214 0.898039 0.898039 0.898039 1
-0.0753509 -0.0956267 0.355084 0.00784314 0.239216 0.823529 13
-0.0531078 -0.102627 0.386913 0.898039 0.898039 0.898039 1
-0.0606059 -0.108627 0.386951 0.898039 0.898039 0.898039 1
-0.0711136 -0.102627 0.304434 0.898039 0.917647 0.929412 10
-0.0737276 -0.103627 0.190088 0.898039 0.898039 0.898039 1
-0.0697403 -0.108627 0.336339 0.898039 0.898039 0.898039 1
-0.0718531 -0.0946267 0.336996 0.00784314 0.239216 0.823529 12
-0.0883721 -0.107895 0.325092 0.00784314 0.239216 0.823529 13
-0.0924729 -0.10271 0.350327 0.776471 0.756863 0.737255 5
-0.0738184 -0.102627 0.422567 0.898039 0.917647 0.929412 10
-0.0725934 -0.103627 0.178804 0.898039 0.898039 0.898039 1
-0.0690423 -0.102627 0.424404 0.898039 0.917647 0.929412 10
-0.0812638 -0.0966096 0.37666 0.00784314 0.239216 0.823529 13
-0.098875 -0.104907 0.427732 0.898039 0.898039 0.898039 0
-0.0556937 -0.0968926 0.338176 0.0666667 0.27451 0.8 12
-0.0704172 -0.102627 0.243528 0.898039 0.917647 0.929412 10
-0.068104 -0.0956267 0.35915 0.00784314 0.239216 0.823529 13
-0.0883721 -0.101544 0.36799 0.00784314 0.239216 0.823529 13
-0.0774767 -0.0956267 0.345949 0.00784314 0.239216 0.823529 13
-0.0873721 -0.107576 0.341925 0.00784314 0.239216 0.823529 13
-0.0803721 -0.104108 0.281291 0.898039 0.898039 0.898039 0
-0.0793892 -0.102627 0.304472 0.898039 0.898039 0.898039 0
-0.0818262 -0.0946267 0.366657 0.00784314 0.239216 0.823529 13
-0.0708184 -0.105627 0.251947 0.898039 0.898039 0.898039 1
-0.0831383 -0.105627 0.403612 0.898039 0.898039 0.898039 1
-0.0716596 -0.102627 0.26344 0.898039 0.917647 0.929412 10
-0.0764694 -0.102627 0.415069 0.898039 0.917647 0.929412 10
-0.0681421 -0.105627 0.325054 0.898039 0.898039 0.898039 0
-0.0761203 -0.105627 0.313807 0.898039 0.898039 0.898039 0
-0.077398 -0.105627 0.268818 0.898039 0.898039 0.898039 0
-0.0512333 -0.102627 0.379458 0.898039 0.898039 0.898039 1
-0.0790666 -0.102627 0.270693 0.898039 0.898039 0.898039 0
-0.0579058 -0.0946267 0.321305 0.00784314 0.239216 0.823529 12
-0.0570998 -0.094735 0.317764 0.00784314 0.239216 0.823529 13
-0.0643721 -0.10412 0.403784 0.898039 0.898039 0.898039 0
-0.0873721 -0.108066 0.345934 0.00784314 0.239216 0.823529 13
-0.0306135 -0.102713 0.387498 0.898039 0.898039 0.898039 1
-0.0773442 -0.105627 0.246362 0.898039 0.898039 0.898039 0
-0.0803721 -0.104565 0.228234 0.898039 0.898039 0.898039 0
-0.0871609 -0.0946267 0.321546 0.00784314 0.239216 0.823529 13
-0.0873721 -0.0996949 0.343799 0.00784314 0.239216 0.823529 13
-0.0681421 -0.102627 0.392713 0.898039 0.917647 0.929412 10
-0.0662295 -0.102627 0.403263 0.898039 0.917647 0.929412 10
-0.077049 -0.102627 0.300723 0.898039 0.917647 0.929412 10
-0.0823509 -0.102627 0.43194 0.898039 0.898039 0.898039 0
-0.0796462 -0.102627 0.242575 0.898039 0.898039 0.898039 0
-0.0716932 -0.102627 0.409408 0.898039 0.917647 0.929412 10
-0.0658654 -0.102627 0.396324 0.898039 0.898039 0.898039 0
-0.0662295 -0.105982 0.33536 0.898039 0.898039 0.898039 1
-0.0531511 -0.0985221 0.328803 0.219608 0.364706 0.745098 12
-0.069773 -0.102627 0.220314 0.898039 0.917647 0.929412 10
-0.064393 -0.105627 0.321305 0.898039 0.898039 0.898039 0
-0.0853721 -0.104146 0.379679 0.898039 0.898039 0.898039 1
-0.0718531 -0.102627 0.377541 0.898039 0.917647 0.929412 10
-0.0598116 -0.108627 0.35321 0.898039 0.898039 0.898039 1
-0.0734582 -0.103627 0.195421 0.898039 0.898039 0.898039 1
-0.0882235 -0.0984841 0.338176 0.00784314 0.239216 0.823529 13
-0.0883721 -0.1034 0.334465 0.00784314 0.239216 0.823529 13
-0.0656576 -0.100397 0.31716 0.00784314 0.239216 0.823529 13
-0.0803721 -0.103972 0.270693 0.898039 0.898039 0.898039 0
-0.0737656 -0.105627 0.190088 0.898039 0.898039 0.898039 1
-0.0718911 -0.105627 0.278191 0.898039 0.898039 0.898039 1
-0.068104 -0.0947731 0.376179 0.00784314 0.239216 0.823529 13
-0.0793512 -0.102627 0.415031 0.898039 0.898039 0.898039 0
-0.0810733 -0.108627 0.388788 0.898039 0.898039 0.898039 1
-0.0756402 -0.102627 0.401948 0.898039 0.917647 0.929412 10
-0.0349823 -0.105627 0.426278 0.898039 0.898039 0.898039 0
-0.0718531 -0.102627 0.39266 0.898039 0.917647 0.929412 10
-0.0495567 -0.105627 0.383202 0.898039 0.898039 0.898039 1
-0.0677646 -0.108627 0.360708 0.898039 0.898039 0.898039 1
-0.0730666 -0.108627 0.358833 0.898039 0.898039 0.898039 1
-0.0737276 -0.0946267 0.339593 0.00784314 0.239216 0.823529 13
-0.0803721 -0.104146 0.39788 0.898039 0.898039 0.898039 0
-0.0269025 -0.104146 0.388829 0.898039 0.898039 0.898039 1
-0.0806819 -0.101011 0.31716 0.00784314 0.239216 0.823529 13
-0.0661284 -0.107666 0.39136 0.898039 0.898039 0.898039 1
-0.0873721 -0.099724 0.356413 0.00784314 0.239216 0.823529 13
-0.0651674 -0.108627 0.351297 0.898039 0.898039 0.898039 1
-0.0681674 -0.105627 0.416906 0.898039 0.898039 0.898039 0
-0.0290415 -0.104988 0.38669 0.898039 0.898039 0.898039 1
-0.0531078 -0.100359 0.319546 0.00784314 0.239216 0.823529 13
-0.0793512 -0.102627 0.205084 0.898039 0.898039 0.898039 0
-0.0699786 -0.105627 0.400073 0.898039 0.898039 0.898039 0
-0.0853721 -0.105648 0.383164 0.898039 0.898039 0.898039 1
-0.0750422 -0.108627 0.343837 0.898039 0.898039 0.898039 1
-0.0793892 -0.0951267 0.369254 0.00784314 0.239216 0.823529 13
-0.0681421 -0.102627 0.259484 0.898039 0.917647 0.929412 10
-0.0746932 -0.105627 0.266982 0.898039 0.898039 0.898039 0
-0.0728442 -0.103627 0.198632 0.898039 0.898039 0.898039 1
-0.081832 -0.0946267 0.321584 0.00784314 0.239216 0.823529 13
-0.0658654 -0.102627 0.203248 0.898039 0.898039 0.898039 0
-0.0812638 -0.102627 0.38476 0.898039 0.898039 0.898039 1
-0.0619083 -0.0947731 0.355046 0.00784314 0.239216 0.823529 13
-0.0718911 -0.108627 0.396286 0.898039 0.898039 0.898039 1
-0.0731203 -0.108627 0.371917 0.898039 0.898039 0.898039 1
-0.0381116 -0.105627 0.386951 0.898039 0.898039 0.898039 1
-0.0796462 -0.102627 0.287563 0.898039 0.898039 0.898039 0
-0.0793892 -0.105627 0.274442 0.898039 0.898039 0.898039 0
-0.0646725 -0.102627 0.267776 0.898039 0.898039 0.898039 0
-0.0853721 -0.106925 0.38129 0.898039 0.898039 0.898039 1
-0.0756402 -0.0956267 0.353902 0.00784314 0.239216 0.823529 13
-0.0606439 -0.0948995 0.342517 0.00784314 0.239216 0.823529 13
-0.0663913 -0.102627 0.212582 0.898039 0.917647 0.929412 10
-0.0813721 -0.0936949 0.360708 0.00784314 0.239216 0.823529 3
-0.0552077 -0.102627 0.426278 0.898039 0.898039 0.898039 0
-0.0662295 -0.0956267 0.351197 0.00784314 0.239216 0.823529 13
-0.0810733 -0.108627 0.347548 0.898039 0.898039 0.898039 1
-0.0883721 -0.0971969 0.367468 0.00784314 0.239216 0.823529 13
-0.0883428 -0.107857 0.366051 0.00784314 0.239216 0.823529 13
-0.0784755 -0.102627 0.232765 0.898039 0.917647 0.929412 10
-0.0708184 -0.105627 0.276316 0.898039 0.898039 0.898039 1
-0.0803721 -0.103465 0.273338 0.898039 0.898039 0.898039 0
-0.0734156 -0.105627 0.27448 0.898039 0.898039 0.898039 1
-0.0775147 -0.105627 0.431902 0.898039 0.898039 0.898039 0
-0.0747972 -0.0951267 0.34005 0.00784314 0.239216 0.823529 13
-0.0690423 -0.102627 0.311932 0.898039 0.917647 0.929412 10
-0.0493968 -0.105515 0.422057 0.898039 0.898039 0.898039 0
-0.0850128 -0.102627 0.424471 0.898039 0.898039 0.898039 0
-0.0290146 -0.104961 0.4267 0.898039 0.898039 0.898039 0
-0.0662675 -0.102627 0.405968 0.898039 0.917647 0.929412 10
-0.0873721 -0.10602 0.345814 0.00784314 0.239216 0.823529 13
-0.0775147 -0.105627 0.424404 0.898039 0.898039 0.898039 0
-0.073012 -0.102627 0.264792 0.898039 0.917647 0.929412 10
-0.0766571 -0.102627 0.216027 0.898039 0.917647 0.929412 10
-0.0568949 -0.102627 0.429827 0.898039 0.898039 0.898039 0
-0.0658654 -0.102627 0.3907 0.898039 0.898039 0.898039 0
-0.0737656 -0.102627 0.225742 0.898039 0.917647 0.929412 10
-0.0662675 -0.0956267 0.360708 0.00784314 0.239216 0.823529 13
-0.0803721 -0.104146 0.221993 0.898039 0.898039 0.898039 0
-0.0651674 -0.108627 0.34005 0.898039 0.898039 0.898039 1
-0.0633721 -0.104856 0.308183 0.00784314 0.239216 0.823529 13
-0.0756402 -0.108627 0.371917 0.898039 0.898039 0.898039 1
-0.0631607 -0.102627 0.424404 0.898039 0.898039 0.898039 0
-0.0643721 -0.104066 0.21262 0.898039 0.898039 0.898039 0
-0.0803721 -0.104108 0.307747 0.898039 0.898039 0.898039 0
-0.0593721 -0.107895 0.331398 0.00784314 0.239216 0.823529 13
-0.0818184 -0.0946267 0.364457 0.00784314 0.239216 0.823529 13
-0.0791203 -0.102627 0.409446 0.898039 0.898039 0.898039 0
-0.0573721 -0.104211 0.313807 0.00784314 0.239216 0.823529 13
-0.0602144 -0.105627 0.435651 0.898039 0.898039 0.898039 0
-0.0703721 -0.103903 0.171381 0.898039 0.898039 0.898039 1
-0.0558411 -0.102627 0.43194 0.898039 0.898039 0.898039 0
-0.071747 -0.102627 0.244487 0.898039 0.917647 0.929412 10
-0.0803721 -0.104146 0.238875 0.898039 0.898039 0.898039 0
-0.0720422 -0.105627 0.216369 0.898039 0.898039 0.898039 1
-0.0688214 -0.104828 0.200057 0.898039 0.898039 0.898039 0
-0.0704694 -0.108627 0.377541 0.898039 0.898039 0.898039 1
-0.0651136 -0.108627 0.349461 0.898039 0.898039 0.898039 1
-0.0718531 -0.103627 0.178841 0.898039 0.898039 0.898039 1
-0.074398 -0.102627 0.310096 0.898039 0.917647 0.929412 10
-0.0863753 -0.108627 0.347548 0.00784314 0.239216 0.823529 13
-0.0793512 -0.102627 0.419223 0.898039 0.898039 0.898039 0
-0.064393 -0.102627 0.405914 0.898039 0.898039 0.898039 0
-0.0737276 -0.102627 0.306309 0.898039 0.917647 0.929412 10
-0.0718531 -0.0985221 0.37666 0.00784314 0.239216 0.823529 13
-0.0737656 -0.108627 0.405659 0.898039 0.898039 0.898039 1
-0.0868873 -0.108627 0.31943 0.00784314 0.239216 0.823529 13
-0.0879802 -0.105957 0.369208 0.00784314 0.239216 0.823529 13
-0.0853721 -0.104328 0.330678 0.00784314 0.239216 0.823529 13
-0.0525567 -0.102627 0.426278 0.898039 0.898039 0.898039 0
-0.0711019 -0.103627 0.181817 0.898039 0.898039 0.898039 1
-0.0824019 -0.0928605 0.358737 0.00784314 0.239216 0.823529 3
-0.064393 -0.102233 0.37666 0.00784314 0.239216 0.823529 13
-0.0757713 -0.108627 0.362544 0.898039 0.898039 0.898039 1
-0.087388 -0.100359 0.36067 0.00784314 0.239216 0.823529 13
-0.0662675 -0.102627 0.276354 0.898039 0.917647 0.929412 10
-0.074747 -0.105627 0.304434 0.898039 0.898039 0.898039 0
-0.0662675 -0.108627 0.338176 0.898039 0.898039 0.898039 1
-0.0831575 -0.0946267 0.31971 0.00784314 0.239216 0.823529 13
-0.0693913 -0.105627 0.323217 0.898039 0.898039 0.898039 0
-0.0578721 -0.107895 0.356921 0.00784314 0.239216 0.823529 13
-0.071747 -0.102627 0.430065 0.898039 0.917647 0.929412 10
-0.09626 -0.106238 0.401626 0.898039 0.898039 0.898039 1
-0.087388 -0.0997109 0.36067 0.00784314 0.239216 0.823529 13
-0.074398 -0.102627 0.392575 0.898039 0.917647 0.929412 10
-0.0743442 -0.102627 0.225704 0.898039 0.917647 0.929412 10
-0.07181 -0.102627 0.226176 0.898039 0.917647 0.929412 10
-0.0329642 -0.103662 0.384582 0.898039 0.898039 0.898039 1
-0.0531458 -0.102627 0.3907 0.898039 0.898039 0.898039 1
-0.09626 -0.105627 0.426278 0.898039 0.898039 0.898039 0
-0.0842682 -0.102271 0.31716 0.00784314 0.239216 0.823529 13
-0.0662675 -0.105627 0.295061 0.898039 0.898039 0.898039 0
-0.0775547 -0.102627 0.201928 0.898039 0.917647 0.929412 10
-0.0552548 -0.0946267 0.326928 0.00784314 0.239216 0.823529 12
-0.0803721 -0.104026 0.287601 0.898039 0.898039 0.898039 0
-0.0720422 -0.105627 0.323217 0.898039 0.898039 0.898039 1
-0.0625185 -0.108627 0.375666 0.898039 0.898039 0.898039 1
-0.0690423 -0.102627 0.386913 0.898039 0.917647 0.929412 10
-0.074398 -0.102627 0.238864 0.898039 0.917647 0.929412 10
-0.0756021 -0.102627 0.429773 0.898039 0.917647 0.929412 10
-0.0644383 -0.108627 0.349461 0.898039 0.898039 0.898039 1
-0.072096 -0.105627 0.332552 0.898039 0.898039 0.898039 1
-0.0643721 -0.103259 0.248198 0.898039 0.898039 0.898039 0
-0.0756402 -0.102627 0.397962 0.898039 0.917647 0.929412 10
-0.0831002 -0.0927865 0.358795 0.00784314 0.239216 0.823529 3
-0.0700166 -0.102627 0.405968 0.898039 0.917647 0.929412 10
-0.0587314 -0.0966476 0.3763 0.00784314 0.239216 0.823529 13
-0.0700166 -0.102627 0.38476 0.898039 0.917647 0.929412 10
-0.0718531 -0.105627 0.285727 0.898039 0.898039 0.898039 1
-0.0344006 -0.104108 0.429266 0.898039 0.898039 0.898039 0
-0.0699786 -0.102627 0.415031 0.898039 0.917647 0.929412 10
-0.0711136 -0.102627 0.248198 0.898039 0.917647 0.929412 10
-0.0587694 -0.102627 0.429827 0.898039 0.898039 0.898039 0
-0.0655164 -0.105627 0.242575 0.898039 0.898039 0.898039 0
-0.0455862 -0.105627 0.390662 0.898039 0.898039 0.898039 1
-0.0763062 -0.102627 0.245592 0.898039 0.917647 0.929412 10
-0.0943854 -0.103318 0.425162 0.898039 0.898039 0.898039 0
-0.0775147 -0.105627 0.236951 0.898039 0.898039 0.898039 0
-0.0767054 -0.0970349 0.31716 0.00784314 0.239216 0.823529 13
-0.0718911 -0.108627 0.377541 0.898039 0.898039 0.898039 1
-0.0587314 -0.102627 0.435075 0.898039 0.898039 0.898039 0
-0.0615097 -0.101627 0.311932 0.898039 0.898039 0.898039 6
-0.0418987 -0.102627 0.387411 0.898039 0.898039 0.898039 1
-0.0774767 -0.0956267 0.356921 0.00784314 0.239216 0.823529 13
-0.0499058 -0.102627 0.431902 0.898039 0.898039 0.898039 0
-0.0718531 -0.102627 0.232877 0.898039 0.917647 0.929412 10
-0.0662675 -0.108627 0.368168 0.898039 0.898039 0.898039 1
-0.0700166 -0.0956267 0.351197 0.00784314 0.239216 0.823529 13
-0.077747 -0.108627 0.386913 0.898039 0.898039 0.898039 1
-0.0662295 -0.108627 0.35321 0.898039 0.898039 0.898039 1
-0.0681421 -0.102627 0.403822 0.898039 0.917647 0.929412 10
-0.0393018 -0.102627 0.428153 0.898039 0.898039 0.898039 0
-0.0878898 -0.0947731 0.328841 0.00784314 0.239216 0.823529 13
-0.0797 -0.102627 0.396324 0.898039 0.898039 0.898039 0
-0.0681136 -0.105627 0.424442 0.898039 0.898039 0.898039 0
-0.0675635 -0.0956267 0.364457 0.00784314 0.239216 0.823529 13
-0.0773442 -0.105627 0.236989 0.898039 0.898039 0.898039 0
-0.0756402 -0.0956267 0.345895 0.00784314 0.239216 0.823529 13
-0.0883721 -0.0959721 0.323179 0.00784314 0.239216 0.823529 13
-0.0736105 -0.100397 0.31716 0.00784314 0.239216 0.823529 13
-0.0662295 -0.0946267 0.328803 0.00784314 0.239216 0.823529 12
-0.0780578 -0.101038 0.37666 0.00784314 0.239216 0.823529 13
-0.0853721 -0.102997 0.388788 0.898039 0.898039 0.898039 1
-0.0761203 -0.105627 0.223829 0.898039 0.898039 0.898039 0
-0.0643721 -0.104108 0.236989 0.898039 0.898039 0.898039 0
-0.0775147 -0.102627 0.300723 0.898039 0.917647 0.929412 10
-0.0437352 -0.102627 0.431902 0.898039 0.898039 0.898039 0
-0.0849748 -0.0946267 0.364419 0.00784314 0.239216 0.823529 13
-0.0794253 -0.105337 0.200057 0.898039 0.898039 0.898039 0
-0.0700166 -0.102627 0.230172 0.898039 0.917647 0.929412 10
-0.0726462 -0.0956267 0.355046 0.00784314 0.239216 0.823529 13
-0.0344006 -0.102627 0.384707 0.898039 0.898039 0.898039 1
-0.0775147 -0.105627 0.295061 0.898039 0.898039 0.898039 0
-0.0578721 -0.100397 0.364419 0.00784314 0.239216 0.823529 13
-0.0803721 -0.104146 0.41132 0.898039 0.898039 0.898039 0
-0.0820342 -0.099659 0.37666 0.00784314 0.239216 0.823529 13
-0.0699786 -0.105627 0.276354 0.898039 0.898039 0.898039 0
-0.0797 -0.102627 0.257609 0.898039 0.898039 0.898039 0
-0.0803721 -0.104026 0.280103 0.898039 0.898039 0.898039 0
-0.0655164 -0.105627 0.214457 0.898039 0.898039 0.898039 0
-0.0737276 -0.102627 0.218206 0.898039 0.917647 0.929412 10
-0.0737656 -0.105627 0.231328 0.898039 0.898039 0.898039 1
-0.068104 -0.0956267 0.341925 0.00784314 0.239216 0.823529 13
-0.0873721 -0.104108 0.356921 0.00784314 0.239216 0.823529 13
-0.0752972 -0.0956267 0.353172 0.00784314 0.239216 0.823529 13
-0.0756021 -0.102627 0.416518 0.898039 0.917647 0.929412 10
-0.0764156 -0.102627 0.287563 0.898039 0.917647 0.929412 10
-0.0868873 -0.0947698 0.352991 0.00784314 0.239216 0.823529 13
-0.0571607 -0.108627 0.330716 0.00784314 0.239216 0.823529 13
-0.0718911 -0.102627 0.261358 0.898039 0.917647 0.929412 10
-0.0873721 -0.0970977 0.341963 0.00784314 0.239216 0.823529 13
-0.0753145 -0.102627 0.278342 0.898039 0.917647 0.929412 10
-0.0883509 -0.108627 0.325054 0.00784314 0.239216 0.823529 13
-0.0402843 -0.105627 0.386913 0.898039 0.898039 0.898039 1
-0.0737276 -0.105627 0.190126 0.898039 0.898039 0.898039 1
-0.0528466 -0.0970349 0.319883 0.0784314 0.278431 0.796078 12
-0.0775147 -0.102627 0.259484 0.898039 0.917647 0.929412 10
-0.0883721 -0.100313 0.336767 0.00784314 0.239216 0.823529 13
-0.0737656 -0.102627 0.435129 0.898039 0.917647 0.929412 10
-0.0793892 -0.105627 0.225704 0.898039 0.898039 0.898039 0
-0.0681421 -0.102627 0.211616 0.898039 0.917647 0.929412 10
-0.032526 -0.102627 0.385077 0.898039 0.898039 0.898039 1
-0.0587694 -0.102627 0.377579 0.898039 0.898039 0.898039 1
-0.0587314 -0.0946267 0.326928 0.00784314 0.239216 0.823529 12
-0.0681421 -0.108627 0.388788 0.898039 0.898039 0.898039 1
-0.0873721 -0.0966476 0.355084 0.00784314 0.239216 0.823529 13
-0.0700166 -0.105627 0.293187 0.898039 0.898039 0.898039 0
-0.0803721 -0.103972 0.296936 0.898039 0.898039 0.898039 0
-0.0718911 -0.108627 0.371917 0.898039 0.898039 0.898039 1
-0.0728654 -0.0956267 0.347586 0.00784314 0.239216 0.823529 13
-0.0853721 -0.108353 0.3907 0.898039 0.898039 0.898039 1
-0.0578721 -0.107362 0.34005 0.00784314 0.239216 0.823529 13
-0.0587314 -0.108627 0.364457 0.00784314 0.239216 0.823529 13
-0.0643721 -0.103205 0.220118 0.898039 0.898039 0.898039 0
-0.0437352 -0.102627 0.382109 0.898039 0.898039 0.898039 1
-0.0833597 -0.0956825 0.37666 0.00784314 0.239216 0.823529 13
-0.0803721 -0.102823 0.211419 0.898039 0.898039 0.898039 0
-0.0718531 -0.105627 0.244487 0.898039 0.898039 0.898039 1
-0.069096 -0.102627 0.310096 0.898039 0.917647 0.929412 10
-0.0578721 -0.107969 0.370043 0.00784314 0.239216 0.823529 13
-0.0790666 -0.102627 0.422529 0.898039 0.898039 0.898039 0
-0.0376333 -0.105627 0.386913 0.898039 0.898039 0.898039 1
-0.0738184 -0.102627 0.405697 0.898039 0.917647 0.929412 10
-0.0578721 -0.0999623 0.37383 0.00784314 0.239216 0.823529 13
-0.0793178 -0.102627 0.282345 0.898039 0.898039 0.898039 0
-0.0546286 -0.105911 0.334427 0.00784314 0.239216 0.823529 13
-0.0699786 -0.105627 0.409446 0.898039 0.898039 0.898039 0
-0.0536536 -0.0988788 0.330716 0.219608 0.364706 0.745098 12
-0.0499058 -0.102627 0.422529 0.898039 0.898039 0.898039 0
-0.0734156 -0.105627 0.17513 0.898039 0.898039 0.898039 1
-0.0803721 -0.104963 0.222969 0.898039 0.898039 0.898039 0
-0.081832 -0.0946267 0.325333 0.00784314 0.239216 0.823529 13
-0.0774767 -0.107857 0.33536 0.898039 0.898039 0.898039 1
-0.0606059 -0.102627 0.328841 0.00784314 0.239216 0.823529 13
-0.0633721 -0.10602 0.314197 0.00784314 0.239216 0.823529 13
-0.0663913 -0.102627 0.216331 0.898039 0.917647 0.929412 10
-0.0925109 -0.103991 0.348957 0.776471 0.756863 0.737255 5
-0.0795355 -0.102627 0.226403 0.898039 0.898039 0.898039 0
-0.0883721 -0.104108 0.371377 0.00784314 0.239216 0.823529 13
-0.0425862 -0.102627 0.424442 0.898039 0.898039 0.898039 0
-0.0756402 -0.102627 0.214267 0.898039 0.917647 0.929412 10
-0.068104 -0.102627 0.22222 0.898039 0.917647 0.929412 10
-0.0883721 -0.106051 0.319468 0.00784314 0.239216 0.823529 13
-0.0699786 -0.102627 0.255696 0.898039 0.917647 0.929412 10
-0.064393 -0.105627 0.218206 0.898039 0.898039 0.898039 0
-0.068104 -0.105627 0.238864 0.898039 0.898039 0.898039 0
-0.0624804 -0.108627 0.35321 0.898039 0.898039 0.898039 1
-0.0844694 -0.0946267 0.370081 0.00784314 0.239216 0.823529 13
-0.0816639 -0.0938978 0.35866 0.00784314 0.239216 0.823529 3
-0.0720422 -0.105627 0.173255 0.898039 0.898039 0.898039 1
-0.069096 -0.102627 0.398199 0.898039 0.917647 0.929412 10
-0.068104 -0.0951267 0.332552 0.00784314 0.239216 0.823529 12
-0.0685164 -0.102627 0.415069 0.898039 0.917647 0.929412 10
-0.0795518 -0.102627 0.206314 0.898039 0.898039 0.898039 0
-0.0418987 -0.102627 0.386951 0.898039 0.898039 0.898039 1
-0.0578721 -0.100359 0.345712 0.00784314 0.239216 0.823529 13
-0.0758716 -0.102318 0.203557 0.898039 0.917647 0.929412 9
-0.0831383 -0.105627 0.431902 0.898039 0.898039 0.898039 0
-0.0740544 -0.0996859 0.31716 0.00784314 0.239216 0.823529 13
-0.0883721 -0.105982 0.321009 0.00784314 0.239216 0.823529 13
-0.0681421 -0.102627 0.238864 0.898039 0.917647 0.929412 10
-0.074747 -0.105627 0.236951 0.898039 0.898039 0.898039 0
-0.071747 -0.102627 0.225742 0.898039 0.917647 0.929412 10
-0.0803721 -0.103353 0.251985 0.898039 0.898039 0.898039 0
-0.0883721 -0.106576 0.323179 0.00784314 0.239216 0.823529 13
-0.0756021 -0.102627 0.295061 0.898039 0.917647 0.929412 10
-0.068104 -0.105627 0.325092 0.898039 0.898039 0.898039 0
-0.0836705 -0.108627 0.356959 0.898039 0.898039 0.898039 1
-0.064393 -0.0951267 0.345395 0.00784314 0.239216 0.823529 13
-0.0737276 -0.108627 0.381328 0.898039 0.898039 0.898039 1
-0.0793512 -0.102627 0.253822 0.898039 0.898039 0.898039 0
-0.0796462 -0.102627 0.218206 0.898039 0.898039 0.898039 0
-0.0643721 -0.103259 0.278191 0.898039 0.898039 0.898039 0
-0.0662295 -0.105627 0.259484 0.898039 0.898039 0.898039 0
-0.0737646 -0.102627 0.227579 0.898039 0.917647 0.929412 10
-0.0734694 -0.105627 0.323179 0.898039 0.898039 0.898039 1
-0.0662295 -0.0951267 0.325054 0.00784314 0.239216 0.823529 12
-0.0718531 -0.105627 0.302598 0.898039 0.898039 0.898039 1
-0.0787713 -0.105627 0.287563 0.898039 0.898039 0.898039 0
-0.0812638 -0.0946267 0.352848 0.00784314 0.239216 0.823529 13
-0.0803721 -0.103972 0.266944 0.898039 0.898039 0.898039 0
-0.0873721 -0.100397 0.345814 0.00784314 0.239216 0.823529 13
-0.0803721 -0.104365 0.220535 0.898039 0.898039 0.898039 0
-0.0578721 -0.104658 0.37383 0.00784314 0.239216 0.823529 13
-0.0623721 -0.0934318 0.362982 0.00784314 0.239216 0.823529 11
-0.028739 -0.104236 0.423483 0.898039 0.898039 0.898039 0
-0.0723721 -0.104919 0.172209 0.898039 0.898039 0.898039 1
-0.0381496 -0.102627 0.390062 0.898039 0.898039 0.898039 1
-0.0803721 -0.104108 0.297143 0.898039 0.898039 0.898039 0
-0.0578721 -0.0973651 0.341925 0.00784314 0.239216 0.823529 13
-0.0803721 -0.104176 0.212772 0.898039 0.898039 0.898039 0
-0.0785145 -0.102627 0.277793 0.898039 0.917647 0.929412 10
-0.0442548 -0.105627 0.430065 0.898039 0.898039 0.898039 0
-0.0878171 -0.094735 0.374583 0.00784314 0.239216 0.823529 13
-0.0681421 -0.0956267 0.341963 0.00784314 0.239216 0.823529 13
-0.0803721 -0.104108 0.228218 0.898039 0.898039 0.898039 0
-0.0774767 -0.108627 0.364457 0.898039 0.898039 0.898039 1
-0.0699952 -0.0956267 0.341925 0.00784314 0.239216 0.823529 13
-0.0718911 -0.102627 0.229491 0.898039 0.917647 0.929412 10
-0.0837243 -0.108627 0.358795 0.898039 0.898039 0.898039 1
-0.0292775 -0.102627 0.426278 0.898039 0.898039 0.898039 0
-0.0699952 -0.0956267 0.349423 0.00784314 0.239216 0.823529 13
-0.072096 -0.105627 0.206959 0.898039 0.898039 0.898039 1
-0.0812638 -0.10381 0.423057 0.898039 0.898039 0.898039 0
-0.0853721 -0.108236 0.390172 0.898039 0.898039 0.898039 1
-0.0805334 -0.0946267 0.323421 0.00784314 0.239216 0.823529 13
-0.077747 -0.108627 0.364419 0.898039 0.898039 0.898039 1
-0.068104 -0.105627 0.424442 0.898039 0.898039 0.898039 0
-0.0720422 -0.105627 0.325092 0.898039 0.898039 0.898039 1
-0.0643721 -0.103259 0.287563 0.898039 0.898039 0.898039 0
-0.0883721 -0.0985221 0.33259 0.00784314 0.239216 0.823529 13
-0.0883721 -0.0966096 0.374028 0.00784314 0.239216 0.823529 13
-0.089988 -0.103778 0.349194 0.776471 0.756863 0.737255 5
-0.0803721 -0.104146 0.272605 0.898039 0.898039 0.898039 0
-0.0336509 -0.105627 0.428191 0.898039 0.898039 0.898039 0
-0.0793892 -0.108627 0.349423 0.898039 0.898039 0.898039 1
-0.0593721 -0.106415 0.388826 0.898039 0.898039 0.898039 1
-0.0873721 -0.107895 0.340088 0.00784314 0.239216 0.823529 13
-0.0775147 -0.0946267 0.328841 0.00784314 0.239216 0.823529 13
-0.0705529 -0.103627 0.185017 0.898039 0.898039 0.898039 1
-0.0699786 -0.102627 0.276316 0.898039 0.917647 0.929412 10
-0.0880024 -0.0947731 0.330716 0.00784314 0.239216 0.823529 13
-0.032488 -0.105296 0.384725 0.898039 0.898039 0.898039 1
-0.0853721 -0.107895 0.390283 0.898039 0.898039 0.898039 1
-0.0734156 -0.105627 0.265107 0.898039 0.898039 0.898039 1
-0.0713269 -0.102627 0.27443 0.898039 0.917647 0.929412 10
-0.0803721 -0.104146 0.302598 0.898039 0.898039 0.898039 0
-0.078693 -0.102627 0.420328 0.898039 0.917647 0.929412 10
-0.0606059 -0.0928605 0.343737 0.00784314 0.239216 0.823529 2
-0.0883721 -0.103009 0.320793 0.00784314 0.239216 0.823529 13
-0.0699786 -0.102627 0.285689 0.898039 0.917647 0.929412 10
-0.0591364 -0.108627 0.351335 0.00784314 0.239216 0.823529 13
-0.0550204 -0.107857 0.335918 0.00784314 0.239216 0.823529 13
-0.0662675 -0.105627 0.394411 0.898039 0.898039 0.898039 0
-0.0662675 -0.102627 0.388826 0.898039 0.917647 0.929412 10
-0.0634505 -0.102337 0.307607 0.898039 0.898039 0.898039 6
-0.0658587 -0.0946267 0.338176 0.00784314 0.239216 0.823529 12
-0.0521875 -0.104146 0.321305 0.00784314 0.239216 0.823529 13
-0.0756021 -0.105627 0.29135 0.898039 0.898039 0.898039 0
-0.0775147 -0.0956267 0.372405 0.00784314 0.239216 0.823529 13
-0.0425324 -0.102627 0.388788 0.898039 0.898039 0.898039 1
-0.0699786 -0.102627 0.250073 0.898039 0.917647 0.929412 10
-0.0803721 -0.104228 0.20701 0.898039 0.898039 0.898039 0
-0.071747 -0.102627 0.263233 0.898039 0.917647 0.929412 10
-0.0568949 -0.0946267 0.338214 0.00784314 0.239216 0.823529 12
-0.0853721 -0.104146 0.384927 0.898039 0.898039 0.898039 1
-0.0668946 -0.102627 0.209937 0.898039 0.917647 0.929412 10
-0.0764694 -0.102627 0.21262 0.898039 0.917647 0.929412 10
-0.0775147 -0.102627 0.42182 0.898039 0.917647 0.929412 10
-0.0662295 -0.102627 0.392537 0.898039 0.917647 0.929412 10
-0.0737656 -0.105627 0.296936 0.898039 0.898039 0.898039 1
-0.0836705 -0.108627 0.347586 0.898039 0.898039 0.898039 1
-0.0738184 -0.102627 0.302598 0.898039 0.917647 0.929412 10
-0.0737656 -0.105627 0.186339 0.898039 0.898039 0.898039 1
-0.0769952 -0.102627 0.295061 0.898039 0.917647 0.929412 10
-0.0678054 -0.102627 0.4319 0.898039 0.917647 0.929412 10
-0.0762403 -0.102627 0.200538 0.898039 0.917647 0.929412 10
-0.0573721 -0.104108 0.315719 0.00784314 0.239216 0.823529 13
-0.0643721 -0.10412 0.392537 0.898039 0.898039 0.898039 0
-0.0796462 -0.102627 0.306309 0.898039 0.898039 0.898039 0
-0.0675097 -0.0956267 0.370043 0.00784314 0.239216 0.823529 13
-0.0756021 -0.0946267 0.339647 0.00784314 0.239216 0.823529 13
-0.0803721 -0.104108 0.225567 0.898039 0.898039 0.898039 0
-0.0308173 -0.103158 0.428191 0.898039 0.898039 0.898039 0
-0.0493968 -0.102864 0.422057 0.898039 0.898039 0.898039 0
-0.0681421 -0.108627 0.36067 0.898039 0.898039 0.898039 1
-0.0737656 -0.102627 0.232823 0.898039 0.917647 0.929412 10
-0.0718531 -0.105627 0.261358 0.898039 0.898039 0.898039 1
-0.0803721 -0.103972 0.285689 0.898039 0.898039 0.898039 0
-0.0649125 -0.0956267 0.364457 0.00784314 0.239216 0.823529 13
-0.0662675 -0.102627 0.419169 0.898039 0.917647 0.929412 10
-0.0565392 -0.108627 0.325054 0.00784314 0.239216 0.823529 13
-0.0849549 -0.0946267 0.355084 0.00784314 0.239216 0.823529 13
-0.0803721 -0.104108 0.254727 0.898039 0.898039 0.898039 0
-0.0634172 -0.107857 0.33536 0.898039 0.898039 0.898039 1
-0.083049 -0.108627 0.40191 0.898039 0.898039 0.898039 1
-0.0662295 -0.105627 0.276354 0.898039 0.898039 0.898039 0
-0.0737276 -0.103627 0.178841 0.898039 0.898039 0.898039 1
-0.0883721 -0.104146 0.363424 0.00784314 0.239216 0.823529 13
-0.0754337 -0.0957094 0.31716 0.00784314 0.239216 0.823529 13
-0.0667941 -0.105627 0.246324 0.898039 0.898039 0.898039 0
-0.0578721 -0.0999623 0.358833 0.00784314 0.239216 0.823529 13
-0.0803721 -0.104146 0.275989 0.898039 0.898039 0.898039 0
-0.0737276 -0.102627 0.209018 0.898039 0.917647 0.929412 10
-0.0718911 -0.108627 0.403784 0.898039 0.898039 0.898039 1
-0.0398815 -0.102627 0.424404 0.898039 0.898039 0.898039 0
-0.0667403 -0.105627 0.276354 0.898039 0.898039 0.898039 0
-0.0909462 -0.104108 0.424474 0.898039 0.898039 0.898039 0
-0.0883721 -0.0984841 0.370043 0.00784314 0.239216 0.823529 13
-0.0883721 -0.0985336 0.372478 0.00784314 0.239216 0.823529 13
-0.0883721 -0.102687 0.335468 0.00784314 0.239216 0.823529 13
-0.0793892 -0.0951267 0.35865 0.00784314 0.239216 0.823529 13
-0.0764694 -0.102627 0.405697 0.898039 0.917647 0.929412 10
-0.0535392 -0.105627 0.38129 0.898039 0.898039 0.898039 1
-0.0541361 -0.102271 0.332552 0.00784314 0.239216 0.823529 13
-0.0737656 -0.105627 0.313807 0.898039 0.898039 0.898039 1
-0.0531078 -0.102627 0.387411 0.898039 0.898039 0.898039 1
-0.0550204 -0.108627 0.330678 0.00784314 0.239216 0.823529 13
-0.0756402 -0.102627 0.259484 0.898039 0.917647 0.929412 10
-0.0343435 -0.104988 0.384168 0.898039 0.898039 0.898039 1
-0.0694451 -0.105627 0.433776 0.898039 0.898039 0.898039 0
-0.0538344 -0.108627 0.323217 0.00784314 0.239216 0.823529 13
-0.0625185 -0.108627 0.386913 0.898039 0.898039 0.898039 1
-0.0874445 -0.10602 0.360708 0.00784314 0.239216 0.823529 13
-0.0764156 -0.102627 0.206959 0.898039 0.917647 0.929412 10
-0.0853721 -0.107895 0.398182 0.898039 0.898039 0.898039 1
-0.0744879 -0.102627 0.228854 0.898039 0.917647 0.929412 10
-0.0546386 -0.100545 0.334465 0.00784314 0.239216 0.823529 13
-0.068104 -0.102627 0.41878 0.898039 0.917647 0.929412 10
-0.0850128 -0.105627 0.401015 0.898039 0.898039 0.898039 1
-0.0707646 -0.105627 0.197624 0.898039 0.898039 0.898039 1
-0.0726462 -0.0956267 0.36067 0.00784314 0.239216 0.823529 13
-0.0883721 -0.0966096 0.336301 0.00784314 0.239216 0.823529 13
-0.0743721 -0.105402 0.183849 0.898039 0.898039 0.898039 1
-0.0868493 -0.0946267 0.371917 0.00784314 0.239216 0.823529 13
-0.0810733 -0.108627 0.370043 0.898039 0.898039 0.898039 1
-0.0775147 -0.102627 0.209018 0.898039 0.917647 0.929412 10
-0.064355 -0.105982 0.33536 0.898039 0.898039 0.898039 1
-0.0700166 -0.102627 0.232877 0.898039 0.917647 0.929412 10
-0.0662675 -0.102627 0.250111 0.898039 0.917647 0.929412 10
-0.0573721 -0.104158 0.31197 0.00784314 0.239216 0.823529 13
-0.0718531 -0.108627 0.360708 0.898039 0.898039 0.898039 1
-0.0621519 -0.0930853 0.363658 0.00784314 0.239216 0.823529 11
-0.0926933 -0.104108 0.351297 0.776471 0.756863 0.737255 5
-0.0653334 -0.102627 0.227522 0.898039 0.898039 0.898039 0
-0.0587314 -0.0950908 0.366567 0.00784314 0.239216 0.823529 13
-0.0751989 -0.102627 0.230226 0.898039 0.917647 0.929412 10
-0.0906364 -0.102707 0.351335 0.776471 0.756863 0.737255 5
-0.0840733 -0.105627 0.433776 0.898039 0.898039 0.898039 0
-0.075096 -0.108627 0.371917 0.898039 0.898039 0.898039 1
-0.068104 -0.105627 0.415069 0.898039 0.898039 0.898039 0
-0.087134 -0.0946267 0.321584 0.00784314 0.239216 0.823529 13
-0.0803721 -0.105606 0.238875 0.898039 0.898039 0.898039 0
-0.0812638 -0.108627 0.371917 0.898039 0.898039 0.898039 1
-0.0704156 -0.108627 0.35321 0.898039 0.898039 0.898039 1
-0.0625185 -0.108627 0.356921 0.898039 0.898039 0.898039 1
-0.074747 -0.105627 0.431902 0.898039 0.898039 0.898039 0
-0.0610423 -0.0946267 0.330678 0.00784314 0.239216 0.823529 12
-0.0718531 -0.105627 0.29135 0.898039 0.898039 0.898039 1
-0.0568768 -0.0957094 0.317243 0.00784314 0.239216 0.823529 13
-0.0853721 -0.10585 0.391535 0.898039 0.898039 0.898039 1
-0.0803721 -0.104146 0.415069 0.898039 0.898039 0.898039 0
-0.0883509 -0.108627 0.328803 0.00784314 0.239216 0.823529 13
-0.0756402 -0.105627 0.295061 0.898039 0.898039 0.898039 0
-0.0774767 -0.102627 0.289438 0.898039 0.917647 0.929412 10
-0.0883721 -0.105698 0.330981 0.00784314 0.239216 0.823529 13
-0.0578721 -0.100397 0.366294 0.00784314 0.239216 0.823529 13
-0.0456477 -0.102627 0.432478 0.898039 0.898039 0.898039 0
-0.0557873 -0.102627 0.424404 0.898039 0.898039 0.898039 0
-0.0773442 -0.105627 0.220118 0.898039 0.898039 0.898039 0
-0.0708184 -0.105627 0.330678 0.898039 0.898039 0.898039 1
-0.0727 -0.0956267 0.358833 0.00784314 0.239216 0.823529 13
-0.0670893 -0.108627 0.377579 0.898039 0.898039 0.898039 1
-0.0882353 -0.102271 0.318441 0.00784314 0.239216 0.823529 13
-0.0727 -0.0956267 0.345712 0.00784314 0.239216 0.823529 13
-0.0309999 -0.105627 0.428191 0.898039 0.898039 0.898039 0
-0.0602144 -0.105627 0.428153 0.898039 0.898039 0.898039 0
-0.0829952 -0.108627 0.381328 0.898039 0.898039 0.898039 1
-0.0743442 -0.102627 0.409408 0.898039 0.917647 0.929412 10
-0.0373313 -0.102728 0.388788 0.898039 0.898039 0.898039 1
-0.0793512 -0.0947731 0.376179 0.00784314 0.239216 0.823529 13
-0.077398 -0.105627 0.285689 0.898039 0.898039 0.898039 0
-0.0707646 -0.105627 0.193875 0.898039 0.898039 0.898039 1
-0.0550204 -0.102627 0.387358 0.898039 0.898039 0.898039 1
-0.0720422 -0.105627 0.416944 0.898039 0.898039 0.898039 0
-0.0868226 -0.094735 0.359672 0.00784314 0.239216 0.823529 13
-0.075096 -0.108627 0.400035 0.898039 0.898039 0.898039 1
-0.0756021 -0.105627 0.208871 0.898039 0.898039 0.898039 0
-0.0853721 -0.104146 0.386951 0.898039 0.898039 0.898039 1
-0.0756402 -0.108627 0.386913 0.898039 0.898039 0.898039 1
-0.0764156 -0.102627 0.259445 0.898039 0.917647 0.929412 10
-0.0683623 -0.0966476 0.31716 0.00784314 0.239216 0.823529 13
-0.0701607 -0.0956267 0.349423 0.00784314 0.239216 0.823529 13
-0.0716932 -0.102627 0.392537 0.898039 0.917647 0.929412 10
-0.0704156 -0.108627 0.351335 0.898039 0.898039 0.898039 1
-0.0756021 -0.102627 0.427176 0.898039 0.917647 0.929412 10
-0.0760666 -0.105627 0.266982 0.898039 0.898039 0.898039 0
-0.0688374 -0.102627 0.23445 0.898039 0.917647 0.929412 10
-0.0836705 -0.108627 0.388826 0.898039 0.898039 0.898039 1
-0.0606439 -0.0948995 0.366376 0.00784314 0.239216 0.823529 13
-0.0868927 -0.0947731 0.356951 0.00784314 0.239216 0.823529 13
-0.0658116 -0.102627 0.385039 0.898039 0.898039 0.898039 0
-0.0700166 -0.0946267 0.319468 0.00784314 0.239216 0.823529 12
-0.0963039 -0.108627 0.40191 0.898039 0.898039 0.898039 1
-0.0868493 -0.108627 0.35321 0.00784314 0.239216 0.823529 13
-0.0703721 -0.103903 0.192001 0.898039 0.898039 0.898039 1
-0.0700166 -0.102627 0.211669 0.898039 0.917647 0.929412 10
-0.0700166 -0.102627 0.308221 0.898039 0.917647 0.929412 10
-0.0578721 -0.104146 0.349423 0.00784314 0.239216 0.823529 13
-0.0456097 -0.102627 0.432424 0.898039 0.898039 0.898039 0
-0.0756021 -0.102627 0.293187 0.898039 0.917647 0.929412 10
-0.0873721 -0.10602 0.35321 0.00784314 0.239216 0.823529 13
-0.0519391 -0.0952914 0.323217 0.00784314 0.239216 0.823529 12
-0.0853721 -0.103051 0.388826 0.898039 0.898039 0.898039 1
-0.0714572 -0.0996859 0.31716 0.00784314 0.239216 0.823529 13
-0.0398815 -0.102627 0.385039 0.898039 0.898039 0.898039 1
-0.0793892 -0.0951267 0.342798 0.00784314 0.239216 0.823529 13
-0.0699786 -0.102627 0.435075 0.898039 0.917647 0.929412 10
-0.0763735 -0.102627 0.226914 0.898039 0.917647 0.929412 10
-0.0658654 -0.102627 0.415069 0.898039 0.898039 0.898039 0
-0.0850128 -0.105627 0.406317 0.898039 0.898039 0.898039 1
-0.0727187 -0.102627 0.212012 0.898039 0.917647 0.929412 10
-0.0302477 -0.103543 0.388826 0.898039 0.898039 0.898039 1
-0.058893 -0.0950746 0.343837 0.00784314 0.239216 0.823529 13
-0.0873229 -0.0942202 0.32466 0.00784314 0.239216 0.823529 13
-0.0883721 -0.100397 0.325092 0.00784314 0.239216 0.823529 13
-0.0734156 -0.105627 0.306347 0.898039 0.898039 0.898039 1
-0.0578721 -0.107362 0.341925 0.00784314 0.239216 0.823529 13
-0.0643721 -0.10412 0.227579 0.898039 0.898039 0.898039 0
-0.0812257 -0.0947731 0.376179 0.00784314 0.239216 0.823529 13
-0.0853721 -0.107895 0.395531 0.898039 0.898039 0.898039 1
-0.0764156 -0.102627 0.20321 0.898039 0.917647 0.929412 10
-0.0373468 -0.102689 0.3907 0.898039 0.898039 0.898039 1
-0.0681136 -0.105627 0.27448 0.898039 0.898039 0.898039 0
-0.0868996 -0.107857 0.39936 0.898039 0.898039 0.898039 1
-0.0269025 -0.105627 0.424404 0.898039 0.898039 0.898039 0
-0.0803721 -0.104146 0.257432 0.898039 0.898039 0.898039 0
-0.072935 -0.102627 0.219803 0.898039 0.917647 0.929412 10
-0.0702571 -0.102627 0.217125 0.898039 0.917647 0.929412 10
-0.0685164 -0.102627 0.308221 0.898039 0.917647 0.929412 10
-0.0685164 -0.102627 0.227617 0.898039 0.917647 0.929412 10
-0.0707646 -0.105627 0.283852 0.898039 0.898039 0.898039 1
-0.0587694 -0.101627 0.310096 0.898039 0.898039 0.898039 6
-0.0651674 -0.108627 0.347548 0.898039 0.898039 0.898039 1
-0.0525567 -0.102627 0.433776 0.898039 0.898039 0.898039 0
-0.0655164 -0.105627 0.265069 0.898039 0.898039 0.898039 0
-0.0512713 -0.102627 0.383202 0.898039 0.898039 0.898039 1
-0.0707646 -0.105627 0.242613 0.898039 0.898039 0.898039 1
-0.0756402 -0.0951267 0.37383 0.00784314 0.239216 0.823529 13
-0.0552548 -0.0946267 0.325054 0.00784314 0.239216 0.823529 12
-0.064433 -0.102627 0.21505 0.898039 0.898039 0.898039 0
-0.0734156 -0.105627 0.323217 0.898039 0.898039 0.898039 1
-0.0658116 -0.102627 0.265069 0.898039 0.898039 0.898039 0
-0.0678184 -0.108627 0.336301 0.898039 0.898039 0.898039 1
-0.0803442 -0.108627 0.386951 0.898039 0.898039 0.898039 1
-0.0850128 -0.108627 0.351297 0.898039 0.898039 0.898039 1
-0.0868873 -0.0947705 0.347586 0.00784314 0.239216 0.823529 13
-0.0720422 -0.105627 0.310096 0.898039 0.898039 0.898039 1
-0.0651674 -0.108627 0.368168 0.898039 0.898039 0.898039 1
-0.0473086 -0.102627 0.426316 0.898039 0.898039 0.898039 0
-0.0593721 -0.107857 0.386951 0.898039 0.898039 0.898039 1
-0.0518928 -0.104146 0.323179 0.00784314 0.239216 0.823529 13
-0.0643721 -0.103205 0.27448 0.898039 0.898039 0.898039 0
-0.0751737 -0.102627 0.406483 0.898039 0.917647 0.929412 10
-0.0700394 -0.102627 0.273067 0.898039 0.917647 0.929412 10
-0.074747 -0.105627 0.270693 0.898039 0.898039 0.898039 0
-0.032526 -0.102627 0.386951 0.898039 0.898039 0.898039 1
-0.0655164 -0.105627 0.231328 0.898039 0.898039 0.898039 0
-0.0323313 -0.105627 0.388788 0.898039 0.898039 0.898039 1
-0.0446576 -0.102627 0.381328 0.898039 0.898039 0.898039 1
-0.0718911 -0.102627 0.280103 0.898039 0.917647 0.929412 10
-0.0756021 -0.105627 0.416944 0.898039 0.898039 0.898039 0
-0.0831383 -0.108627 0.368168 0.898039 0.898039 0.898039 1
-0.0643721 -0.103259 0.208833 0.898039 0.898039 0.898039 0
-0.0756402 -0.102627 0.39266 0.898039 0.917647 0.929412 10
-0.0803721 -0.103972 0.280065 0.898039 0.898039 0.898039 0
-0.0625185 -0.102627 0.377579 0.898039 0.898039 0.898039 1
-0.0578721 -0.102667 0.353172 0.00784314 0.239216 0.823529 13
-0.0756021 -0.102627 0.208833 0.898039 0.917647 0.929412 10
-0.0699786 -0.0946267 0.31943 0.00784314 0.239216 0.823529 12
-0.0748509 -0.0951267 0.334465 0.00784314 0.239216 0.823529 12
-0.0699786 -0.0956267 0.367156 0.00784314 0.239216 0.823529 13
-0.0677646 -0.108627 0.364457 0.898039 0.898039 0.898039 1
-0.0803721 -0.103972 0.278191 0.898039 0.898039 0.898039 0
-0.0850128 -0.102627 0.381328 0.898039 0.898039 0.898039 1
-0.0700166 -0.102627 0.400073 0.898039 0.917647 0.929412 10
-0.0887619 -0.107467 0.400151 0.898039 0.898039 0.898039 1
-0.068104 -0.102627 0.201012 0.898039 0.917647 0.929412 10
-0.0679186 -0.10602 0.203557 0.898039 0.917647 0.929412 7
-0.0826462 -0.105627 0.430065 0.898039 0.898039 0.898039 0
-0.0953637 -0.104108 0.425358 0.898039 0.898039 0.898039 0
-0.0662295 -0.102627 0.222273 0.898039 0.917647 0.929412 10
-0.0624804 -0.102233 0.306762 0.898039 0.898039 0.898039 6
-0.0550204 -0.108627 0.328803 0.00784314 0.239216 0.823529 13
-0.064393 -0.105627 0.278191 0.898039 0.898039 0.898039 0
-0.064355 -0.102627 0.432424 0.898039 0.898039 0.898039 0
-0.0399861 -0.105627 0.3907 0.898039 0.898039 0.898039 1
-0.077398 -0.105627 0.206959 0.898039 0.898039 0.898039 0
-0.0703721 -0.103903 0.177004 0.898039 0.898039 0.898039 1
-0.0775147 -0.105627 0.30256 0.898039 0.898039 0.898039 0
-0.0712735 -0.0956267 0.371258 0.00784314 0.239216 0.823529 13
-0.0662675 -0.102627 0.227617 0.898039 0.917647 0.929412 10
-0.0836705 -0.108627 0.355084 0.898039 0.898039 0.898039 1
-0.0578721 -0.100016 0.341925 0.00784314 0.239216 0.823529 13
-0.0906364 -0.104146 0.34884 0.776471 0.756863 0.737255 5
-0.0643721 -0.103259 0.304434 0.898039 0.898039 0.898039 0
-0.0797 -0.102627 0.3907 0.898039 0.898039 0.898039 0
-0.0913396 -0.103662 0.349054 0.776471 0.756863 0.737255 5
-0.058893 -0.0950746 0.347586 0.00784314 0.239216 0.823529 13
-0.0718911 -0.103627 0.181509 0.898039 0.898039 0.898039 1
-0.0718531 -0.102627 0.211669 0.898039 0.917647 0.929412 10
-0.0803721 -0.104108 0.273338 0.898039 0.898039 0.898039 0
-0.0573721 -0.104158 0.308221 0.00784314 0.239216 0.823529 13
-0.0756402 -0.105627 0.431902 0.898039 0.898039 0.898039 0
-0.0578721 -0.10602 0.358795 0.00784314 0.239216 0.823529 13
-0.0774767 -0.102627 0.424404 0.898039 0.917647 0.929412 10
-0.0718667 -0.102627 0.214267 0.898039 0.917647 0.929412 10
-0.0718911 -0.102627 0.223867 0.898039 0.917647 0.929412 10
-0.0662295 -0.105627 0.283852 0.898039 0.898039 0.898039 0
-0.0737276 -0.102383 0.206557 0.898039 0.917647 0.929412 9
-0.0774767 -0.105627 0.255734 0.898039 0.898039 0.898039 0
-0.0699786 -0.102627 0.390009 0.898039 0.917647 0.929412 10
-0.0662675 -0.0956267 0.370081 0.00784314 0.239216 0.823529 13
-0.0578721 -0.107362 0.366294 0.00784314 0.239216 0.823529 13
-0.0625185 -0.0946267 0.336339 0.00784314 0.239216 0.823529 12
-0.0883721 -0.103346 0.364419 0.00784314 0.239216 0.823529 13
-0.0474842 -0.102627 0.432424 0.898039 0.898039 0.898039 0
-0.0871609 -0.0979078 0.317329 0.00784314 0.239216 0.823529 13
-0.0694451 -0.105627 0.201335 0.898039 0.898039 0.898039 0
-0.0774767 -0.102627 0.433776 0.898039 0.917647 0.929412 10
-0.0667403 -0.105627 0.398199 0.898039 0.898039 0.898039 0
-0.0681136 -0.105627 0.268856 0.898039 0.898039 0.898039 0
-0.0611431 -0.102627 0.383202 0.898039 0.898039 0.898039 1
-0.0775147 -0.102627 0.203663 0.898039 0.917647 0.929412 10
-0.0646042 -0.102627 0.241388 0.898039 0.898039 0.898039 0
-0.0617873 -0.108627 0.343837 0.898039 0.898039 0.898039 1
-0.0718531 -0.103627 0.176153 0.898039 0.898039 0.898039 1
-0.0418987 -0.10507 0.381902 0.898039 0.898039 0.898039 1
-0.0799952 -0.105627 0.246362 0.898039 0.898039 0.898039 0
-0.0873721 -0.0970259 0.343837 0.00784314 0.239216 0.823529 13
-0.0693913 -0.105627 0.281978 0.898039 0.898039 0.898039 0
-0.0606439 -0.0946267 0.328841 0.00784314 0.239216 0.823529 12
-0.0797 -0.102627 0.242613 0.898039 0.898039 0.898039 0
-0.077049 -0.102627 0.287601 0.898039 0.917647 0.929412 10
-0.0662295 -0.108627 0.340088 0.898039 0.898039 0.898039 1
-0.0714954 -0.103627 0.173502 0.898039 0.898039 0.898039 1
-0.0737276 -0.105627 0.206997 0.898039 0.898039 0.898039 1
-0.0531078 -0.108627 0.321343 0.00784314 0.239216 0.823529 13
-0.0853721 -0.104108 0.379679 0.898039 0.898039 0.898039 1
-0.0680635 -0.0951267 0.321343 0.00784314 0.239216 0.823529 12
-0.0883721 -0.0971017 0.329882 0.00784314 0.239216 0.823529 13
-0.0883721 -0.100208 0.362981 0.00784314 0.239216 0.823529 13
-0.064393 -0.105627 0.208833 0.898039 0.898039 0.898039 0
-0.0791203 -0.102627 0.405697 0.898039 0.898039 0.898039 0
-0.0662295 -0.108627 0.366332 0.898039 0.898039 0.898039 1
-0.0678184 -0.108627 0.345674 0.898039 0.898039 0.898039 1
-0.0873721 -0.102233 0.340512 0.00784314 0.239216 0.823529 13
-0.077398 -0.105627 0.272567 0.898039 0.898039 0.898039 0
-0.0707646 -0.105627 0.25386 0.898039 0.898039 0.898039 1
-0.0667403 -0.105627 0.43194 0.898039 0.898039 0.898039 0
-0.0568949 -0.105627 0.426278 0.898039 0.898039 0.898039 0
-0.0775147 -0.0947731 0.31764 0.00784314 0.239216 0.823529 13
-0.0803721 -0.103961 0.244124 0.898039 0.898039 0.898039 0
-0.0344006 -0.104236 0.423483 0.898039 0.898039 0.898039 0
-0.0737656 -0.0956267 0.35321 0.00784314 0.239216 0.823529 13
-0.0602439 -0.0949395 0.351297 0.00784314 0.239216 0.823529 13
-0.0662675 -0.105627 0.293187 0.898039 0.898039 0.898039 0
-0.0718911 -0.0956267 0.345895 0.00784314 0.239216 0.823529 13
-0.0663913 -0.102627 0.253822 0.898039 0.917647 0.929412 10
-0.0868873 -0.0946267 0.328841 0.00784314 0.239216 0.823529 13
-0.0643721 -0.104066 0.255734 0.898039 0.898039 0.898039 0
-0.0793512 -0.102627 0.405968 0.898039 0.898039 0.898039 0
-0.0716932 -0.102627 0.283814 0.898039 0.917647 0.929412 10
-0.0708184 -0.105627 0.287563 0.898039 0.898039 0.898039 1
-0.0743509 -0.0946267 0.336339 0.00784314 0.239216 0.823529 12
-0.0612541 -0.0948385 0.373792 0.00784314 0.239216 0.823529 13
-0.0600893 -0.101627 0.313807 0.898039 0.898039 0.898039 6
-0.0924729 -0.103921 0.348941 0.776471 0.756863 0.737255 5
-0.0568569 -0.0946267 0.31943 0.00784314 0.239216 0.823529 12
-0.0654626 -0.105627 0.266982 0.898039 0.898039 0.898039 0
-0.0729648 -0.102627 0.219569 0.898039 0.917647 0.929412 10
-0.0737276 -0.105627 0.201373 0.898039 0.898039 0.898039 1
-0.0905984 -0.103444 0.349423 0.776471 0.756863 0.737255 5
-0.0882955 -0.0952497 0.328139 0.00784314 0.239216 0.823529 13
-0.0534854 -0.105627 0.386951 0.898039 0.898039 0.898039 1
-0.064355 -0.094735 0.317708 0.00784314 0.239216 0.823529 13
-0.0733654 -0.0951267 0.321343 0.00784314 0.239216 0.823529 12
-0.0793512 -0.102627 0.427122 0.898039 0.898039 0.898039 0
-0.0664451 -0.102627 0.377579 0.898039 0.917647 0.929412 10
-0.0756402 -0.105627 0.30256 0.898039 0.898039 0.898039 0
-0.0873721 -0.0970259 0.340088 0.00784314 0.239216 0.823529 13
