ply
format ascii 1.0
comment Created by Open3D
element vertex 675
property float32 x
property float32 y
property float32 z
property float32 red
property float32 green
property float32 blue
property float32 volume
property uint8 segmentation
end_header
0.017696 0.0286736 0.0436169 0.001462 0.000466 0.013866 5.73493e-06 0
0.0127511 0.0338516 0.0399803 0.001462 0.000466 0.013866 4.45127e-06 0
0.00474194 0.0259081 0.0375294 0.001462 0.000466 0.013866 3.12782e-06 0
0.00559075 0.0243094 0.0312623 0.001462 0.000466 0.013866 9.47358e-06 0
0.00498602 0.0282406 0.0287873 0.001462 0.000466 0.013866 4.81375e-06 0
0.008966 0.0369565 0.0388161 0.001462 0.000466 0.013866 1.79594e-06 0
0.0174882 0.0292733 0.038075 0.001462 0.000466 0.013866 8.76365e-07 0
0.00567681 0.0317991 0.0389801 0.001462 0.000466 0.013866 2.32963e-06 0
0.00576316 0.0321091 0.0471763 0.001462 0.000466 0.013866 1.32356e-05 0
0.00209591 0.0258454 0.0364317 0.001462 0.000466 0.013866 1.29784e-07 0
0.0047008 0.0285514 0.046381 0.001462 0.000466 0.013866 7.00322e-06 0
0.00930828 0.0332591 0.0431832 0.001462 0.000466 0.013866 8.03829e-07 0
0.00875939 0.032376 0.0411336 0.001462 0.000466 0.013866 5.73958e-06 0
0.00420657 0.0287124 0.0349971 0.001462 0.000466 0.013866 2.35765e-06 0
0.0101091 0.0342522 0.0355212 0.001462 0.000466 0.013866 3.10865e-06 0
0.00893493 0.0368928 0.0363915 0.001462 0.000466 0.013866 6.28056e-06 0
0.0157243 0.0307264 0.0416754 0.001462 0.000466 0.013866 5.52952e-06 0
0.0121791 0.0368158 0.0314267 0.001462 0.000466 0.013866 9.12722e-06 0
0.00830696 0.0314817 0.035043 0.001462 0.000466 0.013866 2.29895e-06 0
0.00708342 0.0289466 0.0315478 0.001462 0.000466 0.013866 6.13007e-06 0
0.0119452 0.0322578 0.0306443 0.001462 0.000466 0.013866 8.39615e-06 0
0.0100405 0.029746 0.0399925 0.001462 0.000466 0.013866 2.97043e-06 0
0.011577 0.0364922 0.0408506 0.001462 0.000466 0.013866 3.2936e-06 0
0.00717581 0.0342873 0.0391569 0.001462 0.000466 0.013866 3.5342e-06 0
0.0162599 0.0292888 0.0276265 0.001462 0.000466 0.013866 2.88193e-06 0
0.0044452 0.0294797 0.0371893 0.001462 0.000466 0.013866 2.80126e-06 0
0.0127929 0.0336371 0.0329184 0.001462 0.000466 0.013866 5.87686e-06 0
0.0042661 0.0280362 0.0384449 0.001462 0.000466 0.013866 2.95827e-06 0
0.00469346 0.029886 0.0334123 0.001462 0.000466 0.013866 3.58714e-06 0
0.00699478 0.0340479 0.0337595 0.001462 0.000466 0.013866 5.52228e-06 0
0.00731272 0.0263473 0.0333365 0.001462 0.000466 0.013866 6.88326e-06 0
0.0116919 0.0324706 0.0419502 0.001462 0.000466 0.013866 7.83586e-06 0
0.010572 0.0382047 0.0283249 0.001462 0.000466 0.013866 5.25432e-06 0
0.00823679 0.0243721 0.03236 0.001462 0.000466 0.013866 2.44402e-06 0
0.00878999 0.0321383 0.0314922 0.001462 0.000466 0.013866 7.64312e-06 0
0.00554004 0.0286518 0.0267799 0.001462 0.000466 0.013866 3.6272e-06 0
0.0056501 0.031859 0.0346553 0.001462 0.000466 0.013866 3.49445e-06 0
0.00278819 0.0285883 0.0278043 0.001462 0.000466 0.013866 7.69685e-07 0
0.0114307 0.0399467 0.0370278 0.001462 0.000466 0.013866 3.85797e-06 0
0.0117243 0.0389824 0.0267251 0.001462 0.000466 0.013866 2.29497e-06 0
0.00620487 0.0315372 0.0266409 0.001462 0.000466 0.013866 2.86875e-06 0
0.00877566 0.0357456 0.0266515 0.001462 0.000466 0.013866 3.05876e-06 0
0.0096964 0.0368184 0.026623 0.001462 0.000466 0.013866 2.18638e-06 0
0.00568734 0.0301895 0.026457 0.001462 0.000466 0.013866 1.54313e-06 0
0.0164623 0.0325262 0.0325862 0.001462 0.000466 0.013866 2.37986e-06 0
0.0129795 0.0399836 0.0392813 0.001462 0.000466 0.013866 1.09138e-06 0
0.0171074 0.0326815 0.0353257 0.001462 0.000466 0.013866 9.24588e-07 0
0.0186683 0.0407444 0.0467827 0.001462 0.000466 0.013866 2.10274e-05 0
0.0156717 0.0326723 0.0391212 0.001462 0.000466 0.013866 9.24588e-07 0
0.0245639 0.0371235 0.0355742 0.001462 0.000466 0.013866 8.20905e-06 0
0.0180178 0.0359671 0.0404228 0.001462 0.000466 0.013866 3.3913e-06 0
0.0184928 0.0382649 0.0327303 0.001462 0.000466 0.013866 2.48349e-06 0
0.0183615 0.0359186 0.0346206 0.001462 0.000466 0.013866 2.89291e-06 0
0.0200928 0.0321758 0.0479551 0.001462 0.000466 0.013866 4.0869e-06 0
0.0160922 0.0383599 0.0448843 0.001462 0.000466 0.013866 7.06017e-06 0
0.0187473 0.0359785 0.0422917 0.001462 0.000466 0.013866 4.28793e-06 0
0.017956 0.0298564 0.0316722 0.001462 0.000466 0.013866 9.18362e-06 0
0.0182173 0.0376982 0.0273811 0.001462 0.000466 0.013866 3.884e-06 0
0.0254512 0.0395019 0.0330922 0.001462 0.000466 0.013866 6.73103e-06 0
0.0216278 0.0384057 0.0350902 0.001462 0.000466 0.013866 8.87207e-06 0
0.0159354 0.0404664 0.030375 0.001462 0.000466 0.013866 4.40446e-06 0
0.0187231 0.0383211 0.0376682 0.001462 0.000466 0.013866 2.43538e-06 0
0.0154316 0.0405327 0.0354848 0.001462 0.000466 0.013866 6.23219e-06 0
0.0141488 0.0400103 0.0280665 0.001462 0.000466 0.013866 5.91122e-06 0
0.0180726 0.0283924 0.0361113 0.001462 0.000466 0.013866 4.8688e-06 0
0.0204747 0.0402406 0.0280486 0.001462 0.000466 0.013866 5.40245e-06 0
0.0166068 0.0358878 0.039883 0.001462 0.000466 0.013866 2.8434e-06 0
0.0207911 0.0407225 0.0307882 0.001462 0.000466 0.013866 3.09131e-06 0
0.0228696 0.0402529 0.0456616 0.001462 0.000466 0.013866 1.09724e-05 0
0.0275788 0.0407623 0.0329639 0.001462 0.000466 0.013866 7.00129e-07 0
0.022862 0.0402781 0.0403362 0.001462 0.000466 0.013866 9.22029e-06 0
0.0217363 0.0378817 0.0422753 0.001462 0.000466 0.013866 7.07993e-06 0
0.0178603 0.0357603 0.0308477 0.001462 0.000466 0.013866 7.50339e-06 0
0.0151181 0.0380496 0.0321353 0.001462 0.000466 0.013866 1.03968e-05 0
0.0197726 0.0359979 0.0351604 0.001462 0.000466 0.013866 3.42132e-06 0
0.0201908 0.0330859 0.042266 0.001462 0.000466 0.013866 1.06401e-06 0
0.0194896 0.0313062 0.0340762 0.001462 0.000466 0.013866 4.89765e-06 0
0.017312 0.0382418 0.0371283 0.001462 0.000466 0.013866 2.15174e-06 0
0.0164377 0.0360196 0.048361 0.001462 0.000466 0.013866 6.71434e-06 0
0.0174695 0.0321779 0.0398354 0.001462 0.000466 0.013866 3.19103e-06 0
0.0205783 0.0407288 0.0375979 0.001462 0.000466 0.013866 6.14166e-06 0
0.0194613 0.0330745 0.0403971 0.001462 0.000466 0.013866 8.41521e-07 0
0.0171299 0.038105 0.0318886 0.001462 0.000466 0.013866 6.63258e-07 0
0.0134585 0.0406868 0.043593 0.001462 0.000466 0.013866 7.85191e-06 0
0.0225151 0.040784 0.0326082 0.001462 0.000466 0.013866 7.29028e-06 0
0.0239953 0.0426492 0.0437224 0.001462 0.000466 0.013866 3.75372e-06 0
0.01354 0.0405217 0.0369193 0.001462 0.000466 0.013866 7.26028e-06 0
0.0186637 0.0292359 0.0483921 0.001462 0.000466 0.013866 1.26402e-05 0
0.0261234 0.0390207 0.0411534 0.001462 0.000466 0.013866 4.90514e-06 0
0.0316616 0.0309373 0.0340494 0.001462 0.000466 0.013866 5.066e-06 0
0.0214813 0.0322028 0.034638 0.001462 0.000466 0.013866 2.12784e-06 0
0.0313103 0.0285436 0.0394105 0.001462 0.000466 0.013866 1.04503e-06 0
0.0318947 0.0276627 0.0374469 0.001462 0.000466 0.013866 1.38798e-06 0
0.0291645 0.0274351 0.0417896 0.001462 0.000466 0.013866 8.99718e-06 0
0.0267294 0.0382923 0.0463222 0.001462 0.000466 0.013866 1.61388e-06 0
0.0274704 0.0330705 0.0455301 0.001462 0.000466 0.013866 2.86829e-06 0
0.0293455 0.0299237 0.0413952 0.001462 0.000466 0.013866 4.47248e-06 0
0.0325317 0.0292354 0.0352978 0.001462 0.000466 0.013866 4.74047e-06 0
0.0287108 0.0284457 0.0375394 0.001462 0.000466 0.013866 1.20428e-05 0
0.0260324 0.0352166 0.0395537 0.001462 0.000466 0.013866 2.62359e-06 0
0.0226135 0.0286875 0.0443445 0.001462 0.000466 0.013866 4.05283e-06 0
0.0285572 0.035779 0.0404702 0.001462 0.000466 0.013866 2.24175e-06 0
0.0267758 0.0381893 0.0388991 0.001462 0.000466 0.013866 6.40408e-06 0
0.0218753 0.0316333 0.03712 0.001462 0.000466 0.013866 8.13203e-07 0
0.0282494 0.031905 0.0441402 0.001462 0.000466 0.013866 2.51441e-06 0
0.0281842 0.0363601 0.0444568 0.001462 0.000466 0.013866 1.1304e-06 0
0.0324548 0.0291345 0.0448074 0.001462 0.000466 0.013866 4.01325e-06 0
0.0256548 0.0396003 0.0477893 0.001462 0.000466 0.013866 2.28418e-06 0
0.0263632 0.0347232 0.0427119 0.001462 0.000466 0.013866 1.4596e-06 0
0.0201708 0.0301365 0.0436457 0.001462 0.000466 0.013866 4.6953e-06 0
0.0204511 0.0287153 0.0368474 0.001462 0.000466 0.013866 7.46636e-06 0
0.0249977 0.0366243 0.0430925 0.001462 0.000466 0.013866 3.2048e-06 0
0.0248358 0.0319957 0.0285981 0.001462 0.000466 0.013866 8.20178e-06 0
0.0244048 0.0332699 0.0342651 0.001462 0.000466 0.013866 8.50433e-06 0
0.0251583 0.0321992 0.0438813 0.001462 0.000466 0.013866 5.81933e-06 0
0.0238384 0.0341609 0.0417954 0.001462 0.000466 0.013866 2.12673e-06 0
0.0303334 0.0321489 0.0281386 0.001462 0.000466 0.013866 1.61143e-05 0
0.0320543 0.0302057 0.0429388 0.001462 0.000466 0.013866 4.362e-06 0
0.0213687 0.0279848 0.0277869 0.001462 0.000466 0.013866 7.8548e-06 0
0.0303952 0.0330135 0.0417611 0.001462 0.000466 0.013866 4.25563e-06 0
0.0186011 0.0279983 0.0289867 0.001462 0.000466 0.013866 3.71141e-06 0
0.0247988 0.0327005 0.0367471 0.001462 0.000466 0.013866 3.25013e-06 0
0.0272056 0.0376875 0.0450117 0.001462 0.000466 0.013866 1.98153e-06 0
0.0294982 0.0343635 0.0392604 0.001462 0.000466 0.013866 5.33385e-06 0
0.0288704 0.0309888 0.0430312 0.001462 0.000466 0.013866 4.62434e-06 0
0.0193793 0.0292599 0.0461742 0.001462 0.000466 0.013866 1.99628e-06 0
0.0306363 0.0325474 0.0318058 0.001462 0.000466 0.013866 6.60254e-06 0
0.0286783 0.0355961 0.0452627 0.001462 0.000466 0.013866 1.80678e-06 0
0.0271535 0.0335714 0.0465328 0.001462 0.000466 0.013866 1.7408e-06 0
0.0244357 0.0332608 0.0482778 0.001462 0.000466 0.013866 7.88668e-06 0
0.0271054 0.0336151 0.0330986 0.001462 0.000466 0.013866 2.4092e-06 0
0.0270274 0.033813 0.0314454 0.001462 0.000466 0.013866 3.56577e-06 0
0.0282547 0.036326 0.0324518 0.001462 0.000466 0.013866 3.26621e-06 0
0.0284467 0.0316334 0.0361709 0.001462 0.000466 0.013866 5.63371e-06 0
0.029674 0.0341463 0.0371774 0.001462 0.000466 0.013866 2.43053e-06 0
0.0274994 0.0330457 0.0355806 0.001462 0.000466 0.013866 2.78175e-06 0
0.0068038 0.0217404 0.0610858 0.001462 0.000466 0.013866 1.93697e-05 0
0.0097258 0.0176179 0.0653619 0.001462 0.000466 0.013866 1.96127e-05 0
0.00454009 0.0260175 0.0517899 0.001462 0.000466 0.013866 4.32971e-06 0
0.00661472 0.0272016 0.0496716 0.001462 0.000466 0.013866 6.00791e-06 0
0.00753626 0.0250393 0.048818 0.001462 0.000466 0.013866 6.29036e-06 0
0.0109946 0.0242422 0.0574151 0.001462 0.000466 0.013866 4.44785e-06 0
0.0102095 0.025241 0.0506187 0.001462 0.000466 0.013866 4.33787e-06 0
0.00512552 0.0249473 0.064462 0.001462 0.000466 0.013866 1.99923e-05 0
0.0130444 0.0212762 0.0570921 0.001462 0.000466 0.013866 6.74976e-06 0
0.00990982 0.0214577 0.0642762 0.001462 0.000466 0.013866 1.58411e-05 0
0.0158569 0.0263699 0.064519 0.001462 0.000466 0.013866 2.8509e-06 0
0.00890192 0.0230529 0.0543432 0.001462 0.000466 0.013866 1.10892e-06 0
0.0153093 0.0242137 0.0619219 0.001462 0.000466 0.013866 5.07044e-06 0
0.00845401 0.0237209 0.0571348 0.001462 0.000466 0.013866 1.1766e-05 0
0.0103864 0.0208152 0.0526065 0.001462 0.000466 0.013866 4.20389e-06 0
0.0167059 0.0271122 0.0608606 0.001462 0.000466 0.013866 1.59025e-05 0
0.00726651 0.0211225 0.0526347 0.001462 0.000466 0.013866 6.272e-06 0
0.00813488 0.0240569 0.052737 0.001462 0.000466 0.013866 1.91996e-06 0
0.0151998 0.0279047 0.0539941 0.001462 0.000466 0.013866 3.3535e-07 0
0.0175561 0.0263286 0.054147 0.001462 0.000466 0.013866 1.98574e-06 0
0.00546164 0.0238552 0.0509363 0.001462 0.000466 0.013866 3.70251e-06 0
0.0120172 0.0227729 0.0601921 0.001462 0.000466 0.013866 1.05357e-05 0
0.00498416 0.0285019 0.0545437 0.001462 0.000466 0.013866 5.24808e-06 0
0.0109661 0.0200009 0.0506737 0.001462 0.000466 0.013866 4.22918e-06 0
0.0157795 0.0270904 0.0520613 0.001462 0.000466 0.013866 4.28869e-06 0
0.0134407 0.0264657 0.0517474 0.001462 0.000466 0.013866 2.13688e-06 0
0.0157556 0.0148365 0.0727415 0.001462 0.000466 0.013866 1.18455e-05 0
0.0167661 0.0172205 0.0714556 0.001462 0.000466 0.013866 9.39281e-07 0
0.0177524 0.0256809 0.0563627 0.001462 0.000466 0.013866 5.11438e-06 0
0.0167447 0.0172201 0.0696967 0.001462 0.000466 0.013866 9.9496e-06 0
0.0177414 0.0226477 0.055845 0.001462 0.000466 0.013866 1.77248e-06 0
0.014994 0.0196076 0.0704471 0.001462 0.000466 0.013866 2.38372e-06 0
0.0157039 0.0227117 0.0710019 0.001462 0.000466 0.013866 7.58318e-07 0
0.0182332 0.0233535 0.054232 0.001462 0.000466 0.013866 2.52686e-07 0
0.011175 0.0157409 0.0616407 0.001462 0.000466 0.013866 8.24372e-06 0
0.013893 0.01484 0.0630101 0.001462 0.000466 0.013866 1.47871e-05 0
0.0200404 0.0195566 0.0674421 0.001462 0.000466 0.013866 7.61462e-06 0
0.0191338 0.0194777 0.0572452 0.001462 0.000466 0.013866 5.215e-06 0
0.0202116 0.0227077 0.0674718 0.001462 0.000466 0.013866 2.4503e-06 0
0.023934 0.0159575 0.0605229 0.001462 0.000466 0.013866 5.72717e-06 0
0.0151042 0.0171831 0.0588245 0.001462 0.000466 0.013866 1.36022e-05 0
0.0244787 0.0154997 0.0648521 0.001462 0.000466 0.013866 5.06433e-06 0
0.017729 0.019547 0.0602221 0.001462 0.000466 0.013866 9.18329e-06 0
0.0238837 0.0159433 0.0559445 0.001462 0.000466 0.013866 1.13202e-05 0
0.0123862 0.018084 0.0574551 0.001462 0.000466 0.013866 7.64731e-06 0
0.0163365 0.022717 0.058822 0.001462 0.000466 0.013866 3.21069e-06 0
0.0196205 0.0233539 0.0563011 0.001462 0.000466 0.013866 3.01751e-06 0
0.0188014 0.0257159 0.0694156 0.001462 0.000466 0.013866 4.96967e-06 0
0.0227166 0.0182834 0.0584356 0.001462 0.000466 0.013866 9.22257e-06 0
0.0212823 0.0171551 0.0650694 0.001462 0.000466 0.013866 3.43513e-06 0
0.0203373 0.0171763 0.062551 0.001462 0.000466 0.013866 6.00756e-06 0
0.0177388 0.0148328 0.0646676 0.001462 0.000466 0.013866 1.17865e-05 0
0.0251011 0.0136173 0.0580318 0.001462 0.000466 0.013866 5.02658e-06 0
0.0186838 0.0148115 0.067186 0.001462 0.000466 0.013866 1.17462e-05 0
0.0203009 0.0171375 0.0547541 0.001462 0.000466 0.013866 6.71717e-06 0
0.0176725 0.0148188 0.0551839 0.001462 0.000466 0.013866 1.26847e-05 0
0.0112334 0.0419409 0.0776419 0.001462 0.000466 0.013866 2.98044e-06 0
0.00947723 0.0380204 0.0632914 0.001462 0.000466 0.013866 3.10596e-06 0
0.0183008 0.0279039 0.0715091 0.001462 0.000466 0.013866 5.80878e-07 0
0.0165198 0.0308525 0.0694868 0.001462 0.000466 0.013866 2.58405e-06 0
0.0101155 0.0346334 0.0785206 0.001462 0.000466 0.013866 6.64963e-06 0
0.0146152 0.0303418 0.0801158 0.001462 0.000466 0.013866 3.65861e-07 0
0.0108419 0.0313367 0.0698972 0.001462 0.000466 0.013866 3.82336e-06 0
0.0153889 0.0315503 0.0616918 0.001462 0.000466 0.013866 5.06192e-06 0
0.0144767 0.0383279 0.0754908 0.001462 0.000466 0.013866 5.19197e-06 0
0.0124576 0.0395356 0.0786892 0.001462 0.000466 0.013866 7.03512e-06 0
0.0153654 0.0286499 0.0698109 0.001462 0.000466 0.013866 5.57143e-06 0
0.0114563 0.0420749 0.0681557 0.001462 0.000466 0.013866 5.58129e-06 0
0.0182667 0.0277965 0.0635763 0.001462 0.000466 0.013866 1.47394e-06 0
0.0151878 0.0278183 0.0737989 0.001462 0.000466 0.013866 2.12478e-06 0
0.00996119 0.0385616 0.0723696 0.001462 0.000466 0.013866 5.30097e-06 0
0.00775198 0.0308526 0.0688419 0.001462 0.000466 0.013866 1.09276e-05 0
0.01285 0.0342807 0.0692936 0.001462 0.000466 0.013866 2.95107e-06 0
0.0126665 0.039697 0.0708916 0.001462 0.000466 0.013866 7.21461e-06 0
0.0118533 0.0328321 0.0678296 0.001462 0.000466 0.013866 6.79242e-06 0
0.0118062 0.03271 0.0759646 0.001462 0.000466 0.013866 5.42608e-06 0
0.0107922 0.0312939 0.0747153 0.001462 0.000466 0.013866 2.43274e-06 0
0.00970868 0.0340454 0.0723743 0.001462 0.000466 0.013866 3.55515e-06 0
0.0107214 0.0355011 0.0719651 0.001462 0.000466 0.013866 3.12569e-06 0
0.0100263 0.0384071 0.0797123 0.001462 0.000466 0.013866 5.58602e-06 0
0.0066886 0.0335013 0.0746653 0.001462 0.000466 0.013866 9.72056e-06 0
0.0148414 0.0293941 0.0590947 0.001462 0.000466 0.013866 7.58541e-06 0
0.0134652 0.0292656 0.075128 0.001462 0.000466 0.013866 1.88275e-06 0
0.00526588 0.0310625 0.0728036 0.001462 0.000466 0.013866 1.91892e-05 0
0.0124241 0.0330751 0.0798886 0.001462 0.000466 0.013866 3.25827e-06 0
0.00689121 0.0323205 0.0826527 0.001462 0.000466 0.013866 1.08216e-05 0
0.0120689 0.0372307 0.0747644 0.001462 0.000466 0.013866 5.05862e-06 0
0.00663146 0.0334342 0.0793599 0.001462 0.000466 0.013866 9.70819e-06 0
0.0111978 0.0317385 0.0607961 0.001462 0.000466 0.013866 1.00485e-05 0
0.0146433 0.031559 0.0684184 0.001462 0.000466 0.013866 1.54575e-06 0
0.0138882 0.0373709 0.0686221 0.001462 0.000466 0.013866 8.31527e-06 0
0.0128291 0.0341702 0.07436 0.001462 0.000466 0.013866 2.98282e-06 0
0.0101931 0.0302475 0.0583321 0.001462 0.000466 0.013866 5.33744e-06 0
0.0101836 0.0347928 0.064679 0.001462 0.000466 0.013866 8.44834e-06 0
0.0172534 0.0292685 0.0634577 0.001462 0.000466 0.013866 1.03493e-06 0
0.00777213 0.0307498 0.0770063 0.001462 0.000466 0.013866 6.68238e-06 0
0.0124513 0.0278496 0.0738787 0.001462 0.000466 0.013866 8.44114e-07 0
0.00880214 0.0408125 0.0786651 0.001462 0.000466 0.013866 2.52842e-07 0
0.0123468 0.0395879 0.076504 0.001462 0.000466 0.013866 3.21522e-06 0
0.00740693 0.0349191 0.063035 0.001462 0.000466 0.013866 5.72676e-06 0
0.0163144 0.0286479 0.0664239 0.001462 0.000466 0.013866 2.75353e-06 0
0.00951211 0.0336675 0.062113 0.001462 0.000466 0.013866 2.05381e-06 0
0.00243751 0.0287744 0.0578175 0.001462 0.000466 0.013866 6.32326e-06 0
0.00500373 0.0285451 0.0613309 0.001462 0.000466 0.013866 1.84816e-05 0
0.0144723 0.0408491 0.0636443 0.001462 0.000466 0.013866 5.06592e-06 0
0.012678 0.0397487 0.0658861 0.001462 0.000466 0.013866 1.22507e-05 0
0.00598671 0.0324743 0.0651303 0.001462 0.000466 0.013866 1.47064e-05 0
0.00755038 0.0282726 0.0580571 0.001462 0.000466 0.013866 1.26728e-05 0
0.0103995 0.0391323 0.0634994 0.001462 0.000466 0.013866 3.61385e-06 0
0.0304123 0.0181265 0.067269 0.001462 0.000466 0.013866 1.79839e-07 0
0.0323002 0.0287956 0.0676139 0.001462 0.000466 0.013866 4.98101e-06 0
0.0257737 0.0243882 0.0650386 0.001462 0.000466 0.013866 8.90982e-06 0
0.0201432 0.0270899 0.0646447 0.001462 0.000466 0.013866 7.90104e-06 0
0.0278031 0.0228916 0.0580043 0.001462 0.000466 0.013866 3.83792e-06 0
0.0297921 0.0264444 0.0711383 0.001462 0.000466 0.013866 5.26033e-06 0
0.0226106 0.0269822 0.0596969 0.001462 0.000466 0.013866 3.89572e-06 0
0.0266414 0.025575 0.0575085 0.001462 0.000466 0.013866 2.21843e-06 0
0.0263033 0.016668 0.0618155 0.001462 0.000466 0.013866 4.45209e-06 0
0.0319944 0.0256432 0.0578425 0.001462 0.000466 0.013866 3.85889e-06 0
0.0197143 0.0277754 0.0582114 0.001462 0.000466 0.013866 1.0048e-05 0
0.0300338 0.027105 0.058288 0.001462 0.000466 0.013866 1.42636e-06 0
0.0303961 0.0181045 0.0642114 0.001462 0.000466 0.013866 2.97271e-07 0
0.0315522 0.0244631 0.0621483 0.001462 0.000466 0.013866 3.88097e-06 0
0.0265161 0.0212987 0.0688836 0.001462 0.000466 0.013866 3.47961e-06 0
0.0268012 0.0258766 0.0670486 0.001462 0.000466 0.013866 4.10875e-06 0
0.02069 0.0249554 0.0667442 0.001462 0.000466 0.013866 5.12622e-06 0
0.026114 0.0205278 0.0612753 0.001462 0.000466 0.013866 6.63899e-06 0
0.0270267 0.0219688 0.0637831 0.001462 0.000466 0.013866 3.97786e-06 0
0.0234079 0.0210523 0.0672545 0.001462 0.000466 0.013866 5.26229e-06 0
0.0265371 0.0212684 0.0662511 0.001462 0.000466 0.013866 9.12483e-06 0
0.030024 0.0270697 0.063397 0.001462 0.000466 0.013866 2.82636e-06 0
0.023123 0.0264198 0.0653143 0.001462 0.000466 0.013866 3.38539e-06 0
0.0325334 0.0269375 0.0655439 0.001462 0.000466 0.013866 2.14916e-06 0
0.0248107 0.0228648 0.0587302 0.001462 0.000466 0.013866 5.80059e-06 0
0.0295874 0.0259248 0.0648842 0.001462 0.000466 0.013866 2.98635e-06 0
0.0294778 0.0257055 0.0591447 0.001462 0.000466 0.013866 1.98244e-06 0
0.0320968 0.0257925 0.0670311 0.001462 0.000466 0.013866 4.29832e-06 0
0.0292222 0.0207742 0.0629045 0.001462 0.000466 0.013866 9.87408e-06 0
0.0232367 0.0179012 0.0672248 0.001462 0.000466 0.013866 8.41136e-06 0
0.0304194 0.0224321 0.0612464 0.001462 0.000466 0.013866 7.21193e-06 0
0.0256754 0.0131706 0.0671911 0.001462 0.000466 0.013866 1.05761e-06 0
0.0262649 0.0305031 0.0527429 0.001462 0.000466 0.013866 7.46234e-06 0
0.0297907 0.0289279 0.065467 0.001462 0.000466 0.013866 6.45212e-06 0
0.0320873 0.0283287 0.059129 0.001462 0.000466 0.013866 5.2287e-06 0
0.0287632 0.0310385 0.0646866 0.001462 0.000466 0.013866 5.40879e-06 0
0.0323446 0.0290286 0.0506425 0.001462 0.000466 0.013866 6.61075e-06 0
0.0274822 0.0330335 0.0551775 0.001462 0.000466 0.013866 5.78676e-06 0
0.0286402 0.0356383 0.0621944 0.001462 0.000466 0.013866 1.04805e-05 0
0.0283971 0.035939 0.0541465 0.001462 0.000466 0.013866 5.68582e-06 0
0.0215167 0.0321763 0.0500355 0.001462 0.000466 0.013866 1.86757e-06 0
0.0318442 0.0302145 0.0560507 0.001462 0.000466 0.013866 4.00959e-06 0
0.0256635 0.0312667 0.0626815 0.001462 0.000466 0.013866 7.28009e-06 0
0.0236736 0.0284868 0.053091 0.001462 0.000466 0.013866 2.79593e-06 0
0.0305614 0.0327763 0.0457891 0.001462 0.000466 0.013866 1.41108e-06 0
0.0320837 0.0282937 0.0608536 0.001462 0.000466 0.013866 9.73013e-07 0
0.0219664 0.0299281 0.0525529 0.001462 0.000466 0.013866 2.07451e-06 0
0.0236444 0.0284709 0.0583226 0.001462 0.000466 0.013866 1.5145e-06 0
0.0310821 0.0319848 0.0485007 0.001462 0.000466 0.013866 2.80922e-06 0
0.0297945 0.0289911 0.0531813 0.001462 0.000466 0.013866 5.70609e-06 0
0.0271798 0.0334086 0.0517119 0.001462 0.000466 0.013866 7.50983e-06 0
0.027461 0.0330081 0.0598085 0.001462 0.000466 0.013866 2.75148e-06 0
0.0319295 0.030262 0.0483537 0.001462 0.000466 0.013866 4.8139e-06 0
0.0243945 0.0332342 0.0572267 0.001462 0.000466 0.013866 8.01443e-06 0
0.0225762 0.0285544 0.0632148 0.001462 0.000466 0.013866 5.2179e-06 0
0.0305507 0.0328075 0.0566652 0.001462 0.000466 0.013866 4.59829e-06 0
0.0318505 0.0301519 0.0629236 0.001462 0.000466 0.013866 7.46915e-06 0
0.0214661 0.0321448 0.0562824 0.001462 0.000466 0.013866 1.84902e-06 0
0.0219392 0.0299123 0.0566905 0.001462 0.000466 0.013866 3.24654e-06 0
0.0219626 0.0299279 0.0545813 0.001462 0.000466 0.013866 6.6288e-07 0
0.0254075 0.0317844 0.0589675 0.001462 0.000466 0.013866 4.16873e-06 0
0.0297929 0.0289811 0.0577315 0.001462 0.000466 0.013866 3.05492e-06 0
0.0284994 0.0315741 0.058346 0.001462 0.000466 0.013866 3.53181e-06 0
0.0346003 0.0282314 0.0595514 0.001462 0.000466 0.013866 8.10191e-07 0
0.026485 0.0385394 0.0539046 0.001462 0.000466 0.013866 3.86469e-06 0
0.0270709 0.0378298 0.0501441 0.001462 0.000466 0.013866 1.63835e-06 0
0.0259963 0.0391378 0.0516112 0.001462 0.000466 0.013866 2.3028e-06 0
0.0251644 0.0363895 0.048419 0.001462 0.000466 0.013866 3.3889e-06 0
0.0306239 0.0370152 0.0524975 0.001462 0.000466 0.013866 1.79664e-07 0
0.0294066 0.0344848 0.0500629 0.001462 0.000466 0.013866 5.83615e-06 0
0.0240898 0.0376975 0.0498861 0.001462 0.000466 0.013866 4.06167e-06 0
0.0301944 0.0333395 0.0487021 0.001462 0.000466 0.013866 3.53257e-06 0
0.0263422 0.0347011 0.0500029 0.001462 0.000466 0.013866 3.30069e-06 0
0.0163831 0.0359803 0.0747321 0.001462 0.000466 0.013866 2.36363e-06 0
0.0156425 0.0329284 0.0731992 0.001462 0.000466 0.013866 6.71575e-07 0
0.0184137 0.0384094 0.0741666 0.001462 0.000466 0.013866 4.57088e-06 0
0.0182622 0.0376476 0.0810652 0.001462 0.000466 0.013866 1.44569e-06 0
0.0258031 0.0395583 0.0739354 0.001462 0.000466 0.013866 6.75525e-06 0
0.0198623 0.0402945 0.0815521 0.001462 0.000466 0.013866 2.86422e-06 0
0.0245122 0.0371579 0.0659068 0.001462 0.000466 0.013866 6.61877e-06 0
0.016962 0.0379905 0.0806571 0.001462 0.000466 0.013866 1.45391e-06 0
0.0299424 0.0336688 0.0670725 0.001462 0.000466 0.013866 9.44198e-06 0
0.0150509 0.0407629 0.0733676 0.001462 0.000466 0.013866 7.56949e-06 0
0.0170988 0.0329225 0.074757 0.001462 0.000466 0.013866 1.51609e-06 0
0.0267502 0.0382463 0.0628683 0.001462 0.000466 0.013866 1.07603e-05 0
0.0247006 0.0394765 0.0562234 0.001462 0.000466 0.013866 9.92224e-06 0
0.0208703 0.0329759 0.0718774 0.001462 0.000466 0.013866 8.25861e-07 0
0.0257364 0.0395538 0.0679364 0.001462 0.000466 0.013866 6.56379e-06 0
0.0230925 0.0383756 0.0740634 0.001462 0.000466 0.013866 2.12347e-06 0
0.0181092 0.0384168 0.059388 0.001462 0.000466 0.013866 5.65717e-06 0
0.0217722 0.0383872 0.0552791 0.001462 0.000466 0.013866 2.79983e-06 0
0.0222115 0.0407769 0.0720408 0.001462 0.000466 0.013866 9.58979e-06 0
0.0180851 0.0356535 0.0793827 0.001462 0.000466 0.013866 2.44594e-06 0
0.023525 0.0370768 0.0585146 0.001462 0.000466 0.013866 9.61122e-06 0
0.0171369 0.0329608 0.0562794 0.001462 0.000466 0.013866 1.00928e-06 0
0.0190409 0.0307054 0.056299 0.001462 0.000466 0.013866 6.00809e-06 0
0.0258791 0.0418586 0.0583851 0.001462 0.000466 0.013866 2.71626e-06 0
0.0177973 0.0300546 0.0733741 0.001462 0.000466 0.013866 5.48479e-06 0
0.0247035 0.0394588 0.0606763 0.001462 0.000466 0.013866 3.15566e-06 0
0.0171151 0.0299968 0.0751802 0.001462 0.000466 0.013866 4.33544e-06 0
0.0203267 0.0407259 0.0789083 0.001462 0.000466 0.013866 2.05013e-06 0
0.0268427 0.033897 0.0650674 0.001462 0.000466 0.013866 1.09987e-05 0
0.0245777 0.0371723 0.0718485 0.001462 0.000466 0.013866 6.58028e-06 0
0.0201423 0.0329811 0.066402 0.001462 0.000466 0.013866 1.55752e-06 0
0.0181129 0.0360838 0.0687864 0.001462 0.000466 0.013866 2.74027e-06 0
0.0194127 0.0330215 0.0686612 0.001462 0.000466 0.013866 7.31656e-07 0
0.0183221 0.0279419 0.0709677 0.001462 0.000466 0.013866 1.04555e-06 0
0.01564 0.0330077 0.0698824 0.001462 0.000466 0.013866 6.71575e-07 0
0.0224655 0.0383704 0.0637148 0.001462 0.000466 0.013866 4.29189e-06 0
0.0171391 0.0399845 0.0823396 0.001462 0.000466 0.013866 7.49452e-07 0
0.0169573 0.0384154 0.0726089 0.001462 0.000466 0.013866 3.02729e-06 0
0.0195705 0.0360382 0.0720026 0.001462 0.000466 0.013866 3.09309e-06 0
0.0170613 0.040646 0.0800155 0.001462 0.000466 0.013866 1.64593e-06 0
0.0188425 0.0360434 0.0665272 0.001462 0.000466 0.013866 5.83336e-06 0
0.0241505 0.0279082 0.0673243 0.001462 0.000466 0.013866 1.56117e-06 0
0.0174405 0.0384241 0.0573874 0.001462 0.000466 0.013866 1.64496e-06 0
0.0184395 0.0304064 0.0789755 0.001462 0.000466 0.013866 2.57864e-06 0
0.0166781 0.0360979 0.0692109 0.001462 0.000466 0.013866 2.34302e-06 0
0.0162113 0.0402475 0.0810527 0.001462 0.000466 0.013866 3.18204e-07 0
0.0178395 0.0359744 0.0762898 0.001462 0.000466 0.013866 5.33592e-06 0
0.0210306 0.0383972 0.0739757 0.001462 0.000466 0.013866 6.3818e-06 0
0.0267034 0.0298146 0.0672299 0.001462 0.000466 0.013866 4.63071e-06 0
0.0181023 0.0384402 0.061857 0.001462 0.000466 0.013866 4.17388e-06 0
0.02165 0.0407862 0.0676339 0.001462 0.000466 0.013866 9.3122e-06 0
0.0243179 0.0407616 0.0761504 0.001462 0.000466 0.013866 2.2024e-06 0
0.0191657 0.0360104 0.0579588 0.001462 0.000466 0.013866 3.50633e-06 0
0.0189899 0.038444 0.0643704 0.001462 0.000466 0.013866 4.71247e-06 0
0.0205966 0.0359875 0.0575702 0.001462 0.000466 0.013866 3.05486e-06 0
0.0198738 0.0407684 0.0761398 0.001462 0.000466 0.013866 8.58009e-06 0
0.0187242 0.0300745 0.0654812 0.001462 0.000466 0.013866 7.26994e-06 0
0.0204259 0.0383903 0.0656043 0.001462 0.000466 0.013866 4.28538e-06 0
0.0163913 0.0330154 0.0590284 0.001462 0.000466 0.013866 2.11361e-06 0
0.0237724 0.0341155 0.0676711 0.001462 0.000466 0.013866 3.37851e-06 0
0.0200236 0.0407853 0.0568168 0.001462 0.000466 0.013866 9.21664e-06 0
0.0169812 0.0315869 0.0676217 0.001462 0.000466 0.013866 3.70903e-06 0
0.0165259 0.03607 0.0603109 0.001462 0.000466 0.013866 7.1466e-06 0
0.0172646 0.0408577 0.0637989 0.001462 0.000466 0.013866 9.0446e-06 0
0.0181843 0.038309 0.0787412 0.001462 0.000466 0.013866 1.87001e-06 0
0.0236897 0.0407663 0.0657444 0.001462 0.000466 0.013866 4.26117e-06 0
0.0177081 0.0221662 0.0858587 0.001462 0.000466 0.013866 8.43562e-06 0
0.0223584 0.0232822 0.0887925 0.001462 0.000466 0.013866 8.07566e-06 0
0.0270719 0.027179 0.0842514 0.001462 0.000466 0.013866 7.11659e-06 0
0.0241427 0.0350099 0.0829359 0.001462 0.000466 0.013866 7.36927e-06 0
0.0244246 0.0321625 0.0880719 0.001462 0.000466 0.013866 1.22876e-05 0
0.0244118 0.0252911 0.0820273 0.001462 0.000466 0.013866 7.19711e-06 0
0.020004 0.0194015 0.0870945 0.001462 0.000466 0.013866 1.05335e-05 0
0.0254354 0.021543 0.086549 0.001462 0.000466 0.013866 7.94667e-06 0
0.026568 0.0196495 0.084383 0.001462 0.000466 0.013866 7.71537e-06 0
0.0246388 0.0285958 0.0887437 0.001462 0.000466 0.013866 7.99529e-06 0
0.0198202 0.0291793 0.0802933 0.001462 0.000466 0.013866 3.97811e-06 0
0.030642 0.0267894 0.0839882 0.001462 0.000466 0.013866 6.9164e-06 0
0.0230321 0.0230121 0.085488 0.001462 0.000466 0.013866 1.75934e-06 0
0.0278082 0.0296442 0.0827922 0.001462 0.000466 0.013866 4.05992e-06 0
0.030245 0.0237001 0.0826093 0.001462 0.000466 0.013866 8.64262e-06 0
0.018932 0.0253549 0.0845455 0.001462 0.000466 0.013866 5.7947e-06 0
0.0244837 0.0245456 0.0852995 0.001462 0.000466 0.013866 5.4313e-06 0
0.021228 0.0225902 0.0857813 0.001462 0.000466 0.013866 7.30747e-06 0
0.0271437 0.0264334 0.0875236 0.001462 0.000466 0.013866 5.64263e-06 0
0.0195329 0.036659 0.0829974 0.001462 0.000466 0.013866 6.82087e-06 0
0.0147659 0.04023 0.0810169 0.001462 0.000466 0.013866 4.55401e-06 0
0.0106669 0.0360911 0.0851356 0.001462 0.000466 0.013866 6.08733e-06 0
0.010006 0.0286432 0.0843959 0.001462 0.000466 0.013866 9.17983e-06 0
0.0187392 0.0426314 0.0828264 0.001462 0.000466 0.013866 2.4884e-07 0
0.0127437 0.0305277 0.0827633 0.001462 0.000466 0.013866 5.4168e-06 0
0.0123349 0.0368488 0.0810803 0.001462 0.000466 0.013866 2.75739e-06 0
0.0207364 0.033438 0.0826327 0.001462 0.000466 0.013866 6.25674e-06 0
0.0100117 0.0278309 0.0877348 0.001462 0.000466 0.013866 8.10558e-06 0
0.012858 0.0333578 0.0853628 0.001462 0.000466 0.013866 2.9882e-06 0
0.0160086 0.0326382 0.0863143 0.001462 0.000466 0.013866 6.86503e-06 0
0.015308 0.0227879 0.0889058 0.001462 0.000466 0.013866 7.39779e-06 0
0.0156931 0.028882 0.0803282 0.001462 0.000466 0.013866 5.25471e-07 0
0.0164304 0.0266699 0.0898738 0.001462 0.000466 0.013866 6.83901e-06 0
0.0161492 0.0360972 0.0866653 0.001462 0.000466 0.013866 8.79289e-06 0
0.0105526 0.0332609 0.0825361 0.001462 0.000466 0.013866 8.06763e-06 0
0.0213051 0.0269781 0.0898242 0.001462 0.000466 0.013866 6.65688e-06 0
0.0138511 0.0294403 0.0889786 0.001462 0.000466 0.013866 1.28197e-05 0
0.0182991 0.0300016 0.0850864 0.001462 0.000466 0.013866 3.66069e-06 0
0.0139598 0.0330828 0.0882392 0.001462 0.000466 0.013866 8.80511e-06 0
0.0170746 0.0260274 0.0805663 0.001462 0.000466 0.013866 2.64574e-06 0
0.0170382 0.0274923 0.0792347 0.001462 0.000466 0.013866 2.32656e-06 0
0.0150979 0.0426006 0.0821906 0.001462 0.000466 0.013866 4.97679e-07 0
0.016112 0.037592 0.0816943 0.001462 0.000466 0.013866 4.86372e-07 0
0.0193569 0.0360916 0.086697 0.001462 0.000466 0.013866 9.98153e-06 0
0.0184015 0.0276807 0.0817255 0.001462 0.000466 0.013866 2.65195e-06 0
0.0188296 0.0276758 0.0879065 0.001462 0.000466 0.013866 5.15496e-06 0
0.0205604 0.0328705 0.0863324 0.001462 0.000466 0.013866 7.71843e-06 0
0.021133 0.0393059 0.0834842 0.001462 0.000466 0.013866 7.00779e-06 0
0.012512 0.0388428 0.0827628 0.001462 0.000466 0.013866 2.51159e-06 0
0.0127155 0.0378993 0.0841706 0.001462 0.000466 0.013866 5.66491e-06 0
0.0182696 0.0377599 0.0885201 0.001462 0.000466 0.013866 3.04695e-06 0
0.0146666 0.0375745 0.0816585 0.001462 0.000466 0.013866 1.86688e-06 0
0.0114247 0.0405111 0.0845858 0.001462 0.000466 0.013866 1.63836e-06 0
0.0242872 0.0222834 0.0778931 0.001462 0.000466 0.013866 6.97214e-06 0
0.0219778 0.0271177 0.0746433 0.001462 0.000466 0.013866 5.08688e-06 0
0.0279935 0.023237 0.074686 0.001462 0.000466 0.013866 1.33698e-05 0
0.026949 0.0217791 0.0731881 0.001462 0.000466 0.013866 5.55541e-06 0
0.0293873 0.0170061 0.0699544 0.001462 0.000466 0.013866 7.32414e-07 0
0.0248643 0.0230209 0.0756893 0.001462 0.000466 0.013866 4.9083e-06 0
0.0219183 0.0242091 0.0732232 0.001462 0.000466 0.013866 1.08802e-06 0
0.0214007 0.0263801 0.0768471 0.001462 0.000466 0.013866 4.33171e-06 0
0.0313783 0.0292546 0.082529 0.001462 0.000466 0.013866 5.25214e-06 0
0.0189606 0.0277972 0.07687 0.001462 0.000466 0.013866 6.10442e-06 0
0.0266757 0.0224621 0.0817928 0.001462 0.000466 0.013866 6.75865e-06 0
0.0298202 0.0174865 0.0742588 0.001462 0.000466 0.013866 1.20952e-06 0
0.0253835 0.0163797 0.080629 0.001462 0.000466 0.013866 7.13778e-06 0
0.0244443 0.0184938 0.0774745 0.001462 0.000466 0.013866 5.90774e-06 0
0.0251187 0.0173566 0.0836378 0.001462 0.000466 0.013866 4.55479e-06 0
0.0309857 0.0237374 0.0777063 0.001462 0.000466 0.013866 2.02812e-05 0
0.026793 0.0258762 0.0714594 0.001462 0.000466 0.013866 3.80383e-06 0
0.0271546 0.0182092 0.0704079 0.001462 0.000466 0.013866 1.44966e-05 0
0.0213411 0.0234715 0.0754269 0.001462 0.000466 0.013866 1.54551e-06 0
0.0264798 0.0420385 0.0802494 0.001462 0.000466 0.013866 4.58406e-07 0
0.0202199 0.0285927 0.0728602 0.001462 0.000466 0.013866 6.41973e-06 0
0.0231534 0.0293583 0.0737777 0.001462 0.000466 0.013866 2.56547e-06 0
0.0238157 0.0341317 0.0716356 0.001462 0.000466 0.013866 3.37851e-06 0
0.0213955 0.0308333 0.0719946 0.001462 0.000466 0.013866 3.1185e-06 0
0.0249111 0.0396319 0.081187 0.001462 0.000466 0.013866 1.89875e-06 0
0.0194764 0.0301445 0.0706436 0.001462 0.000466 0.013866 5.54094e-07 0
0.0278787 0.0324446 0.0717363 0.001462 0.000466 0.013866 8.00607e-06 0
0.0257538 0.0410022 0.0838652 0.001462 0.000466 0.013866 1.04434e-06 0
0.025276 0.0396606 0.0801447 0.001462 0.000466 0.013866 1.73582e-06 0
0.0245395 0.0386251 0.0828276 0.001462 0.000466 0.013866 7.11939e-06 0
0.030525 0.0328409 0.0749044 0.001462 0.000466 0.013866 1.04201e-05 0
0.0267507 0.0384581 0.0769969 0.001462 0.000466 0.013866 9.62591e-06 0
0.0267291 0.0340094 0.0854988 0.001462 0.000466 0.013866 1.19658e-05 0
0.029779 0.0288925 0.0716024 0.001462 0.000466 0.013866 6.10541e-06 0
0.0295971 0.0343648 0.0779903 0.001462 0.000466 0.013866 1.15334e-05 0
0.0218275 0.0407173 0.0800367 0.001462 0.000466 0.013866 2.05013e-06 0
0.0322989 0.0262446 0.0743362 0.001462 0.000466 0.013866 8.38057e-06 0
0.0220829 0.028021 0.0795478 0.001462 0.000466 0.013866 3.25816e-06 0
0.0265319 0.0346295 0.07697 0.001462 0.000466 0.013866 1.16297e-05 0
0.0289517 0.0323745 0.083841 0.001462 0.000466 0.013866 7.44392e-06 0
0.024285 0.0321888 0.0803356 0.001462 0.000466 0.013866 6.524e-06 0
0.0273502 0.0319242 0.0813559 0.001462 0.000466 0.013866 6.09514e-06 0
0.0234698 0.0407356 0.0803283 0.001462 0.000466 0.013866 1.71859e-06 0
0.0241423 0.0279078 0.0717351 0.001462 0.000466 0.013866 1.44531e-06 0
0.0248223 0.032689 0.0736956 0.001462 0.000466 0.013866 8.27727e-06 0
0.0318483 0.0300106 0.0780068 0.001462 0.000466 0.013866 8.80065e-06 0
0.0266952 0.0298141 0.0716407 0.001462 0.000466 0.013866 4.28706e-06 0
0.0322857 0.0286927 0.0748003 0.001462 0.000466 0.013866 9.59346e-06 0
0.0252655 0.0396614 0.0792118 0.001462 0.000466 0.013866 1.65103e-06 0
0.022143 0.0148763 0.0740605 0.001462 0.000466 0.013866 5.97094e-06 0
0.0193223 0.019594 0.0702126 0.001462 0.000466 0.013866 2.5438e-06 0
0.0178749 0.0148253 0.074681 0.001462 0.000466 0.013866 4.90723e-06 0
0.0188854 0.0172092 0.073395 0.001462 0.000466 0.013866 2.39716e-06 0
0.0171518 0.0195971 0.075549 0.001462 0.000466 0.013866 1.94439e-06 0
0.0161413 0.0172131 0.0768349 0.001462 0.000466 0.013866 3.62686e-06 0
0.0216078 0.0127763 0.0805072 0.001462 0.000466 0.013866 3.37055e-07 0
0.0194935 0.0227451 0.0702423 0.001462 0.000466 0.013866 8.18567e-07 0
0.0198384 0.0196286 0.0753526 0.001462 0.000466 0.013866 2.56541e-06 0
0.0184966 0.0196231 0.077032 0.001462 0.000466 0.013866 4.38126e-06 0
0.0226763 0.0151757 0.0794484 0.001462 0.000466 0.013866 6.84792e-06 0
0.0217371 0.0172898 0.076294 0.001462 0.000466 0.013866 6.0595e-06 0
0.0176258 0.0234753 0.0702811 0.001462 0.000466 0.013866 2.74427e-06 0
0.0238189 0.0149019 0.0723435 0.001462 0.000466 0.013866 2.3745e-06 0
0.0171465 0.0257013 0.0718332 0.001462 0.000466 0.013866 1.09705e-06 0
0.0275875 0.0186896 0.0747123 0.001462 0.000466 0.013866 1.65553e-05 0
0.0175592 0.0248831 0.0771292 0.001462 0.000466 0.013866 5.26723e-06 0
0.0157423 0.0227124 0.0741643 0.001462 0.000466 0.013866 6.05068e-07 0
0.0252431 0.0156337 0.0711177 0.001462 0.000466 0.013866 2.69344e-06 0
0.0202443 0.017215 0.0731191 0.001462 0.000466 0.013866 2.51077e-06 0
0.0244334 0.0155721 0.0695638 0.001462 0.000466 0.013866 2.9381e-06 0
0.0112751 0.0167589 0.0803273 0.001462 0.000466 0.013866 4.47195e-06 0
0.0203921 0.0151283 0.0811867 0.001462 0.000466 0.013866 6.15391e-06 0
0.0142872 0.0148601 0.0805158 0.001462 0.000466 0.013866 4.01293e-06 0
0.0113107 0.0167125 0.0729071 0.001462 0.000466 0.013866 8.99072e-06 0
0.0181112 0.017237 0.0797117 0.001462 0.000466 0.013866 3.96285e-06 0
0.0173305 0.0180812 0.08244 0.001462 0.000466 0.013866 4.79011e-06 0
0.0134068 0.0159246 0.0829338 0.001462 0.000466 0.013866 5.49164e-06 0
0.01448 0.0205377 0.0845577 0.001462 0.000466 0.013866 6.16622e-06 0
0.0164175 0.0148398 0.0793767 0.001462 0.000466 0.013866 3.60183e-06 0
0.0134077 0.0211852 0.0876842 0.001462 0.000466 0.013866 6.14922e-06 0
0.0106907 0.0234578 0.0874084 0.001462 0.000466 0.013866 7.79218e-06 0
0.0147566 0.0167486 0.084523 0.001462 0.000466 0.013866 4.78155e-06 0
0.0103948 0.0178234 0.0827454 0.001462 0.000466 0.013866 7.72433e-06 0
0.0216309 0.016997 0.0851855 0.001462 0.000466 0.013866 5.9719e-06 0
0.017054 0.0218703 0.0824746 0.001462 0.000466 0.013866 6.12782e-06 0
0.010081 0.0143534 0.0751938 0.001462 0.000466 0.013866 4.33108e-06 0
0.0196115 0.0159726 0.083915 0.001462 0.000466 0.013866 7.28475e-06 0
0.00909862 0.0224377 0.0774988 0.001462 0.000466 0.013866 1.16039e-05 0
0.00556079 0.0241189 0.0781795 0.001462 0.000466 0.013866 1.31051e-05 0
0.0125465 0.0190809 0.0751024 0.001462 0.000466 0.013866 7.56536e-06 0
0.0117925 0.0243649 0.0806601 0.001462 0.000466 0.013866 6.59475e-06 0
0.0116381 0.0190832 0.0700002 0.001462 0.000466 0.013866 8.80404e-06 0
0.00565788 0.0253679 0.0823646 0.001462 0.000466 0.013866 7.25245e-06 0
0.00981073 0.0186064 0.0774557 0.001462 0.000466 0.013866 1.61484e-05 0
0.00917842 0.0251022 0.0828568 0.001462 0.000466 0.013866 5.74447e-06 0
0.00648549 0.0289089 0.0839036 0.001462 0.000466 0.013866 1.04887e-05 0
0.0113256 0.0236481 0.0749085 0.001462 0.000466 0.013866 6.07106e-06 0
0.0102578 0.0251125 0.0735006 0.001462 0.000466 0.013866 2.36514e-06 0
0.00471614 0.0263394 0.0733686 0.001462 0.000466 0.013866 1.57694e-05 0
0.0158448 0.0264239 0.0682589 0.001462 0.000466 0.013866 6.89272e-06 0
0.0116243 0.0215983 0.0830351 0.001462 0.000466 0.013866 8.95107e-06 0
0.00901019 0.0223355 0.0852318 0.001462 0.000466 0.013866 8.4156e-06 0
0.013983 0.0270403 0.0767382 0.001462 0.000466 0.013866 4.04949e-06 0
0.0124775 0.0278611 0.0708101 0.001462 0.000466 0.013866 1.32263e-06 0
0.00724585 0.026058 0.0758218 0.001462 0.000466 0.013866 5.43919e-06 0
0.0113133 0.023659 0.0686775 0.001462 0.000466 0.013866 6.16253e-06 0
0.00856392 0.0162471 0.078339 0.001462 0.000466 0.013866 4.17942e-06 0
0.00720224 0.0261295 0.0694069 0.001462 0.000466 0.013866 8.96793e-06 0
0.0123864 0.022188 0.0737174 0.001462 0.000466 0.013866 2.73492e-06 0
0.0144916 0.0277202 0.0795517 0.001462 0.000466 0.013866 3.29557e-06 0
0.010284 0.025124 0.070432 0.001462 0.000466 0.013866 3.70591e-06 0
0.0157056 0.0255931 0.0754092 0.001462 0.000466 0.013866 4.57006e-06 0
0.012348 0.0221873 0.070555 0.001462 0.000466 0.013866 3.42761e-06 0
0.0113492 0.0401119 0.0437015 0.001462 0.000466 0.013866 4.17396e-06 0
0.0172559 0.0278979 0.0580638 0.001462 0.000466 0.013866 7.20512e-07 0
0.0118119 0.0327601 0.0487095 0.001462 0.000466 0.013866 9.114e-06 0
0.0146587 0.0384254 0.0544771 0.001462 0.000466 0.013866 4.30474e-06 0
0.0124223 0.0279649 0.057379 0.001462 0.000466 0.013866 1.69822e-06 0
0.0172418 0.0407866 0.0539066 0.001462 0.000466 0.013866 1.84333e-05 0
0.0129477 0.0400495 0.041309 0.001462 0.000466 0.013866 5.59619e-07 0
0.0079037 0.0356529 0.0557136 0.001462 0.000466 0.013866 6.24201e-06 0
0.00903014 0.0329356 0.0545351 0.001462 0.000466 0.013866 3.65823e-06 0
0.0157364 0.032976 0.0520898 0.001462 0.000466 0.013866 1.10433e-06 0
0.0122112 0.0402193 0.0560329 0.001462 0.000466 0.013866 8.43404e-06 0
0.0103637 0.0390671 0.0537501 0.001462 0.000466 0.013866 8.02637e-06 0
0.0106873 0.0355032 0.0548886 0.001462 0.000466 0.013866 4.07017e-06 0
0.00591391 0.0323792 0.0538185 0.001462 0.000466 0.013866 1.05813e-05 0
0.0128458 0.0343035 0.0584912 0.001462 0.000466 0.013866 4.32058e-06 0
0.0120794 0.0372811 0.0500053 0.001462 0.000466 0.013866 7.91385e-06 0
0.00937287 0.0378044 0.0442136 0.001462 0.000466 0.013866 3.82058e-06 0
0.0149834 0.0360268 0.0508589 0.001462 0.000466 0.013866 3.71056e-06 0
0.017079 0.0286109 0.0544502 0.001462 0.000466 0.013866 6.64284e-07 0
0.0109953 0.0425808 0.0574244 0.001462 0.000466 0.013866 1.27562e-06 0
0.0190139 0.0384041 0.0502595 0.001462 0.000466 0.013866 1.8681e-05 0
0.00767708 0.0307593 0.0504669 0.001462 0.000466 0.013866 1.45754e-05 0
0.0124042 0.0279597 0.0521889 0.001462 0.000466 0.013866 1.61726e-06 0
0.00943093 0.0379453 0.0562979 0.001462 0.000466 0.013866 3.29306e-06 0
0.0121938 0.0402326 0.0612576 0.001462 0.000466 0.013866 1.10794e-06 0
0.0107933 0.0313157 0.0511834 0.001462 0.000466 0.013866 5.32357e-06 0
0.0216501 0.0360098 0.0512352 0.001462 0.000466 0.013866 3.00998e-06 0
0.0128324 0.0342303 0.0512361 0.001462 0.000466 0.013866 4.36527e-06 0
0.0141659 0.0376406 0.0406015 0.001462 0.000466 0.013866 8.46655e-06 0
0.0100621 0.0344531 0.0593162 0.001462 0.000466 0.013866 6.43132e-06 0
0.0115894 0.0367455 0.0599004 0.001462 0.000466 0.013866 3.49659e-06 0
0.0103633 0.0390153 0.046357 0.001462 0.000466 0.013866 7.72248e-06 0
0.0134096 0.0378711 0.0598661 0.001462 0.000466 0.013866 7.48893e-06 0
0.0093387 0.0333216 0.0455572 0.001462 0.000466 0.013866 7.77767e-06 0
0.0081634 0.0359524 0.0445763 0.001462 0.000466 0.013866 7.65236e-06 0
0.0140024 0.0285898 0.0477822 0.001462 0.000466 0.013866 6.23193e-06 0
0.0157616 0.0300288 0.0500289 0.001462 0.000466 0.013866 6.76624e-06 0
0.011246 0.023747 0.0501772 0.001462 0.000466 0.013866 5.68392e-06 0
0.00583898 0.0188288 0.0351648 0.001462 0.000466 0.013866 8.1814e-07 0
0.0140203 0.0256515 0.0498146 0.001462 0.000466 0.013866 2.38741e-06 0
0.00850125 0.0194082 0.0376583 0.001462 0.000466 0.013866 7.49506e-06 0
0.0227808 0.014874 0.0460445 0.001462 0.000466 0.013866 8.89953e-06 0
0.0149916 0.017218 0.0483173 0.001462 0.000466 0.013866 6.45408e-06 0
0.00494733 0.0290225 0.0436768 0.001462 0.000466 0.013866 2.72244e-06 0
0.00606678 0.0231209 0.0411319 0.001462 0.000466 0.013866 5.32035e-06 0
0.00680806 0.0280331 0.0405919 0.001462 0.000466 0.013866 5.33454e-06 0
0.00161661 0.0281033 0.0394927 0.001462 0.000466 0.013866 2.38899e-07 0
0.010228 0.0167698 0.0477343 0.001462 0.000466 0.013866 8.61342e-06 0
0.0102222 0.0171112 0.0384448 0.001462 0.000466 0.013866 6.31209e-06 0
0.00728389 0.025905 0.0396763 0.001462 0.000466 0.013866 4.56382e-06 0
0.00517001 0.0245343 0.0451624 0.001462 0.000466 0.013866 4.06588e-06 0
0.0111467 0.0156836 0.0527866 0.001462 0.000466 0.013866 5.03366e-06 0
0.021387 0.0148989 0.0435063 0.001462 0.000466 0.013866 3.38201e-06 0
0.004495 0.0271678 0.0433118 0.001462 0.000466 0.013866 4.11088e-06 0
0.00705609 0.0216129 0.0337093 0.001462 0.000466 0.013866 6.26255e-06 0
0.00947032 0.0221656 0.0405531 0.001462 0.000466 0.013866 1.04561e-05 0
0.0164331 0.0269418 0.0358294 0.001462 0.000466 0.013866 2.26373e-06 0
0.00626596 0.0226155 0.0438981 0.001462 0.000466 0.013866 8.80526e-06 0
0.00971836 0.0221923 0.0362027 0.001462 0.000466 0.013866 4.83471e-06 0
0.00195132 0.0272358 0.0422376 0.001462 0.000466 0.013866 3.92538e-07 0
0.0123846 0.0180616 0.0504909 0.001462 0.000466 0.013866 3.8893e-06 0
0.0150957 0.0173995 0.0427276 0.001462 0.000466 0.013866 7.99434e-06 0
0.0188104 0.0172814 0.0446665 0.001462 0.000466 0.013866 2.68741e-06 0
0.0215949 0.0171973 0.0490706 0.001462 0.000466 0.013866 8.84619e-06 0
0.0129917 0.026936 0.0390488 0.001462 0.000466 0.013866 2.02307e-06 0
0.0106874 0.0249497 0.0390975 0.001462 0.000466 0.013866 7.71407e-06 0
0.0137537 0.0148401 0.0506131 0.001462 0.000466 0.013866 8.35323e-06 0
0.0158846 0.0263099 0.0453385 0.001462 0.000466 0.013866 2.29646e-06 0
0.00966903 0.021641 0.0454878 0.001462 0.000466 0.013866 6.79802e-06 0
0.0123417 0.0221112 0.042962 0.001462 0.000466 0.013866 8.60418e-06 0
0.00880948 0.0187092 0.0479171 0.001462 0.000466 0.013866 7.49842e-06 0
0.0122369 0.0183916 0.0418053 0.001462 0.000466 0.013866 6.33725e-06 0
0.0186815 0.0262975 0.0504245 0.001462 0.000466 0.013866 8.56814e-06 0
0.0109827 0.0159821 0.0441483 0.001462 0.000466 0.013866 5.54087e-06 0
0.0190405 0.019537 0.0494926 0.001462 0.000466 0.013866 6.64788e-06 0
0.0193726 0.0233695 0.0481274 0.001462 0.000466 0.013866 2.9943e-06 0
0.0118256 0.0229328 0.0482444 0.001462 0.000466 0.013866 6.23294e-06 0
0.0201899 0.0171949 0.0512111 0.001462 0.000466 0.013866 2.9803e-06 0
0.0138415 0.01499 0.0450705 0.001462 0.000466 0.013866 7.07469e-06 0
0.0176499 0.0195962 0.0476267 0.001462 0.000466 0.013866 4.55595e-06 0
0.0175615 0.0148762 0.051641 0.001462 0.000466 0.013866 1.50799e-05 0
0.0163081 0.0125004 0.050191 0.001462 0.000466 0.013866 5.51941e-07 0
0.0265649 0.0273372 0.0399184 0.001462 0.000466 0.013866 3.19655e-06 0
0.0277448 0.0186594 0.0440128 0.001462 0.000466 0.013866 1.09194e-05 0
0.032324 0.0265836 0.0432914 0.001462 0.000466 0.013866 5.20826e-06 0
0.0205603 0.0269893 0.052505 0.001462 0.000466 0.013866 8.36274e-06 0
0.0284861 0.0238935 0.0547078 0.001462 0.000466 0.013866 4.66409e-06 0
0.0315427 0.024614 0.0547381 0.001462 0.000466 0.013866 7.71777e-06 0
0.0255012 0.0238218 0.0515779 0.001462 0.000466 0.013866 3.8824e-06 0
0.0275928 0.0225168 0.0454636 0.001462 0.000466 0.013866 7.83078e-06 0
0.0287099 0.0243133 0.0399883 0.001462 0.000466 0.013866 7.25408e-06 0
0.0263425 0.0169655 0.0468669 0.001462 0.000466 0.013866 1.3457e-05 0
0.0305776 0.0226237 0.0442858 0.001462 0.000466 0.013866 4.21554e-06 0
0.0235802 0.0272303 0.0410963 0.001462 0.000466 0.013866 6.195e-06 0
0.0296478 0.0212101 0.0552036 0.001462 0.000466 0.013866 7.32038e-06 0
0.0273344 0.0180922 0.0532239 0.001462 0.000466 0.013866 1.10652e-05 0
0.0251565 0.0192888 0.049893 0.001462 0.000466 0.013866 1.33127e-05 0
0.0249356 0.0188748 0.039701 0.001462 0.000466 0.013866 1.45776e-05 0
0.025027 0.0231179 0.0489813 0.001462 0.000466 0.013866 9.30581e-06 0
0.0207632 0.0233103 0.0499934 0.001462 0.000466 0.013866 4.42845e-06 0
0.0212374 0.0240141 0.05259 0.001462 0.000466 0.013866 1.87694e-06 0
0.0237826 0.021331 0.0571831 0.001462 0.000466 0.013866 3.51737e-06 0
0.0265314 0.0253557 0.0520311 0.001462 0.000466 0.013866 4.1578e-06 0
0.0295879 0.0260762 0.0520614 0.001462 0.000466 0.013866 7.26973e-06 0
0.0321381 0.0261137 0.0495225 0.001462 0.000466 0.013866 8.65613e-06 0
0.0266591 0.0211381 0.054102 0.001462 0.000466 0.013866 4.81104e-06 0
0.0257251 0.0242064 0.0411661 0.001462 0.000466 0.013866 1.54868e-05 0
0.0315921 0.0247962 0.0457178 0.001462 0.000466 0.013866 8.18886e-06 0
0.0183593 0.0277729 0.0453673 0.001462 0.000466 0.013866 1.81435e-06 0
0.0208021 0.0263239 0.0460661 0.001462 0.000466 0.013866 4.10801e-06 0
0.0264124 0.0170376 0.0301744 0.001462 0.000466 0.013866 3.37517e-06 0
0.0305052 0.0228096 0.0332183 0.001462 0.000466 0.013866 9.05647e-06 0
0.0269996 0.0216384 0.0337763 0.001462 0.000466 0.013866 8.45637e-06 0
0.0211561 0.0257747 0.0386371 0.001462 0.000466 0.013866 9.52381e-06 0
0.0247548 0.0227401 0.037176 0.001462 0.000466 0.013866 1.20746e-05 0
0.0299469 0.022214 0.0290917 0.001462 0.000466 0.013866 6.7108e-06 0
0.0264236 0.0214852 0.0286035 0.001462 0.000466 0.013866 3.04552e-06 0
0.0246305 0.0160125 0.0286085 0.001462 0.000466 0.013866 4.54084e-06 0
0.0208765 0.0235829 0.0336846 0.001462 0.000466 0.013866 6.14995e-06 0
0.0323506 0.0267468 0.0356922 0.001462 0.000466 0.013866 6.68967e-06 0
0.0214055 0.0250602 0.0282911 0.001462 0.000466 0.013866 3.41253e-06 0
0.0262419 0.0208723 0.0305082 0.001462 0.000466 0.013866 3.80999e-06 0
0.0257902 0.0160815 0.033934 0.001462 0.000466 0.013866 9.81205e-06 0
0.0286187 0.020363 0.0283871 0.001462 0.000466 0.013866 3.72133e-06 0
0.0271803 0.0177732 0.0363013 0.001462 0.000466 0.013866 1.10684e-05 0
