ply
format ascii 1.0
comment Created by Open3D
element vertex 679
property float32 x
property float32 y
property float32 z
property float32 red
property float32 green
property float32 blue
property float32 volume
property uint8 segmentation
end_header
0.01289 0.0115537 0.06616 0.3415 0.062325 0.429425 7.41276e-11 1
0.00483941 0.0227457 0.0652189 0.3415 0.062325 0.429425 2.33054e-06 1
0.0128887 0.0115475 0.0660293 0.3415 0.062325 0.429425 4.35316e-12 1
0.00241149 0.0209726 0.0680711 0.3415 0.062325 0.429425 1.47342e-06 1
0.01282 0.0115687 0.0655579 0.3415 0.062325 0.429425 1.79553e-09 1
0.0128115 0.0115759 0.0660216 0.3415 0.062325 0.429425 2.87253e-11 1
0.0128827 0.011525 0.0659891 0.3415 0.062325 0.429425 6.87041e-12 1
0.0116626 0.0167277 0.0693348 0.3415 0.062325 0.429425 1.1219e-05 1
0.0129583 0.0116497 0.0659543 0.3415 0.062325 0.429425 1.44368e-10 1
0.00970778 0.0210011 0.0722109 0.3415 0.062325 0.429425 7.10492e-06 1
0.0118804 0.0120071 0.0660373 0.3415 0.062325 0.429425 1.53578e-10 1
0.0127004 0.011613 0.0665561 0.3415 0.062325 0.429425 7.9248e-10 1
0.01287 0.0115033 0.0661025 0.3415 0.062325 0.429425 6.09707e-13 1
0.0128458 0.0115811 0.0660614 0.3415 0.062325 0.429425 3.98401e-11 1
0.0130642 0.0116917 0.066201 0.3415 0.062325 0.429425 5.54755e-10 1
0.0128253 0.0114886 0.0659135 0.3415 0.062325 0.429425 2.45057e-11 1
0.0114912 0.0181255 0.0644659 0.3415 0.062325 0.429425 8.84575e-06 1
0.0128638 0.0115136 0.0660572 0.3415 0.062325 0.429425 6.90577e-14 1
0.0117616 0.0120704 0.0663468 0.3415 0.062325 0.429425 2.03235e-08 1
0.0128636 0.0115206 0.0661038 0.3415 0.062325 0.429425 3.0575e-12 1
0.0128945 0.0126964 0.0653991 0.3415 0.062325 0.429425 1.53177e-07 1
0.00556798 0.0252787 0.0750967 0.3415 0.062325 0.429425 5.52681e-07 1
0.0129184 0.0115734 0.0662416 0.3415 0.062325 0.429425 2.91918e-10 1
0.00656354 0.0178467 0.0679058 0.3415 0.062325 0.429425 6.32425e-06 1
0.0132967 0.0119396 0.0657075 0.3415 0.062325 0.429425 2.22393e-09 1
0.012855 0.0115285 0.0660936 0.3415 0.062325 0.429425 1.71263e-12 1
0.0129167 0.0114601 0.0665989 0.3415 0.062325 0.429425 6.13031e-10 1
0.0131125 0.0114836 0.0668501 0.3415 0.062325 0.429425 4.69132e-09 1
0.00745664 0.0184256 0.0646101 0.3415 0.062325 0.429425 7.54863e-06 1
0.0069432 0.0205418 0.0704378 0.3415 0.062325 0.429425 2.01929e-06 1
0.0128735 0.0115234 0.0660836 0.3415 0.062325 0.429425 8.00863e-13 1
0.0130631 0.0116949 0.065358 0.3415 0.062325 0.429425 5.06859e-09 1
0.0127426 0.0115495 0.0659729 0.3415 0.062325 0.429425 8.68471e-11 1
0.00194332 0.0234349 0.0734016 0.3415 0.062325 0.429425 3.58846e-07 1
0.0128658 0.0115038 0.066064 0.3415 0.062325 0.429425 1.9059e-14 1
0.00857854 0.0165483 0.0730099 0.3415 0.062325 0.429425 4.40282e-06 1
0.0128613 0.0115133 0.066063 0.3415 0.062325 0.429425 1.21055e-13 1
0.0128647 0.0115124 0.0660649 0.3415 0.062325 0.429425 6.7355e-14 1
0.0129692 0.0116073 0.0656024 0.3415 0.062325 0.429425 1.69888e-09 1
0.00920232 0.0160343 0.0749893 0.3415 0.062325 0.429425 8.80564e-06 1
0.00796726 0.019393 0.0665923 0.3415 0.062325 0.429425 2.53113e-06 1
0.0127547 0.0115898 0.066035 0.3415 0.062325 0.429425 3.78159e-12 1
0.012906 0.0115783 0.0658156 0.3415 0.062325 0.429425 4.30679e-10 1
0.0129019 0.0116014 0.0659955 0.3415 0.062325 0.429425 3.78829e-11 1
0.0128402 0.0114993 0.0659852 0.3415 0.062325 0.429425 1.27644e-11 1
0.0128933 0.0115024 0.0661863 0.3415 0.062325 0.429425 1.55156e-11 1
0.00843009 0.0193174 0.0735133 0.3415 0.062325 0.429425 5.22599e-06 1
0.0127786 0.0115376 0.0659585 0.3415 0.062325 0.429425 1.85296e-11 1
0.0128697 0.011619 0.0661821 0.3415 0.062325 0.429425 3.79131e-10 1
0.0089384 0.0171099 0.0645913 0.3415 0.062325 0.429425 7.62402e-06 1
0.00653189 0.0208615 0.0716549 0.3415 0.062325 0.429425 4.74206e-06 1
0.00758048 0.0142511 0.0689703 0.3415 0.062325 0.429425 1.16914e-06 1
0.00507917 0.025127 0.0711769 0.3415 0.062325 0.429425 1.73138e-06 1
0.00591365 0.0231641 0.0724513 0.3415 0.062325 0.429425 4.76951e-06 1
0.0085637 0.0219472 0.071476 0.3415 0.062325 0.429425 2.65693e-06 1
0.0120018 0.019093 0.0664481 0.3415 0.062325 0.429425 2.86031e-06 1
0.00228091 0.0240705 0.0721475 0.3415 0.062325 0.429425 3.69084e-07 1
0.0042575 0.0232329 0.0712648 0.3415 0.062325 0.429425 5.96142e-06 1
0.00467913 0.0198972 0.0751029 0.3415 0.062325 0.429425 1.78211e-06 1
0.00231318 0.0226051 0.0710382 0.3415 0.062325 0.429425 1.32014e-06 1
0.00572009 0.0188002 0.0727001 0.3415 0.062325 0.429425 4.50187e-06 1
0.00593265 0.0255437 0.0724384 0.3415 0.062325 0.429425 1.12384e-06 1
0.00673148 0.025055 0.0735644 0.3415 0.062325 0.429425 1.00193e-06 1
0.00464981 0.019907 0.073624 0.3415 0.062325 0.429425 6.96804e-06 1
0.00216303 0.0215558 0.0723777 0.3415 0.062325 0.429425 2.24227e-06 1
0.00178978 0.0223946 0.0734835 0.3415 0.062325 0.429425 1.09989e-06 1
0.00213591 0.0230244 0.0747412 0.3415 0.062325 0.429425 5.07072e-08 1
0.00416192 0.0221258 0.0735643 0.3415 0.062325 0.429425 4.48594e-06 1
0.00456434 0.0238127 0.0751748 0.3415 0.062325 0.429425 2.04201e-06 1
0.00305863 0.0184917 0.0740647 0.3415 0.062325 0.429425 6.09495e-07 1
0.00183952 0.0228634 0.0755742 0.3415 0.062325 0.429425 4.33659e-07 1
0.00291157 0.0238727 0.0752459 0.3415 0.062325 0.429425 3.4692e-07 1
0.0131881 0.0181042 0.0676244 0.3415 0.062325 0.429425 8.67925e-06 1
0.00804529 0.016531 0.067887 0.3415 0.062325 0.429425 6.46736e-06 1
0.00944901 0.0180774 0.0665735 0.3415 0.062325 0.429425 2.55803e-06 1
0.00907253 0.01617 0.0694721 0.3415 0.062325 0.429425 7.94146e-06 1
0.0100582 0.0180625 0.071338 0.3415 0.062325 0.429425 5.98734e-06 1
0.010321 0.0205119 0.0706242 0.3415 0.062325 0.429425 2.62623e-06 1
0.0057416 0.0230776 0.0682214 0.3415 0.062325 0.429425 5.50969e-06 1
0.0128686 0.0115021 0.0660728 0.3415 0.062325 0.429425 1.81983e-14 1
0.0128639 0.0115029 0.0660831 0.3415 0.062325 0.429425 2.09644e-13 1
0.0128587 0.0115122 0.0662061 0.3415 0.062325 0.429425 2.95641e-11 1
0.0128128 0.0115212 0.0658302 0.3415 0.062325 0.429425 2.42751e-10 1
0.0127347 0.0115996 0.0660373 0.3415 0.062325 0.429425 3.6928e-12 1
0.0130419 0.0117548 0.0667668 0.3415 0.062325 0.429425 2.07509e-08 1
0.0130543 0.0117562 0.0659828 0.3415 0.062325 0.429425 8.44717e-10 1
0.0132287 0.0116737 0.0664983 0.3415 0.062325 0.429425 4.98502e-09 1
0.00423388 0.0215525 0.069167 0.3415 0.062325 0.429425 5.40818e-06 1
0.0130138 0.011671 0.065762 0.3415 0.062325 0.429425 8.75025e-10 1
0.00489843 0.0233516 0.0670054 0.3415 0.062325 0.429425 3.61767e-06 1
0.0128781 0.0115217 0.0660675 0.3415 0.062325 0.429425 1.11407e-12 1
0.0128576 0.0115154 0.0660858 0.3415 0.062325 0.429425 6.47285e-13 1
0.0129158 0.0115594 0.0661014 0.3415 0.062325 0.429425 2.04167e-11 1
0.0128974 0.0115438 0.0660526 0.3415 0.062325 0.429425 1.29614e-12 1
0.0128685 0.0115141 0.0660902 0.3415 0.062325 0.429425 1.10386e-12 1
0.0128674 0.0115111 0.0660714 0.3415 0.062325 0.429425 1.90708e-13 1
0.0128751 0.0115225 0.0660595 0.3415 0.062325 0.429425 2.23927e-13 1
0.0127669 0.0115858 0.0661007 0.3415 0.062325 0.429425 6.36594e-11 1
0.0127659 0.0115855 0.0660605 0.3415 0.062325 0.429425 3.35131e-11 1
0.0127299 0.0115412 0.0668674 0.3415 0.062325 0.429425 6.06458e-09 1
0.0126572 0.011641 0.0665102 0.3415 0.062325 0.429425 7.56882e-10 1
0.0129246 0.0115439 0.0661403 0.3415 0.062325 0.429425 3.8903e-11 1
0.0126665 0.011478 0.0657329 0.3415 0.062325 0.429425 1.4261e-09 1
0.0128681 0.0114961 0.0661716 0.3415 0.062325 0.429425 8.14273e-12 1
0.0056199 0.0190188 0.0693255 0.3415 0.062325 0.429425 5.34999e-06 1
0.00785365 0.0199351 0.068777 0.3415 0.062325 0.429425 2.97174e-06 1
0.00630135 0.021164 0.0691364 0.3415 0.062325 0.429425 2.57258e-06 1
0.00179048 0.0218677 0.0689567 0.3415 0.062325 0.429425 9.98788e-07 1
0.00432978 0.0169304 0.0684543 0.3415 0.062325 0.429425 1.20664e-06 1
0.00307523 0.022104 0.0651468 0.3415 0.062325 0.429425 2.59806e-06 1
0.00313424 0.02271 0.0669334 0.3415 0.062325 0.429425 2.61841e-06 1
0.00873328 0.0219208 0.0666969 0.3415 0.062325 0.429425 2.16647e-06 1
0.0084769 0.022142 0.067564 0.3415 0.062325 0.429425 1.9669e-06 1
0.00780907 0.022689 0.0681907 0.3415 0.062325 0.429425 2.75062e-06 1
0.0117791 0.0119385 0.0658826 0.3415 0.062325 0.429425 1.38822e-08 1
0.0129257 0.0115647 0.0671186 0.3415 0.062325 0.429425 1.7988e-08 1
0.0120873 0.0120065 0.0652577 0.3415 0.062325 0.429425 1.70296e-07 1
0.0128633 0.011503 0.0660541 0.3415 0.062325 0.429425 2.04563e-14 1
0.0128635 0.0115025 0.0660495 0.3415 0.062325 0.429425 2.11827e-14 1
0.0127705 0.0115872 0.0660185 0.3415 0.062325 0.429425 1.84322e-11 1
0.0128629 0.011506 0.0660563 0.3415 0.062325 0.429425 5.58316e-15 1
0.0128794 0.011606 0.0660604 0.3415 0.062325 0.429425 6.09874e-11 1
0.0128605 0.0115005 0.066047 0.3415 0.062325 0.429425 1.18e-14 1
0.012715 0.0114713 0.0655587 0.3415 0.062325 0.429425 1.8812e-09 1
0.0126696 0.0124014 0.0649728 0.3415 0.062325 0.429425 2.32384e-07 1
0.0129032 0.0115461 0.0660375 0.3415 0.062325 0.429425 2.36835e-12 1
0.01288 0.0115365 0.066021 0.3415 0.062325 0.429425 3.09763e-12 1
0.0128625 0.0115047 0.0660621 0.3415 0.062325 0.429425 2.15818e-14 1
0.0129752 0.0115691 0.0650419 0.3415 0.062325 0.429425 9.98593e-09 1
0.0128623 0.0115114 0.0660527 0.3415 0.062325 0.429425 1.32886e-13 1
0.0124327 0.0123976 0.0658181 0.3415 0.062325 0.429425 1.26486e-07 1
0.0128352 0.0115234 0.0660677 0.3415 0.062325 0.429425 2.29786e-12 1
0.0134338 0.0121088 0.0658178 0.3415 0.062325 0.429425 4.4192e-09 1
0.0128414 0.0115993 0.0661006 0.3415 0.062325 0.429425 1.16208e-10 1
0.0128649 0.0115053 0.0660586 0.3415 0.062325 0.429425 1.54461e-14 1
0.0128008 0.0115391 0.0659239 0.3415 0.062325 0.429425 1.49744e-10 1
0.0127953 0.0116055 0.0661822 0.3415 0.062325 0.429425 6.2874e-11 1
0.0126553 0.0116778 0.0664494 0.3415 0.062325 0.429425 2.18403e-09 1
0.0133681 0.0143288 0.0654968 0.3415 0.062325 0.429425 1.66355e-06 1
0.0120515 0.012307 0.066346 0.3415 0.062325 0.429425 1.94148e-07 1
0.0130286 0.011762 0.0655532 0.3415 0.062325 0.429425 3.91981e-09 1
0.0128781 0.011543 0.066082 0.3415 0.062325 0.429425 3.12938e-12 1
0.0129377 0.0113289 0.0682299 0.3415 0.062325 0.429425 6.84157e-08 1
0.0128612 0.0115043 0.0660564 0.3415 0.062325 0.429425 2.04105e-14 1
0.0128068 0.011574 0.0660614 0.3415 0.062325 0.429425 3.05114e-11 1
0.0128643 0.0115018 0.0660663 0.3415 0.062325 0.429425 7.60126e-15 1
0.0131327 0.0118101 0.0658719 0.3415 0.062325 0.429425 1.11196e-09 1
0.0118685 0.0141013 0.0691379 0.3415 0.062325 0.429425 4.93335e-06 1
0.0127682 0.0140655 0.0662438 0.3415 0.062325 0.429425 1.12331e-06 1
0.0144939 0.0145273 0.0662412 0.3415 0.062325 0.429425 4.67026e-07 1
0.0128591 0.0115045 0.0660981 0.3415 0.062325 0.429425 3.57521e-13 1
0.0132724 0.0119861 0.0666634 0.3415 0.062325 0.429425 3.47292e-08 1
0.0127957 0.0115785 0.0660381 0.3415 0.062325 0.429425 3.91263e-12 1
0.0137579 0.0114554 0.069129 0.3415 0.062325 0.429425 3.08975e-07 1
0.0139971 0.0127367 0.0666612 0.3415 0.062325 0.429425 1.69688e-07 1
0.0130526 0.0120182 0.0663457 0.3415 0.062325 0.429425 7.11442e-09 1
0.0128221 0.0117869 0.066449 0.3415 0.062325 0.429425 9.00481e-09 1
0.0128324 0.011529 0.0660399 0.3415 0.062325 0.429425 5.80313e-12 1
0.0128561 0.0115134 0.0660697 0.3415 0.062325 0.429425 1.69782e-13 1
0.0128744 0.0115047 0.0661368 0.3415 0.062325 0.429425 4.07136e-12 1
0.0128626 0.0115128 0.0660763 0.3415 0.062325 0.429425 6.47285e-13 1
0.0128787 0.0115918 0.065979 0.3415 0.062325 0.429425 2.73104e-11 1
0.0130155 0.0117373 0.0661416 0.3415 0.062325 0.429425 1.47449e-09 1
0.0129192 0.011623 0.0660105 0.3415 0.062325 0.429425 7.2184e-11 1
0.0128838 0.0115206 0.0660786 0.3415 0.062325 0.429425 9.49952e-13 1
0.0128653 0.0115001 0.0660943 0.3415 0.062325 0.429425 2.09644e-13 1
0.0128675 0.0115007 0.0660786 0.3415 0.062325 0.429425 6.1767e-14 1
0.0128612 0.0115013 0.0661296 0.3415 0.062325 0.429425 2.22816e-12 1
0.0128312 0.0115255 0.0660793 0.3415 0.062325 0.429425 1.79063e-12 1
0.0128546 0.0115086 0.066117 0.3415 0.062325 0.429425 1.21941e-12 1
0.0128148 0.0115121 0.0660146 0.3415 0.062325 0.429425 1.44526e-11 1
0.0128371 0.0115013 0.0660122 0.3415 0.062325 0.429425 1.02314e-12 1
0.012832 0.0115196 0.0660351 0.3415 0.062325 0.429425 1.14066e-12 1
0.0128726 0.0115172 0.0660467 0.3415 0.062325 0.429425 6.21564e-13 1
0.0128237 0.0115294 0.0660936 0.3415 0.062325 0.429425 3.58126e-12 1
0.0128677 0.0115126 0.0659997 0.3415 0.062325 0.429425 7.1534e-12 1
0.0128507 0.0115833 0.0660238 0.3415 0.062325 0.429425 3.26267e-11 1
0.0128166 0.0115318 0.0660587 0.3415 0.062325 0.429425 7.49073e-13 1
0.0128365 0.011522 0.0660565 0.3415 0.062325 0.429425 7.71339e-13 1
0.0128871 0.0115319 0.0662876 0.3415 0.062325 0.429425 1.06742e-10 1
0.0128394 0.011549 0.0659345 0.3415 0.062325 0.429425 6.59382e-12 1
0.0167355 0.0150433 0.0800279 0.3415 0.062325 0.429425 7.98662e-07 1
0.0155362 0.0143647 0.0790766 0.3415 0.062325 0.429425 2.50578e-06 1
0.0126975 0.0123436 0.0795477 0.3415 0.062325 0.429425 2.53956e-06 1
0.0134252 0.017889 0.079555 0.3415 0.062325 0.429425 4.53488e-06 1
0.0135038 0.0138702 0.0808522 0.3415 0.062325 0.429425 4.40225e-06 1
0.0134616 0.0142617 0.0794847 0.3415 0.062325 0.429425 4.57744e-06 1
0.0154814 0.0135469 0.0823507 0.3415 0.062325 0.429425 3.35811e-06 1
0.0166385 0.0146171 0.0819344 0.3415 0.062325 0.429425 1.35025e-06 1
0.0154399 0.0158541 0.0783815 0.3415 0.062325 0.429425 2.57428e-06 1
0.0156062 0.0132424 0.0777722 0.3415 0.062325 0.429425 2.62537e-07 1
0.0168532 0.0156891 0.0780283 0.3415 0.062325 0.429425 2.49671e-07 1
0.0166392 0.0165327 0.0793327 0.3415 0.062325 0.429425 5.74756e-07 1
0.0075256 0.0200086 0.0762581 0.3415 0.062325 0.429425 7.62227e-06 1
0.00494983 0.0246663 0.0825051 0.3415 0.062325 0.429425 1.24461e-06 1
0.0081853 0.0168005 0.0791786 0.3415 0.062325 0.429425 8.54954e-06 1
0.0059609 0.0185844 0.0780348 0.3415 0.062325 0.429425 5.54997e-06 1
0.0142336 0.0119994 0.0861251 0.3415 0.062325 0.429425 1.28017e-06 1
0.00771277 0.0198605 0.081659 0.3415 0.062325 0.429425 4.87884e-06 1
0.00340119 0.0235645 0.0774145 0.3415 0.062325 0.429425 8.83928e-07 1
0.0165302 0.0154148 0.077077 0.3415 0.062325 0.429425 1.11273e-07 1
0.00850553 0.0218915 0.0781705 0.3415 0.062325 0.429425 1.11566e-05 1
0.0155099 0.0147318 0.077077 0.3415 0.062325 0.429425 5.48793e-07 1
0.0164067 0.0164548 0.0848934 0.3415 0.062325 0.429425 5.92842e-07 1
0.0102063 0.0205357 0.0755923 0.3415 0.062325 0.429425 9.59664e-06 1
0.0126682 0.0163431 0.0767173 0.3415 0.062325 0.429425 6.55454e-06 1
0.00611796 0.0255474 0.0756476 0.3415 0.062325 0.429425 3.88979e-07 1
0.0110489 0.0150308 0.0754468 0.3415 0.062325 0.429425 7.93123e-06 1
0.00694083 0.0204673 0.0799472 0.3415 0.062325 0.429425 7.08995e-06 1
0.00419465 0.0227623 0.0820692 0.3415 0.062325 0.429425 3.15236e-06 1
0.00505184 0.0235101 0.076556 0.3415 0.062325 0.429425 2.75177e-06 1
0.00716877 0.0250063 0.0786185 0.3415 0.062325 0.429425 1.14027e-06 1
0.0120381 0.0163764 0.085989 0.3415 0.062325 0.429425 3.62866e-06 1
0.0132464 0.0151281 0.0859904 0.3415 0.062325 0.429425 1.01035e-06 1
0.0116129 0.0166851 0.0813074 0.3415 0.062325 0.429425 5.37273e-06 1
0.0127281 0.018481 0.0774828 0.3415 0.062325 0.429425 6.21649e-06 1
0.0123224 0.0122418 0.0846925 0.3415 0.062325 0.429425 2.29578e-06 1
0.0167807 0.0156303 0.08346 0.3415 0.062325 0.429425 1.44598e-06 1
0.0152173 0.0134649 0.0872027 0.3415 0.062325 0.429425 3.42658e-06 1
0.0133061 0.0137073 0.0857701 0.3415 0.062325 0.429425 2.64657e-06 1
0.0171676 0.0147848 0.0846618 0.3415 0.062325 0.429425 7.36174e-07 1
0.0115952 0.0141558 0.0819094 0.3415 0.062325 0.429425 7.52533e-06 1
0.010094 0.0179344 0.0768009 0.3415 0.062325 0.429425 6.78768e-06 1
0.0133653 0.0157511 0.0787895 0.3415 0.062325 0.429425 4.71453e-06 1
0.00673285 0.0179776 0.0797466 0.3415 0.062325 0.429425 8.64788e-06 1
0.00900708 0.0161433 0.0816128 0.3415 0.062325 0.429425 5.66519e-06 1
0.0143559 0.0157271 0.084425 0.3415 0.062325 0.429425 6.22475e-06 1
0.0135728 0.0138325 0.0834079 0.3415 0.062325 0.429425 6.21925e-06 1
0.0145754 0.0152745 0.0855657 0.3415 0.062325 0.429425 6.04634e-07 1
0.0133798 0.0115716 0.0866823 0.3415 0.062325 0.429425 1.29706e-06 1
0.00991723 0.01806 0.0833906 0.3415 0.062325 0.429425 7.91342e-06 1
0.0125231 0.0186018 0.0830853 0.3415 0.062325 0.429425 7.86316e-06 1
0.0132885 0.0179671 0.0847043 0.3415 0.062325 0.429425 6.19351e-06 1
0.00263067 0.0227195 0.078164 0.3415 0.062325 0.429425 1.36457e-06 1
0.0168547 0.0142101 0.0871198 0.3415 0.062325 0.429425 5.85528e-07 1
0.0139661 0.0171618 0.0726429 0.3415 0.062325 0.429425 4.26954e-06 1
0.00190626 0.0213914 0.077198 0.3415 0.062325 0.429425 8.63626e-07 1
0.00551661 0.0250521 0.0813991 0.3415 0.062325 0.429425 1.76089e-06 1
0.00476142 0.0231481 0.0809631 0.3415 0.062325 0.429425 3.37242e-06 1
0.00625094 0.0256109 0.0771974 0.3415 0.062325 0.429425 2.59319e-07 1
0.00583875 0.0254096 0.0766918 0.3415 0.062325 0.429425 4.23021e-07 1
0.00635926 0.0254862 0.0808311 0.3415 0.062325 0.429425 7.02895e-07 1
0.00638347 0.0231082 0.0779813 0.3415 0.062325 0.429425 9.6374e-06 1
0.00267677 0.0222364 0.0764485 0.3415 0.062325 0.429425 7.86856e-07 1
0.00432742 0.0221821 0.07559 0.3415 0.062325 0.429425 2.10817e-06 1
0.0015037 0.02224 0.0768248 0.3415 0.062325 0.429425 6.8621e-07 1
0.00261518 0.0237117 0.0760789 0.3415 0.062325 0.429425 6.98718e-07 1
0.0102087 0.0215074 0.02225 0.735683 0.215906 0.330245 4.43393e-07 2
0.00952657 0.0220386 0.0258296 0.735683 0.215906 0.330245 1.94058e-07 2
0.0124391 0.0263445 0.0310834 0.735683 0.215906 0.330245 5.57356e-06 2
0.00653161 0.0266854 0.0240022 0.735683 0.215906 0.330245 5.45964e-06 2
0.0106528 0.0256307 0.0264262 0.735683 0.215906 0.330245 9.2449e-07 2
0.010555 0.0237034 0.0313906 0.735683 0.215906 0.330245 1.78661e-06 2
0.00704918 0.0249147 0.0208006 0.735683 0.215906 0.330245 5.94069e-06 2
0.00827303 0.0238802 0.0257714 0.735683 0.215906 0.330245 8.72949e-07 2
0.0101276 0.021355 0.030581 0.735683 0.215906 0.330245 9.43849e-07 2
0.00858245 0.0207999 0.027793 0.735683 0.215906 0.330245 6.74679e-07 2
0.00886947 0.0216362 0.0273162 0.735683 0.215906 0.330245 9.31136e-08 2
0.00975745 0.0257997 0.0275968 0.735683 0.215906 0.330245 7.09853e-07 2
0.00945541 0.0212797 0.0241672 0.735683 0.215906 0.330245 3.90209e-07 2
0.00974841 0.0258056 0.0250398 0.735683 0.215906 0.330245 1.33336e-06 2
0.00863955 0.0207071 0.0204149 0.735683 0.215906 0.330245 1.99734e-06 2
0.00988373 0.0218907 0.0277491 0.735683 0.215906 0.330245 7.74893e-08 2
0.00843974 0.025741 0.0178946 0.735683 0.215906 0.330245 2.55138e-06 2
0.00920082 0.0218618 0.0249497 0.735683 0.215906 0.330245 2.87428e-07 2
0.0105602 0.0254321 0.0302816 0.735683 0.215906 0.330245 9.66297e-07 2
0.0102391 0.025743 0.0204119 0.735683 0.215906 0.330245 2.94192e-06 2
0.00850345 0.0257273 0.0279193 0.735683 0.215906 0.330245 1.5467e-06 2
0.00918497 0.0191374 0.0204729 0.735683 0.215906 0.330245 3.75774e-06 2
0.0104434 0.0212818 0.0278446 0.735683 0.215906 0.330245 1.65319e-07 2
0.00563261 0.0282928 0.0208664 0.735683 0.215906 0.330245 2.30444e-06 2
0.0105583 0.0255069 0.0280517 0.735683 0.215906 0.330245 1.49243e-06 2
0.0070509 0.0249144 0.0216738 0.735683 0.215906 0.330245 5.77861e-07 2
0.0088235 0.0216306 0.0259086 0.735683 0.215906 0.330245 1.72691e-07 2
0.0105493 0.0237789 0.0272798 0.735683 0.215906 0.330245 6.49206e-07 2
0.00620322 0.0247751 0.0235144 0.735683 0.215906 0.330245 2.04029e-06 2
0.00920701 0.0219596 0.0300998 0.735683 0.215906 0.330245 1.4578e-07 2
0.0084944 0.0257332 0.0253624 0.735683 0.215906 0.330245 2.8645e-06 2
0.0106617 0.0273587 0.0271981 0.735683 0.215906 0.330245 1.93301e-06 2
0.00833349 0.0239106 0.0276479 0.735683 0.215906 0.330245 3.48577e-07 2
0.00960787 0.0218676 0.0213171 0.735683 0.215906 0.330245 4.11097e-07 2
0.0115532 0.0272345 0.0233095 0.735683 0.215906 0.330245 2.54061e-06 2
0.00948405 0.0221312 0.028179 0.735683 0.215906 0.330245 5.73864e-08 2
0.0106496 0.0237171 0.0254139 0.735683 0.215906 0.330245 1.62582e-06 2
0.0081138 0.0237912 0.0271769 0.735683 0.215906 0.330245 4.70686e-07 2
0.00908754 0.0217784 0.0277629 0.735683 0.215906 0.330245 6.89573e-08 2
0.0112469 0.0233574 0.0245687 0.735683 0.215906 0.330245 2.48029e-06 2
0.00783401 0.02362 0.0277048 0.735683 0.215906 0.330245 2.71609e-07 2
0.00719061 0.0252619 0.028849 0.735683 0.215906 0.330245 6.25264e-07 2
0.00925922 0.0208524 0.0282702 0.735683 0.215906 0.330245 2.71725e-07 2
0.010949 0.0235384 0.0268499 0.735683 0.215906 0.330245 8.76628e-07 2
0.0102663 0.0256099 0.0316316 0.735683 0.215906 0.330245 4.60262e-06 2
0.0097432 0.0275458 0.0231991 0.735683 0.215906 0.330245 2.13558e-06 2
0.0136679 0.0261588 0.0232992 0.735683 0.215906 0.330245 6.05441e-06 2
0.00850512 0.0274609 0.0270393 0.735683 0.215906 0.330245 3.686e-06 2
0.00955532 0.0205312 0.019043 0.735683 0.215906 0.330245 1.04342e-06 2
0.0100169 0.0216217 0.0240875 0.735683 0.215906 0.330245 4.38489e-07 2
0.00648199 0.0266924 0.0190883 0.735683 0.215906 0.330245 6.98721e-06 2
0.00960395 0.0217196 0.028277 0.735683 0.215906 0.330245 5.10678e-08 2
0.00847894 0.0214084 0.0250663 0.735683 0.215906 0.330245 2.55781e-07 2
0.00927685 0.0202275 0.0316395 0.735683 0.215906 0.330245 4.28631e-06 2
0.00764132 0.0272496 0.0290806 0.735683 0.215906 0.330245 3.75277e-06 2
0.00762392 0.0269988 0.0340455 0.735683 0.215906 0.330245 3.6871e-06 2
0.010831 0.0236507 0.0183521 0.735683 0.215906 0.330245 2.10658e-06 2
0.00948314 0.0210587 0.0260144 0.735683 0.215906 0.330245 4.14012e-07 2
0.0106437 0.0274158 0.0218674 0.735683 0.215906 0.330245 4.92982e-06 2
0.0102729 0.0272475 0.0331263 0.735683 0.215906 0.330245 3.8207e-06 2
0.00959668 0.0199513 0.022389 0.735683 0.215906 0.330245 5.16888e-07 2
0.01065 0.0256311 0.0250332 0.735683 0.215906 0.330245 1.71459e-06 2
0.00652819 0.0284253 0.0230665 0.735683 0.215906 0.330245 1.29109e-06 2
0.00794728 0.0237034 0.0248915 0.735683 0.215906 0.330245 1.29296e-06 2
0.00564172 0.0244331 0.0235941 0.735683 0.215906 0.330245 1.80121e-06 2
0.00976664 0.0212293 0.0273675 0.735683 0.215906 0.330245 2.23232e-07 2
0.00737929 0.0268246 0.0221616 0.735683 0.215906 0.330245 1.05095e-05 2
0.00975912 0.0275333 0.0267168 0.735683 0.215906 0.330245 1.71243e-06 2
0.00761593 0.0234778 0.027258 0.735683 0.215906 0.330245 3.66756e-07 2
0.0117494 0.0252015 0.0227868 0.735683 0.215906 0.330245 3.58438e-06 2
0.00936733 0.0219496 0.0272351 0.735683 0.215906 0.330245 1.04634e-07 2
0.0090504 0.0198967 0.0292976 0.735683 0.215906 0.330245 4.17289e-07 2
0.00791979 0.0215924 0.0205505 0.735683 0.215906 0.330245 5.61248e-08 2
0.0108367 0.0236478 0.0204732 0.735683 0.215906 0.330245 2.3796e-06 2
0.00901018 0.0239628 0.0212558 0.735683 0.215906 0.330245 1.05038e-06 2
0.00948776 0.0221306 0.0300599 0.735683 0.215906 0.330245 1.63817e-07 2
0.0102358 0.0257435 0.0187631 0.735683 0.215906 0.330245 2.6135e-06 2
0.00747136 0.0254329 0.0288092 0.735683 0.215906 0.330245 8.15161e-07 2
0.00832796 0.0238314 0.0306902 0.735683 0.215906 0.330245 9.60422e-07 2
0.00804721 0.0236603 0.03073 0.735683 0.215906 0.330245 7.5713e-07 2
0.00849792 0.0256481 0.0309616 0.735683 0.215906 0.330245 4.47275e-06 2
0.00850453 0.0272857 0.0324564 0.735683 0.215906 0.330245 3.69883e-06 2
0.0134312 0.0257953 0.0297007 0.735683 0.215906 0.330245 6.05309e-06 2
0.0130641 0.0281045 0.0293125 0.735683 0.215906 0.330245 1.55509e-06 2
0.0140397 0.0274578 0.0310009 0.735683 0.215906 0.330245 5.96987e-07 2
0.0124556 0.026442 0.0280123 0.735683 0.215906 0.330245 7.47958e-06 2
0.0162316 0.0199672 0.0285715 0.735683 0.215906 0.330245 1.25267e-06 2
0.0101637 0.0186336 0.0337556 0.735683 0.215906 0.330245 4.30677e-06 2
0.0129396 0.0222293 0.0255479 0.735683 0.215906 0.330245 1.46319e-06 2
0.0100263 0.0189164 0.0322074 0.735683 0.215906 0.330245 9.45739e-07 2
0.0100284 0.0190961 0.0244742 0.735683 0.215906 0.330245 3.80333e-06 2
0.0155813 0.0215238 0.0234366 0.735683 0.215906 0.330245 4.52397e-06 2
0.0122872 0.0224384 0.0313429 0.735683 0.215906 0.330245 4.4876e-06 2
0.0131655 0.0243147 0.025081 0.735683 0.215906 0.330245 4.10222e-06 2
0.0153713 0.0214806 0.0335907 0.735683 0.215906 0.330245 6.2515e-06 2
0.0128865 0.0216407 0.0333419 0.735683 0.215906 0.330245 7.6801e-06 2
0.0179318 0.019466 0.0366056 0.735683 0.215906 0.330245 2.61935e-06 2
0.0144479 0.0195257 0.0332536 0.735683 0.215906 0.330245 2.39469e-06 2
0.00974276 0.0187458 0.0308542 0.735683 0.215906 0.330245 1.76852e-06 2
0.0181082 0.0202707 0.0295613 0.735683 0.215906 0.330245 7.85441e-07 2
0.0175766 0.0216251 0.0247325 0.735683 0.215906 0.330245 1.02474e-05 2
0.016106 0.0202788 0.0317817 0.735683 0.215906 0.330245 1.63826e-06 2
0.0162911 0.0199007 0.0269942 0.735683 0.215906 0.330245 1.04193e-06 2
0.0100086 0.0195414 0.028838 0.735683 0.215906 0.330245 2.19806e-06 2
0.0143335 0.0198777 0.0291127 0.735683 0.215906 0.330245 1.43064e-06 2
0.0114763 0.0192462 0.0331479 0.735683 0.215906 0.330245 2.96902e-06 2
0.0105935 0.0198734 0.0297957 0.735683 0.215906 0.330245 3.65091e-07 2
0.0181136 0.0196217 0.0318252 0.735683 0.215906 0.330245 1.85043e-06 2
0.0104596 0.02093 0.0251153 0.735683 0.215906 0.330245 6.31601e-07 2
0.0135549 0.0213608 0.0248651 0.735683 0.215906 0.330245 2.85612e-06 2
0.0129804 0.0219352 0.028689 0.735683 0.215906 0.330245 2.25834e-06 2
0.0170294 0.0222337 0.0321188 0.735683 0.215906 0.330245 5.32046e-06 2
0.0180347 0.0184996 0.0365882 0.735683 0.215906 0.330245 1.15948e-06 2
0.0163023 0.0193923 0.0343822 0.735683 0.215906 0.330245 3.87744e-06 2
0.0162101 0.0201812 0.0301025 0.735683 0.215906 0.330245 9.28657e-07 2
0.0115517 0.0195181 0.0293362 0.735683 0.215906 0.330245 8.84322e-07 2
0.0178455 0.0174745 0.0365902 0.735683 0.215906 0.330245 2.8166e-06 2
0.0155502 0.0214622 0.026161 0.735683 0.215906 0.330245 5.89072e-06 2
0.0144664 0.0256093 0.0263748 0.735683 0.215906 0.330245 3.78016e-06 2
0.0152754 0.0218553 0.0286086 0.735683 0.215906 0.330245 4.82789e-06 2
0.0164326 0.0235062 0.0272342 0.735683 0.215906 0.330245 4.46341e-06 2
0.0164391 0.0233294 0.0304376 0.735683 0.215906 0.330245 4.24922e-06 2
0.0128473 0.0244733 0.0272985 0.735683 0.215906 0.330245 2.5109e-06 2
0.0126215 0.0223879 0.0277654 0.735683 0.215906 0.330245 7.75996e-07 2
0.0141818 0.023374 0.0299105 0.735683 0.215906 0.330245 2.3831e-06 2
0.0142406 0.0235238 0.0268417 0.735683 0.215906 0.330245 1.36349e-06 2
0.0171519 0.0221588 0.0295984 0.735683 0.215906 0.330245 3.20315e-06 2
0.0146549 0.0191164 0.0274962 0.735683 0.215906 0.330245 3.61425e-06 2
0.0173234 0.0146963 0.0255239 0.735683 0.215906 0.330245 6.96047e-06 2
0.0170978 0.0147898 0.032287 0.735683 0.215906 0.330245 4.30268e-06 2
0.0137079 0.0158795 0.0282489 0.735683 0.215906 0.330245 4.33051e-06 2
0.0180039 0.0162062 0.0258035 0.735683 0.215906 0.330245 2.81278e-06 2
0.0151428 0.0151593 0.0312702 0.735683 0.215906 0.330245 1.9951e-07 2
0.0177893 0.0163659 0.0318608 0.735683 0.215906 0.330245 2.10846e-06 2
0.0114711 0.0172862 0.0228864 0.735683 0.215906 0.330245 2.83674e-06 2
0.0181331 0.0182588 0.0318175 0.735683 0.215906 0.330245 2.26608e-06 2
0.0151569 0.0151358 0.0299614 0.735683 0.215906 0.330245 2.76534e-06 2
0.0181576 0.0180915 0.0295466 0.735683 0.215906 0.330245 1.64861e-06 2
0.0126096 0.0176178 0.0205811 0.735683 0.215906 0.330245 4.78733e-07 2
0.0144929 0.0116377 0.0298257 0.735683 0.215906 0.330245 6.74133e-06 2
0.0148003 0.0170713 0.0210965 0.735683 0.215906 0.330245 1.33304e-06 2
0.0181237 0.0164438 0.0241531 0.735683 0.215906 0.330245 1.40639e-06 2
0.01815 0.0187175 0.0328794 0.735683 0.215906 0.330245 1.13304e-06 2
0.0157137 0.0152235 0.0218564 0.735683 0.215906 0.330245 5.62853e-06 2
0.0149278 0.0190653 0.0209182 0.735683 0.215906 0.330245 1.55946e-06 2
0.0179648 0.0168426 0.0301938 0.735683 0.215906 0.330245 1.25357e-06 2
0.0179159 0.0170915 0.0328853 0.735683 0.215906 0.330245 2.79592e-06 2
0.0166959 0.0182495 0.0215997 0.735683 0.215906 0.330245 5.5377e-06 2
0.016106 0.0133169 0.0304834 0.735683 0.215906 0.330245 6.23243e-06 2
0.014505 0.0197663 0.0219758 0.735683 0.215906 0.330245 3.83181e-06 2
0.0167683 0.013641 0.0239023 0.735683 0.215906 0.330245 5.77829e-06 2
0.0164076 0.0170184 0.0279114 0.735683 0.215906 0.330245 2.7368e-06 2
0.012342 0.0185608 0.0216159 0.735683 0.215906 0.330245 1.32386e-06 2
0.012429 0.0182042 0.0322196 0.735683 0.215906 0.330245 8.57398e-07 2
0.014185 0.0134213 0.0244746 0.735683 0.215906 0.330245 7.68843e-06 2
0.0162124 0.0136984 0.0336191 0.735683 0.215906 0.330245 2.72614e-06 2
0.012721 0.0148476 0.0267133 0.735683 0.215906 0.330245 1.01364e-05 2
0.017176 0.0147648 0.0293443 0.735683 0.215906 0.330245 2.64122e-06 2
0.0165765 0.0182678 0.0278734 0.735683 0.215906 0.330245 4.27701e-06 2
0.0182286 0.0176947 0.0257489 0.735683 0.215906 0.330245 4.31834e-06 2
0.015727 0.0155084 0.0276318 0.735683 0.215906 0.330245 6.73606e-06 2
0.0164052 0.0184259 0.0343648 0.735683 0.215906 0.330245 1.70768e-06 2
0.00989191 0.0180535 0.0226858 0.735683 0.215906 0.330245 4.49331e-06 2
0.0165438 0.0167583 0.0218047 0.735683 0.215906 0.330245 1.1143e-06 2
0.0181574 0.0198445 0.0301554 0.735683 0.215906 0.330245 1.04893e-06 2
0.0183334 0.0187063 0.0239432 0.735683 0.215906 0.330245 7.64254e-06 2
0.0114799 0.0172061 0.0266158 0.735683 0.215906 0.330245 3.19099e-06 2
0.0152039 0.0155839 0.0346745 0.735683 0.215906 0.330245 4.50035e-06 2
0.0124668 0.018238 0.0281514 0.735683 0.215906 0.330245 1.36327e-06 2
0.0181993 0.0187821 0.0301458 0.735683 0.215906 0.330245 1.28454e-06 2
0.0151026 0.0151603 0.0322949 0.735683 0.215906 0.330245 2.64601e-06 2
0.0140941 0.0170457 0.0333503 0.735683 0.215906 0.330245 3.65703e-06 2
0.0183176 0.0200636 0.0255656 0.735683 0.215906 0.330245 2.38615e-06 2
0.0162159 0.0174008 0.0343668 0.735683 0.215906 0.330245 4.16815e-06 2
0.0178565 0.0162747 0.0296239 0.735683 0.215906 0.330245 1.05659e-06 2
0.0179603 0.0201454 0.0329103 0.735683 0.215906 0.330245 2.67043e-06 2
0.0116076 0.0183287 0.0246748 0.735683 0.215906 0.330245 2.19583e-06 2
0.0122105 0.0186538 0.0297578 0.735683 0.215906 0.330245 5.05871e-07 2
0.0123694 0.0180413 0.0188987 0.735683 0.215906 0.330245 1.76787e-07 2
0.0121486 0.0249079 0.0111001 0.735683 0.215906 0.330245 4.55507e-06 2
0.0119056 0.0229845 0.0147865 0.735683 0.215906 0.330245 3.75543e-06 2
0.0147012 0.0230263 0.0138245 0.735683 0.215906 0.330245 3.17331e-06 2
0.0117242 0.0203559 0.0149591 0.735683 0.215906 0.330245 5.01712e-07 2
0.0101729 0.0210729 0.016921 0.735683 0.215906 0.330245 1.70159e-07 2
0.0119186 0.019315 0.0204612 0.735683 0.215906 0.330245 6.45779e-07 2
0.0117049 0.0252378 0.0168402 0.735683 0.215906 0.330245 4.19705e-06 2
0.0112897 0.0210155 0.0158885 0.735683 0.215906 0.330245 3.97248e-07 2
0.0143478 0.0202827 0.0113839 0.735683 0.215906 0.330245 3.7885e-06 2
0.0173813 0.022128 0.0178768 0.735683 0.215906 0.330245 1.14282e-05 2
0.0164697 0.0235515 0.0114646 0.735683 0.215906 0.330245 1.96013e-06 2
0.0139891 0.0207678 0.0155206 0.735683 0.215906 0.330245 1.15811e-06 2
0.0156156 0.0215457 0.0193111 0.735683 0.215906 0.330245 2.53127e-06 2
0.0151894 0.0223166 0.020847 0.735683 0.215906 0.330245 5.69846e-06 2
0.0160052 0.0209029 0.0144846 0.735683 0.215906 0.330245 2.56212e-06 2
0.0114376 0.0232876 0.0214061 0.735683 0.215906 0.330245 2.55974e-06 2
0.0182969 0.0175024 0.0194353 0.735683 0.215906 0.330245 7.24989e-06 2
0.0137962 0.0211079 0.0141695 0.735683 0.215906 0.330245 4.33588e-06 2
0.0138402 0.0238899 0.0138142 0.735683 0.215906 0.330245 3.54984e-06 2
0.0167102 0.0180753 0.0182322 0.735683 0.215906 0.330245 2.55971e-06 2
0.0151729 0.0251153 0.0119098 0.735683 0.215906 0.330245 1.57308e-06 2
0.0119113 0.019322 0.0190547 0.735683 0.215906 0.330245 3.26527e-07 2
0.0101041 0.0202694 0.0146862 0.735683 0.215906 0.330245 2.01421e-06 2
0.0155716 0.0216664 0.0124397 0.735683 0.215906 0.330245 2.24508e-06 2
0.00939381 0.0217591 0.0174501 0.735683 0.215906 0.330245 5.93491e-07 2
0.0111018 0.0273373 0.0158025 0.735683 0.215906 0.330245 5.17998e-06 2
0.0146876 0.0194888 0.0192357 0.735683 0.215906 0.330245 5.75877e-07 2
0.013029 0.0183068 0.0181944 0.735683 0.215906 0.330245 1.15888e-07 2
0.010297 0.0199294 0.0160373 0.735683 0.215906 0.330245 1.153e-06 2
0.0133803 0.0242906 0.0190771 0.735683 0.215906 0.330245 2.25371e-06 2
0.0114285 0.0232949 0.0191264 0.735683 0.215906 0.330245 1.28741e-06 2
0.016929 0.0229114 0.0158382 0.735683 0.215906 0.330245 4.76891e-06 2
0.0120944 0.0189913 0.018527 0.735683 0.215906 0.330245 2.44438e-07 2
0.0131015 0.0265203 0.0159849 0.735683 0.215906 0.330245 3.71889e-06 2
0.0113087 0.0233382 0.013537 0.735683 0.215906 0.330245 2.50889e-06 2
0.0124363 0.0268411 0.0114683 0.735683 0.215906 0.330245 3.96962e-06 2
0.0114378 0.0183829 0.0187835 0.735683 0.215906 0.330245 2.02669e-07 2
0.0140781 0.0257796 0.0104452 0.735683 0.215906 0.330245 5.81415e-06 2
0.0148689 0.0192459 0.0187142 0.735683 0.215906 0.330245 7.88537e-07 2
0.0123193 0.0200025 0.0152611 0.735683 0.215906 0.330245 6.89017e-08 2
0.0116627 0.0195454 0.0141308 0.735683 0.215906 0.330245 1.36698e-06 2
0.0133176 0.0218873 0.0189474 0.735683 0.215906 0.330245 9.46372e-07 2
0.0149128 0.0227762 0.0168743 0.735683 0.215906 0.330245 2.20916e-06 2
0.00951846 0.0187229 0.0143462 0.735683 0.215906 0.330245 2.80771e-06 2
0.0152058 0.0252317 0.015645 0.735683 0.215906 0.330245 4.41135e-06 2
0.0101918 0.025735 0.0140248 0.735683 0.215906 0.330245 3.11545e-06 2
0.0164549 0.0200891 0.0173293 0.735683 0.215906 0.330245 3.20571e-06 2
0.0160668 0.0243681 0.0156553 0.735683 0.215906 0.330245 3.9643e-06 2
0.0160339 0.0242517 0.0119201 0.735683 0.215906 0.330245 1.4298e-06 2
0.0165137 0.0236291 0.0222338 0.735683 0.215906 0.330245 8.602e-06 2
0.017595 0.0217946 0.0128102 0.735683 0.215906 0.330245 1.70451e-06 2
0.0141793 0.0259289 0.0174474 0.735683 0.215906 0.330245 7.75678e-06 2
0.0147119 0.0255961 0.0218704 0.735683 0.215906 0.330245 6.72535e-06 2
0.00982398 0.019303 0.0175573 0.735683 0.215906 0.330245 9.14307e-07 2
0.0130879 0.0181263 0.0203983 0.735683 0.215906 0.330245 2.29186e-07 2
0.0121933 0.0249177 0.0151548 0.735683 0.215906 0.330245 1.01794e-06 2
0.0135007 0.0215566 0.0184196 0.735683 0.215906 0.330245 7.08454e-07 2
0.0140816 0.0205205 0.0208211 0.735683 0.215906 0.330245 1.86916e-06 2
0.0128477 0.0185497 0.0187159 0.735683 0.215906 0.330245 8.46339e-08 2
0.0133876 0.0242835 0.0204836 0.735683 0.215906 0.330245 4.45722e-06 2
0.015246 0.0221677 0.0104088 0.735683 0.215906 0.330245 2.92004e-06 2
0.0107524 0.0199381 0.0214348 0.735683 0.215906 0.330245 2.25094e-06 2
0.0102263 0.0274899 0.0172517 0.735683 0.215906 0.330245 4.88679e-06 2
0.0154325 0.0218763 0.0198389 0.735683 0.215906 0.330245 1.38741e-06 2
0.0115964 0.0252714 0.0139052 0.735683 0.215906 0.330245 2.21146e-06 2
0.0124993 0.0221719 0.00908298 0.735683 0.215906 0.330245 4.76217e-06 2
0.0135381 0.0212064 0.00971141 0.735683 0.215906 0.330245 2.045e-06 2
0.0147745 0.0194404 0.0155085 0.735683 0.215906 0.330245 1.31256e-06 2
0.0167042 0.0177684 0.0150514 0.735683 0.215906 0.330245 3.17639e-06 2
0.0148189 0.0171132 0.0159706 0.735683 0.215906 0.330245 1.20767e-06 2
0.0118556 0.0192053 0.0154819 0.735683 0.215906 0.330245 1.22642e-06 2
0.0183738 0.0200558 0.0163736 0.735683 0.215906 0.330245 3.6215e-06 2
0.00971141 0.0183829 0.0156973 0.735683 0.215906 0.330245 2.30725e-06 2
0.0146593 0.0168228 0.0172717 0.735683 0.215906 0.330245 7.0708e-07 2
0.0183846 0.018417 0.0168722 0.735683 0.215906 0.330245 8.18687e-06 2
0.0166649 0.0194178 0.0112245 0.735683 0.215906 0.330245 3.04867e-06 2
0.0126965 0.0185806 0.01223 0.735683 0.215906 0.330245 1.12747e-06 2
0.0183628 0.0196151 0.0130445 0.735683 0.215906 0.330245 1.15464e-06 2
0.0183736 0.0179764 0.0135432 0.735683 0.215906 0.330245 2.67653e-06 2
0.0163391 0.0204585 0.011126 0.735683 0.215906 0.330245 2.03061e-06 2
0.0183274 0.0194525 0.00975852 0.735683 0.215906 0.330245 1.81889e-06 2
0.0181639 0.0201859 0.00882235 0.735683 0.215906 0.330245 2.76543e-06 2
0.0126699 0.0178305 0.0156921 0.735683 0.215906 0.330245 3.95864e-07 2
0.0145112 0.0166599 0.0152101 0.735683 0.215906 0.330245 1.76395e-06 2
0.0178422 0.0213693 0.00948785 0.735683 0.215906 0.330245 1.41424e-06 2
0.0129776 0.0182838 0.0164526 0.735683 0.215906 0.330245 2.71024e-07 2
0.0182422 0.0201642 0.0123913 0.735683 0.215906 0.330245 1.53104e-06 2
0.0159221 0.0156432 0.0134909 0.735683 0.215906 0.330245 2.89943e-06 2
0.0171909 0.022412 0.00924781 0.735683 0.215906 0.330245 2.71401e-06 2
0.0182293 0.0177401 0.00940506 0.735683 0.215906 0.330245 2.6295e-06 2
0.0179164 0.021205 0.0122928 0.735683 0.215906 0.330245 1.00519e-06 2
0.0166934 0.0194071 0.0145527 0.735683 0.215906 0.330245 1.48145e-06 2
0.0165667 0.0177053 0.010871 0.735683 0.215906 0.330245 4.71341e-06 2
0.0181548 0.016813 0.0125365 0.735683 0.215906 0.330245 5.59079e-06 2
0.0142551 0.0196191 0.00752126 0.735683 0.215906 0.330245 8.97272e-07 2
0.0117659 0.0174845 0.0094583 0.735683 0.215906 0.330245 1.48143e-06 2
0.0104287 0.0185214 0.0111317 0.735683 0.215906 0.330245 4.68215e-06 2
0.0123296 0.0188374 0.0107321 0.735683 0.215906 0.330245 1.03816e-06 2
0.0154831 0.0214506 0.00855037 0.735683 0.215906 0.330245 2.02735e-06 2
0.0198173 0.0168478 0.0110705 0.735683 0.215906 0.330245 2.98502e-07 2
0.0168478 0.0137191 0.0139863 0.735683 0.215906 0.330245 6.43886e-06 2
0.0176838 0.015257 0.0123567 0.735683 0.215906 0.330245 3.2549e-06 2
0.014334 0.0165355 0.0118254 0.735683 0.215906 0.330245 2.7523e-06 2
0.0160957 0.0161493 0.0106913 0.735683 0.215906 0.330245 2.59993e-06 2
0.0110548 0.017297 0.0159794 0.735683 0.215906 0.330245 1.54377e-06 2
0.0123191 0.0144357 0.0224781 0.735683 0.215906 0.330245 6.18045e-06 2
0.010725 0.0178522 0.0180584 0.735683 0.215906 0.330245 3.73742e-08 2
0.0141489 0.0133806 0.01912 0.735683 0.215906 0.330245 2.03369e-06 2
0.0120415 0.011835 0.0186782 0.735683 0.215906 0.330245 2.84332e-06 2
0.0181448 0.0160112 0.0196403 0.735683 0.215906 0.330245 1.45409e-06 2
0.0106135 0.0129669 0.0169993 0.735683 0.215906 0.330245 1.6692e-06 2
0.0106511 0.00946578 0.0130821 0.735683 0.215906 0.330245 1.7187e-06 2
0.012395 0.0141491 0.0157812 0.735683 0.215906 0.330245 3.39972e-06 2
0.00985417 0.0155396 0.0155731 0.735683 0.215906 0.330245 1.41616e-06 2
0.0106221 0.0114538 0.0111305 0.735683 0.215906 0.330245 4.22337e-06 2
0.0131869 0.0148532 0.01637 0.735683 0.215906 0.330245 1.99076e-06 2
0.0166481 0.0133964 0.0197954 0.735683 0.215906 0.330245 7.03226e-06 2
0.0121632 0.0172972 0.0180039 0.735683 0.215906 0.330245 3.31463e-07 2
0.0107076 0.0170542 0.0169902 0.735683 0.215906 0.330245 8.58583e-07 2
0.0104937 0.0169664 0.0191178 0.735683 0.215906 0.330245 8.58872e-07 2
0.013793 0.0108882 0.014415 0.735683 0.215906 0.330245 5.81997e-06 2
0.0105418 0.0181829 0.0185861 0.735683 0.215906 0.330245 1.00145e-06 2
0.00989942 0.0152447 0.0189078 0.735683 0.215906 0.330245 2.32748e-07 2
0.0137029 0.0155092 0.0212915 0.735683 0.215906 0.330245 2.34021e-06 2
0.0109945 0.0135856 0.0118497 0.735683 0.215906 0.330245 6.87775e-06 2
0.0128181 0.0179934 0.0177536 0.735683 0.215906 0.330245 1.58683e-07 2
0.0118959 0.0171022 0.0186274 0.735683 0.215906 0.330245 2.42071e-07 2
0.0121721 0.0120098 0.0219495 0.735683 0.215906 0.330245 2.60347e-06 2
0.00960086 0.0179166 0.0176844 0.735683 0.215906 0.330245 1.06206e-06 2
0.0130705 0.0148517 0.0182489 0.735683 0.215906 0.330245 8.51231e-07 2
0.0103019 0.0094301 0.0179131 0.735683 0.215906 0.330245 5.2388e-06 2
0.0164013 0.0163242 0.0189321 0.735683 0.215906 0.330245 1.7447e-06 2
0.0155406 0.0120411 0.0196971 0.735683 0.215906 0.330245 3.66914e-06 2
0.0116988 0.0138038 0.0195717 0.735683 0.215906 0.330245 9.16107e-07 2
0.0173313 0.0144487 0.0181493 0.735683 0.215906 0.330245 7.73712e-06 2
0.0116209 0.0180522 0.0182557 0.735683 0.215906 0.330245 3.34704e-07 2
0.0148703 0.0171362 0.0177124 0.735683 0.215906 0.330245 5.16388e-07 2
0.0154369 0.0147358 0.0157056 0.735683 0.215906 0.330245 3.91938e-06 2
0.0133378 0.0150467 0.0176254 0.735683 0.215906 0.330245 1.16557e-06 2
0.0118602 0.0117463 0.0141682 0.735683 0.215906 0.330245 3.88158e-06 2
0.0128913 0.0127699 0.0108589 0.735683 0.215906 0.330245 9.12222e-06 2
0.0125656 0.0121074 0.0163031 0.735683 0.215906 0.330245 3.80582e-06 2
0.0107249 0.0131432 0.0212137 0.735683 0.215906 0.330245 3.7562e-06 2
0.0129128 0.0123502 0.0152923 0.735683 0.215906 0.330245 5.2887e-07 2
0.00937488 0.0147357 0.0176955 0.735683 0.215906 0.330245 4.64785e-07 2
0.010646 0.0162437 0.0161619 0.735683 0.215906 0.330245 8.29257e-07 2
0.0148226 0.0115321 0.0131054 0.735683 0.215906 0.330245 5.91046e-06 2
0.0142832 0.0136017 0.021918 0.735683 0.215906 0.330245 2.3088e-06 2
0.0125435 0.0100389 0.0196496 0.735683 0.215906 0.330245 3.50786e-06 2
0.0136508 0.0129442 0.0188754 0.735683 0.215906 0.330245 2.3122e-06 2
0.0139936 0.0109755 0.017982 0.735683 0.215906 0.330245 6.63348e-06 2
0.0137108 0.0130963 0.0230552 0.735683 0.215906 0.330245 9.28237e-07 2
0.0111228 0.00958162 0.0197403 0.735683 0.215906 0.330245 4.20281e-06 2
0.0111941 0.00955584 0.0143232 0.735683 0.215906 0.330245 3.46086e-06 2
0.0155878 0.0149293 0.0169609 0.735683 0.215906 0.330245 2.29476e-06 2
0.0161451 0.0126815 0.0128522 0.735683 0.215906 0.330245 2.77508e-06 2
0.0130225 0.0153461 0.0102141 0.735683 0.215906 0.330245 8.0659e-06 2
0.0102076 0.0110449 0.021771 0.735683 0.215906 0.330245 4.05051e-06 2
0.0141323 0.0134082 0.0206626 0.735683 0.215906 0.330245 5.15536e-07 2
0.0122008 0.0120077 0.020543 0.735683 0.215906 0.330245 1.11618e-06 2
0.0113091 0.00997647 0.00912833 0.735683 0.215906 0.330245 2.58613e-06 2
0.0102947 0.0110193 0.0161435 0.735683 0.215906 0.330245 2.74012e-06 2
0.0152237 0.0146538 0.0110833 0.735683 0.215906 0.330245 2.58861e-06 2
0.000703303 0.020255 0.00648552 0.735683 0.215906 0.330245 3.41842e-06 2
0.00167288 0.0200868 0.00352222 0.735683 0.215906 0.330245 4.27999e-06 2
0.00645757 0.0191332 0.00840443 0.735683 0.215906 0.330245 9.47192e-07 2
0.00209396 0.0175961 0.00757809 0.735683 0.215906 0.330245 3.44308e-06 2
0.000848684 0.0213428 0.0164493 0.735683 0.215906 0.330245 1.21375e-06 2
0.000830972 0.0172042 0.00536731 0.735683 0.215906 0.330245 3.76578e-06 2
0.000380702 0.0176038 0.0120579 0.735683 0.215906 0.330245 3.10352e-06 2
0.00457703 0.0205282 0.0139896 0.735683 0.215906 0.330245 4.05858e-06 2
0.000493728 0.0167166 0.0160227 0.735683 0.215906 0.330245 3.54831e-06 2
0.00250925 0.0241907 0.0174635 0.735683 0.215906 0.330245 6.14001e-06 2
0.00288268 0.014072 0.00423549 0.735683 0.215906 0.330245 7.15098e-06 2
0.00203114 0.0224268 0.00468944 0.735683 0.215906 0.330245 4.12231e-06 2
0.00807825 0.0188283 0.0180573 0.735683 0.215906 0.330245 2.00342e-06 2
0.00301094 0.0154094 0.00742786 0.735683 0.215906 0.330245 5.07293e-06 2
0.00161417 0.0152892 0.00526631 0.735683 0.215906 0.330245 5.74501e-06 2
0.00656289 0.017966 0.0174752 0.735683 0.215906 0.330245 1.75464e-06 2
0.00293672 0.0212551 0.007997 0.735683 0.215906 0.330245 4.81359e-06 2
0.00748377 0.0207203 0.021369 0.735683 0.215906 0.330245 1.98558e-07 2
0.000549968 0.0201862 0.0155603 0.735683 0.215906 0.330245 3.15355e-06 2
0.00147927 0.0221689 0.0064233 0.735683 0.215906 0.330245 4.6858e-06 2
0.00388391 0.0229027 0.0197541 0.735683 0.215906 0.330245 6.49985e-06 2
0.00652028 0.0228863 0.0200157 0.735683 0.215906 0.330245 3.2352e-06 2
0.000926806 0.018951 0.00476511 0.735683 0.215906 0.330245 4.6739e-06 2
0.000369492 0.0193096 0.0168578 0.735683 0.215906 0.330245 3.64535e-06 2
0.00595251 0.0173497 0.012871 0.735683 0.215906 0.330245 1.20458e-07 2
0.00118577 0.0219082 0.0153934 0.735683 0.215906 0.330245 2.63248e-06 2
0.00383912 0.0172985 0.0133541 0.735683 0.215906 0.330245 8.55428e-07 2
0.0016373 0.0140627 0.0144962 0.735683 0.215906 0.330245 4.5667e-06 2
0.00694237 0.0175806 0.0163886 0.735683 0.215906 0.330245 9.53184e-07 2
0.00678843 0.0200638 0.0136884 0.735683 0.215906 0.330245 6.6979e-07 2
0.00175343 0.0140126 0.00876449 0.735683 0.215906 0.330245 5.80085e-06 2
0.00464163 0.0205688 0.0215805 0.735683 0.215906 0.330245 6.25237e-06 2
0.0043831 0.020186 0.0172917 0.735683 0.215906 0.330245 3.60729e-06 2
0.00586011 0.0187891 0.0165521 0.735683 0.215906 0.330245 3.26547e-07 2
0.00728946 0.0193508 0.0148047 0.735683 0.215906 0.330245 8.9354e-07 2
0.00580543 0.0187851 0.0197774 0.735683 0.215906 0.330245 1.97581e-07 2
0.00226945 0.0164763 0.016172 0.735683 0.215906 0.330245 8.37937e-07 2
0.0080292 0.0191507 0.021427 0.735683 0.215906 0.330245 9.12862e-07 2
0.00109182 0.0150642 0.0102251 0.735683 0.215906 0.330245 3.11021e-06 2
0.00679555 0.020125 0.00983369 0.735683 0.215906 0.330245 6.63025e-07 2
0.000352143 0.0175772 0.0171693 0.735683 0.215906 0.330245 3.52669e-06 2
0.00234435 0.0164315 0.00999406 0.735683 0.215906 0.330245 1.53725e-06 2
0.00418916 0.0198437 0.0205963 0.735683 0.215906 0.330245 4.13712e-06 2
0.00920483 0.0187615 0.0189036 0.735683 0.215906 0.330245 1.45989e-06 2
0.00318055 0.0217184 0.0159011 0.735683 0.215906 0.330245 4.11624e-06 2
0.00681769 0.0186307 0.0134247 0.735683 0.215906 0.330245 1.753e-06 2
0.0063972 0.019137 0.0134802 0.735683 0.215906 0.330245 6.5599e-07 2
0.00238405 0.0129553 0.00982013 0.735683 0.215906 0.330245 2.68951e-06 2
0.00258224 0.0207181 0.0134819 0.735683 0.215906 0.330245 2.84764e-06 2
0.00590112 0.0186683 0.0175832 0.735683 0.215906 0.330245 1.73751e-07 2
0.000467824 0.0193456 0.00918539 0.735683 0.215906 0.330245 3.18168e-06 2
0.00280784 0.0211237 0.0191417 0.735683 0.215906 0.330245 2.88544e-06 2
0.00205479 0.0192174 0.0180315 0.735683 0.215906 0.330245 3.25243e-06 2
0.00418638 0.022838 0.0130071 0.735683 0.215906 0.330245 8.13341e-06 2
0.00110102 0.0216613 0.0118241 0.735683 0.215906 0.330245 3.2758e-06 2
0.000416805 0.0193429 0.012552 0.735683 0.215906 0.330245 3.17333e-06 2
0.00686896 0.0198571 0.0148602 0.735683 0.215906 0.330245 3.32422e-07 2
0.00272564 0.0156906 0.0123684 0.735683 0.215906 0.330245 2.76621e-06 2
0.00390844 0.0172902 0.0085102 0.735683 0.215906 0.330245 1.27363e-06 2
0.00227721 0.0164711 0.0143774 0.735683 0.215906 0.330245 4.70077e-07 2
0.0082346 0.0170566 0.0170978 0.735683 0.215906 0.330245 2.11776e-06 2
0.0040273 0.0226217 0.00867239 0.735683 0.215906 0.330245 3.10868e-06 2
0.00551884 0.014959 0.0164421 0.735683 0.215906 0.330245 1.97521e-06 2
0.00206339 0.0175388 0.0132048 0.735683 0.215906 0.330245 3.68482e-06 2
0.0062579 0.0195102 0.0207616 0.735683 0.215906 0.330245 2.615e-07 2
0.00315276 0.0121696 0.00956326 0.735683 0.215906 0.330245 2.44752e-06 2
0.00326032 0.0218488 0.020126 0.735683 0.215906 0.330245 2.10079e-06 2
0.000522612 0.0167371 0.0100639 0.735683 0.215906 0.330245 4.18674e-06 2
0.000625511 0.0202213 0.0110391 0.735683 0.215906 0.330245 4.32221e-06 2
0.00163557 0.0201302 0.0192229 0.735683 0.215906 0.330245 7.54467e-07 2
0.00397816 0.0170579 0.0121374 0.735683 0.215906 0.330245 1.37255e-06 2
0.00446549 0.013513 0.0117575 0.735683 0.215906 0.330245 2.60714e-06 2
0.000401028 0.0176005 0.00870427 0.735683 0.215906 0.330245 3.1191e-06 2
6.49462e-05 0.0210953 0.0200441 0.735683 0.215906 0.330245 1.03296e-06 2
0.00209949 0.0192779 0.0136989 0.735683 0.215906 0.330245 3.69856e-06 2
0.00361444 0.0143526 0.0145849 0.735683 0.215906 0.330245 2.42237e-06 2
0.00845949 0.0192284 0.0125511 0.735683 0.215906 0.330245 2.88128e-06 2
0.0059605 0.022544 0.0209685 0.735683 0.215906 0.330245 2.04493e-06 2
0.00216075 0.0193412 0.00805922 0.735683 0.215906 0.330245 3.54474e-06 2
0.00727543 0.0206089 0.0196232 0.735683 0.215906 0.330245 1.26256e-06 2
0.00513936 0.0153444 0.0175287 0.735683 0.215906 0.330245 3.63602e-06 2
0.00643801 0.0180293 0.0214699 0.735683 0.215906 0.330245 1.84187e-06 2
0.00558906 0.0155523 0.00747298 0.735683 0.215906 0.330245 5.64527e-06 2
0.00800097 0.0175583 0.0203894 0.735683 0.215906 0.330245 9.30708e-07 2
0.00369679 0.0142987 0.0120144 0.735683 0.215906 0.330245 2.93906e-06 2
0.000501866 0.0145434 0.0199776 0.735683 0.215906 0.330245 2.48869e-06 2
0.00102995 0.015135 0.0134409 0.735683 0.215906 0.330245 1.47658e-06 2
0.000501486 0.0167114 0.014228 0.735683 0.215906 0.330245 1.99058e-06 2
0.00236181 0.0203743 0.0177731 0.735683 0.215906 0.330245 1.27991e-06 2
0.00687094 0.0185657 0.0122036 0.735683 0.215906 0.330245 1.02052e-06 2
