ply
format ascii 1.0
comment Created by Open3D
element vertex 661
property float32 x
property float32 y
property float32 z
property float32 red
property float32 green
property float32 blue
property float32 volume
property uint8 segmentation
end_header
0.048161 -0.0968247 -0.00301316 0.978422 0.557937 0.034931 8.17392e-06 3
0.0453029 -0.101542 -0.00615473 0.978422 0.557937 0.034931 2.89677e-06 3
0.0507745 -0.103508 -0.00111844 0.978422 0.557937 0.034931 2.88977e-06 3
0.0472429 -0.104489 -0.00575076 0.978422 0.557937 0.034931 4.13961e-06 3
0.0429563 -0.102856 -0.0059025 0.978422 0.557937 0.034931 2.25328e-06 3
0.0453265 -0.102908 -0.00604199 0.978422 0.557937 0.034931 4.3506e-06 3
0.0497054 -0.0992542 -0.00381296 0.978422 0.557937 0.034931 3.62121e-06 3
0.0434831 -0.100105 -0.00639363 0.978422 0.557937 0.034931 4.07783e-06 3
0.048849 -0.103592 -0.00459261 0.978422 0.557937 0.034931 4.56764e-06 3
0.0488089 -0.100494 -0.00462632 0.978422 0.557937 0.034931 5.43102e-06 3
0.0420508 -0.104337 -0.00795158 0.978422 0.557937 0.034931 7.53975e-07 3
0.0496985 -0.105148 -0.00378137 0.978422 0.557937 0.034931 5.31865e-06 3
0.049845 -0.111158 -0.00255336 0.978422 0.557937 0.034931 4.01964e-06 3
0.0471791 -0.100024 -0.00589723 0.978422 0.557937 0.034931 5.20376e-06 3
0.0475332 -0.107768 -0.00288455 0.978422 0.557937 0.034931 8.68797e-06 3
0.0506192 -0.104927 -0.00206132 0.978422 0.557937 0.034931 4.71638e-06 3
0.0506626 -0.0992917 -0.00563567 0.978422 0.557937 0.034931 2.58968e-07 3
0.0467154 -0.0982146 -0.00613799 0.978422 0.557937 0.034931 2.20239e-06 3
0.04355 -0.103751 -0.00855011 0.978422 0.557937 0.034931 2.71544e-07 3
0.0454128 -0.102308 -0.00832373 0.978422 0.557937 0.034931 1.13543e-06 3
0.0500078 -0.115163 -0.00148337 0.978422 0.557937 0.034931 5.23558e-06 3
0.0500012 -0.113044 -0.0015334 0.978422 0.557937 0.034931 5.23558e-06 3
0.0473855 -0.118634 0.00179957 0.978422 0.557937 0.034931 1.73712e-05 3
0.048454 -0.107547 -0.00116449 0.978422 0.557937 0.034931 7.66075e-06 3
0.0504633 -0.113387 0.000888481 0.978422 0.557937 0.034931 3.87039e-06 3
0.0522637 -0.114267 -0.00238083 0.978422 0.557937 0.034931 5.48747e-07 3
0.0501924 -0.111467 0.00253225 0.978422 0.557937 0.034931 1.38814e-06 3
0.0522571 -0.112148 -0.00243086 0.978422 0.557937 0.034931 5.48747e-07 3
0.0504135 -0.109967 -0.00118102 0.978422 0.557937 0.034931 4.17186e-06 3
0.0481345 -0.111117 -0.00506701 0.978422 0.557937 0.034931 1.83926e-06 3
0.0494878 -0.115023 0.00271889 0.978422 0.557937 0.034931 8.03601e-06 3
0.0503876 -0.112117 0.00151117 0.978422 0.557937 0.034931 1.55921e-06 3
0.0518078 -0.12025 0.00385963 0.978422 0.557937 0.034931 1.46679e-06 3
0.0519033 -0.117072 0.00286641 0.978422 0.557937 0.034931 1.25368e-06 3
0.0520988 -0.11433 -0.00340116 0.978422 0.557937 0.034931 1.05889e-06 3
0.0496047 -0.116806 0.00174769 0.978422 0.557937 0.034931 6.96651e-06 3
0.0506118 -0.123255 0.00105093 0.978422 0.557937 0.034931 4.22104e-06 3
0.0503551 -0.126955 0.00136171 0.978422 0.557937 0.034931 3.19486e-06 3
0.0494023 -0.125386 0.00385298 0.978422 0.557937 0.034931 4.23941e-06 3
0.0481993 -0.118122 -0.00102616 0.978422 0.557937 0.034931 9.38599e-06 3
0.0517958 -0.117649 0.00386163 0.978422 0.557937 0.034931 1.46679e-06 3
0.0503269 -0.125257 0.0020217 0.978422 0.557937 0.034931 4.13575e-06 3
0.0504941 -0.110583 0.000461629 0.978422 0.557937 0.034931 2.82199e-06 3
0.0487052 -0.1229 0.00466259 0.978422 0.557937 0.034931 7.01671e-06 3
0.0496961 -0.121501 0.0029163 0.978422 0.557937 0.034931 7.2139e-06 3
0.0432519 -0.126827 -0.00628991 0.978422 0.557937 0.034931 6.0454e-06 3
0.0490086 -0.123951 -0.00420568 0.978422 0.557937 0.034931 3.28478e-06 3
0.0450176 -0.12091 -0.00826 0.978422 0.557937 0.034931 1.55873e-06 3
0.051674 -0.127034 -0.00389338 0.978422 0.557937 0.034931 2.26028e-06 3
0.0482456 -0.120862 -0.00495884 0.978422 0.557937 0.034931 1.92804e-06 3
0.050001 -0.122391 -0.00235661 0.978422 0.557937 0.034931 3.47091e-06 3
0.0496904 -0.126574 -0.00182816 0.978422 0.557937 0.034931 7.59641e-06 3
0.0469305 -0.123761 -0.00577634 0.978422 0.557937 0.034931 4.36041e-06 3
0.0481054 -0.113327 -0.00509104 0.978422 0.557937 0.034931 1.89273e-06 3
0.0460175 -0.125903 -0.00619299 0.978422 0.557937 0.034931 5.11903e-06 3
0.0472391 -0.117234 -0.00284859 0.978422 0.557937 0.034931 1.03883e-05 3
0.0468029 -0.114329 -0.00590958 0.978422 0.557937 0.034931 3.66843e-06 3
0.0488827 -0.114339 -0.00432614 0.978422 0.557937 0.034931 4.35038e-06 3
0.0468876 -0.117433 -0.00798699 0.978422 0.557937 0.034931 4.20536e-07 3
0.0459628 -0.119121 -0.00842391 0.978422 0.557937 0.034931 6.94964e-07 3
0.0520553 -0.120626 -0.00342883 0.978422 0.557937 0.034931 1.04337e-06 3
0.0498429 -0.115226 -0.00250371 0.978422 0.557937 0.034931 1.74723e-06 3
0.0490524 -0.119633 -0.00416957 0.978422 0.557937 0.034931 4.6832e-06 3
0.0505369 -0.123311 -0.000973107 0.978422 0.557937 0.034931 4.13635e-06 3
0.0446801 -0.120878 -0.00597378 0.978422 0.557937 0.034931 9.62379e-06 3
0.0482134 -0.12331 -0.00498547 0.978422 0.557937 0.034931 2.28404e-06 3
0.0465465 -0.119327 -0.0056909 0.978422 0.557937 0.034931 4.9827e-06 3
0.0500126 -0.120521 -0.00234713 0.978422 0.557937 0.034931 5.64306e-06 3
0.0495444 -0.124872 -0.00282217 0.978422 0.557937 0.034931 3.7401e-06 3
0.0450963 -0.122864 -0.00603259 0.978422 0.557937 0.034931 2.20088e-06 3
0.0455938 -0.128154 -0.00340827 0.978422 0.557937 0.034931 8.5133e-06 3
0.0441833 -0.125006 -0.00644924 0.978422 0.557937 0.034931 4.93131e-06 3
0.0398953 -0.119356 0.00474844 0.978422 0.557937 0.034931 1.92792e-06 3
0.0429208 -0.114974 0.00599367 0.978422 0.557937 0.034931 4.23109e-06 3
0.0435839 -0.130295 0.00699503 0.978422 0.557937 0.034931 2.61612e-06 3
0.0399584 -0.11458 0.00474567 0.978422 0.557937 0.034931 1.56812e-06 3
0.0408814 -0.123339 0.00537259 0.978422 0.557937 0.034931 4.93446e-06 3
0.0425914 -0.117561 0.00384497 0.978422 0.557937 0.034931 7.13214e-06 3
0.0437308 -0.128036 0.00491489 0.978422 0.557937 0.034931 6.2563e-06 3
0.0381056 -0.130547 0.00256362 0.978422 0.557937 0.034931 2.13616e-06 3
0.0456038 -0.127645 0.00465032 0.978422 0.557937 0.034931 6.05634e-06 3
0.0412772 -0.117167 0.00318461 0.978422 0.557937 0.034931 5.28722e-06 3
0.0449764 -0.132359 0.00686433 0.978422 0.557937 0.034931 1.47003e-06 3
0.0421731 -0.125271 0.00809489 0.978422 0.557937 0.034931 4.10252e-07 3
0.0369659 -0.119448 0.00389703 0.978422 0.557937 0.034931 5.13643e-07 3
0.0457564 -0.117175 0.00839185 0.978422 0.557937 0.034931 8.06796e-07 3
0.0426017 -0.131178 0.00678953 0.978422 0.557937 0.034931 1.30806e-06 3
0.038956 -0.132745 0.00445642 0.978422 0.557937 0.034931 1.60128e-06 3
0.0402892 -0.117886 0.00138679 0.978422 0.557937 0.034931 1.25245e-05 3
0.0395969 -0.132795 0.00507421 0.978422 0.557937 0.034931 8.4818e-07 3
0.042373 -0.127731 0.00447581 0.978422 0.557937 0.034931 2.71002e-06 3
0.0401502 -0.12994 0.00544071 0.978422 0.557937 0.034931 1.41497e-06 3
0.0414566 -0.13093 0.00627298 0.978422 0.557937 0.034931 1.99583e-06 3
0.0385899 -0.130897 0.00402124 0.978422 0.557937 0.034931 1.07001e-06 3
0.0395941 -0.130946 0.00507835 0.978422 0.557937 0.034931 5.66786e-07 3
0.0389508 -0.130156 0.00446074 0.978422 0.557937 0.034931 1.07378e-06 3
0.0410808 -0.129742 0.0060394 0.978422 0.557937 0.034931 1.1298e-06 3
0.043531 -0.125576 0.00853396 0.978422 0.557937 0.034931 1.40508e-07 3
0.0405651 -0.119292 0.00739862 0.978422 0.557937 0.034931 3.27523e-07 3
0.036971 -0.123716 0.00389253 0.978422 0.557937 0.034931 8.88842e-07 3
0.0378976 -0.125297 0.00469214 0.978422 0.557937 0.034931 1.76826e-06 3
0.0365957 -0.118387 0.00345424 0.978422 0.557937 0.034931 5.17179e-07 3
0.041506 -0.115099 0.00799963 0.978422 0.557937 0.034931 4.94559e-07 3
0.0454057 -0.131335 0.00855092 0.978422 0.557937 0.034931 2.81408e-07 3
0.0449839 -0.130969 0.00693758 0.978422 0.557937 0.034931 1.46009e-06 3
0.0449008 -0.118108 0.00387862 0.978422 0.557937 0.034931 1.32041e-05 3
0.0428175 -0.12573 0.00610507 0.978422 0.557937 0.034931 9.14818e-07 3
0.0389074 -0.120075 0.00295063 0.978422 0.557937 0.034931 4.70687e-06 3
0.0412095 -0.11975 0.0054088 0.978422 0.557937 0.034931 3.69302e-06 3
0.045427 -0.119763 0.00624316 0.978422 0.557937 0.034931 1.25193e-06 3
0.0428145 -0.124249 0.00611089 0.978422 0.557937 0.034931 5.24189e-06 3
0.0394697 -0.124077 0.00330683 0.978422 0.557937 0.034931 8.22309e-06 3
0.0416341 -0.12109 0.00567875 0.978422 0.557937 0.034931 3.10614e-06 3
0.0441754 -0.126035 0.00654414 0.978422 0.557937 0.034931 2.93668e-06 3
0.0460484 -0.125644 0.00627958 0.978422 0.557937 0.034931 2.92578e-06 3
0.0463624 -0.12934 0.00657687 0.978422 0.557937 0.034931 1.81028e-06 3
0.0441627 -0.122132 0.00655503 0.978422 0.557937 0.034931 4.43082e-06 3
0.0460475 -0.121339 0.00631873 0.978422 0.557937 0.034931 4.52146e-06 3
0.0469458 -0.123133 0.005848 0.978422 0.557937 0.034931 5.64017e-06 3
0.0435422 -0.120556 0.00647946 0.978422 0.557937 0.034931 1.75334e-06 3
0.0459393 -0.138668 0.00551509 0.978422 0.557937 0.034931 7.78799e-07 3
0.0460868 -0.140299 0.00565907 0.978422 0.557937 0.034931 1.25034e-06 3
0.0499322 -0.140514 0.0021683 0.978422 0.557937 0.034931 4.40957e-06 3
0.0456532 -0.135616 0.00665663 0.978422 0.557937 0.034931 3.50418e-06 3
0.0499388 -0.138063 0.00220575 0.978422 0.557937 0.034931 4.73082e-06 3
0.0405798 -0.139109 0.00650244 0.978422 0.557937 0.034931 4.65579e-07 3
0.0417007 -0.145075 0.00567902 0.978422 0.557937 0.034931 3.96904e-06 3
0.0452653 -0.144032 0.00831867 0.978422 0.557937 0.034931 9.57305e-07 3
0.0453486 -0.145595 0.0067048 0.978422 0.557937 0.034931 2.46483e-06 3
0.0463807 -0.132143 0.00650716 0.978422 0.557937 0.034931 1.65439e-06 3
0.0479595 -0.148314 0.00605514 0.978422 0.557937 0.034931 1.43171e-06 3
0.048992 -0.139606 0.00398292 0.978422 0.557937 0.034931 5.10547e-06 3
0.039846 -0.141276 0.00274488 0.978422 0.557937 0.034931 1.25653e-06 3
0.050879 -0.13897 0.000391133 0.978422 0.557937 0.034931 3.98009e-06 3
0.0417965 -0.136865 0.00577517 0.978422 0.557937 0.034931 3.49011e-06 3
0.0479508 -0.140398 0.00485649 0.978422 0.557937 0.034931 1.00001e-06 3
0.0471984 -0.12762 0.00340914 0.978422 0.557937 0.034931 7.7951e-06 3
0.0402218 -0.136177 0.00508386 0.978422 0.557937 0.034931 3.19189e-06 3
0.041879 -0.142954 0.00227209 0.978422 0.557937 0.034931 3.58242e-06 3
0.0479793 -0.145573 0.00608452 0.978422 0.557937 0.034931 1.11586e-06 3
0.0453356 -0.144036 0.00669385 0.978422 0.557937 0.034931 3.14151e-06 3
0.0491522 -0.149088 0.00508623 0.978422 0.557937 0.034931 3.6883e-06 3
0.0517031 -0.136022 0.00443475 0.978422 0.557937 0.034931 4.30857e-07 3
0.0509146 -0.146369 0.0030543 0.978422 0.557937 0.034931 1.7587e-06 3
0.0410454 -0.143653 0.00491015 0.978422 0.557937 0.034931 1.64348e-06 3
0.0470994 -0.142713 0.00363888 0.978422 0.557937 0.034931 1.17051e-06 3
0.0481127 -0.128736 0.00197206 0.978422 0.557937 0.034931 5.74348e-06 3
0.051887 -0.136538 0.00342591 0.978422 0.557937 0.034931 1.03493e-06 3
0.0473193 -0.149882 0.00639574 0.978422 0.557937 0.034931 2.49381e-06 3
0.0501045 -0.144434 0.003823 0.978422 0.557937 0.034931 1.43615e-06 3
0.049011 -0.13398 0.00469195 0.978422 0.557937 0.034931 2.35163e-06 3
0.0437332 -0.135421 0.0069053 0.978422 0.557937 0.034931 2.02119e-06 3
0.0496721 -0.134976 0.00297779 0.978422 0.557937 0.034931 3.74469e-06 3
0.041407 -0.140026 0.00387607 0.978422 0.557937 0.034931 3.4353e-06 3
0.0494882 -0.13446 0.00398663 0.978422 0.557937 0.034931 1.33989e-06 3
0.0498663 -0.133177 0.00353441 0.978422 0.557937 0.034931 4.13057e-07 3
0.0435809 -0.133924 0.00691297 0.978422 0.557937 0.034931 1.5921e-06 3
0.0477238 -0.136501 0.00175763 0.978422 0.557937 0.034931 1.21677e-05 3
0.0411839 -0.134226 0.00608175 0.978422 0.557937 0.034931 2.85003e-06 3
0.0426063 -0.133417 0.00678073 0.978422 0.557937 0.034931 1.30806e-06 3
0.0455079 -0.137145 0.00389362 0.978422 0.557937 0.034931 9.0239e-06 3
0.0405287 -0.132976 0.00567015 0.978422 0.557937 0.034931 1.98401e-06 3
0.0426236 -0.137782 0.0031488 0.978422 0.557937 0.034931 1.18429e-05 3
0.0469052 -0.133903 0.00630713 0.978422 0.557937 0.034931 3.50374e-06 3
0.047801 -0.144353 0.00620393 0.978422 0.557937 0.034931 5.57929e-07 3
0.0483639 -0.129309 0.000940475 0.978422 0.557937 0.034931 2.86817e-06 3
0.046888 -0.145463 0.00662402 0.978422 0.557937 0.034931 1.51265e-06 3
0.0450047 -0.139419 0.00591135 0.978422 0.557937 0.034931 5.59254e-07 3
0.0461735 -0.142264 0.00404802 0.978422 0.557937 0.034931 4.62633e-06 3
0.0426064 -0.142402 0.00604134 0.978422 0.557937 0.034931 4.11806e-06 3
0.0432617 -0.143824 0.00681022 0.978422 0.557937 0.034931 1.69043e-06 3
0.050223 -0.143478 0.00278919 0.978422 0.557937 0.034931 3.82022e-06 3
0.0450913 -0.141384 0.0043003 0.978422 0.557937 0.034931 1.89656e-06 3
0.0482353 -0.142439 0.0017306 0.978422 0.557937 0.034931 8.56662e-06 3
0.0493006 -0.129076 0.00656017 0.978422 0.557937 0.034931 5.06138e-07 3
0.047957 -0.129316 0.00533569 0.978422 0.557937 0.034931 3.21004e-06 3
0.0482309 -0.133426 0.0054696 0.978422 0.557937 0.034931 2.30897e-06 3
0.0470215 -0.139548 0.0052628 0.978422 0.557937 0.034931 4.39621e-06 3
0.0500024 -0.147009 0.00434768 0.978422 0.557937 0.034931 3.07192e-06 3
0.0460846 -0.137139 0.0082781 0.978422 0.557937 0.034931 3.05336e-07 3
0.0491924 -0.145075 0.00511638 0.978422 0.557937 0.034931 2.91792e-06 3
0.0518015 -0.142509 0.00426071 0.978422 0.557937 0.034931 8.74532e-07 3
0.0519199 -0.141553 0.00322689 0.978422 0.557937 0.034931 1.33084e-06 3
0.0442535 -0.143156 0.00694613 0.978422 0.557937 0.034931 2.54854e-06 3
0.0415378 -0.139893 0.00750762 0.978422 0.557937 0.034931 1.0267e-06 3
0.04344 -0.141704 0.00340329 0.978422 0.557937 0.034931 1.06519e-05 3
0.0385191 -0.136572 0.00253665 0.978422 0.557937 0.034931 3.65324e-06 3
0.040509 -0.136419 -0.00123638 0.978422 0.557937 0.034931 8.95672e-06 3
0.0380687 -0.126582 0.00104338 0.978422 0.557937 0.034931 4.13879e-06 3
0.0380696 -0.125799 -0.000801136 0.978422 0.557937 0.034931 1.408e-06 3
0.0381187 -0.12316 -0.00131105 0.978422 0.557937 0.034931 1.43951e-06 3
0.0366104 -0.125565 0.00344906 0.978422 0.557937 0.034931 8.80447e-07 3
0.0381117 -0.132401 0.00256319 0.978422 0.557937 0.034931 3.21556e-06 3
0.0400385 -0.128585 0.00161781 0.978422 0.557937 0.034931 7.34299e-06 3
0.0400628 -0.128375 -0.000580438 0.978422 0.557937 0.034931 7.28316e-06 3
0.0396406 -0.124792 -0.00378552 0.978422 0.557937 0.034931 3.84277e-06 3
0.0380213 -0.121666 -0.000740634 0.978422 0.557937 0.034931 2.1151e-06 3
0.0371077 -0.131086 -0.00391999 0.978422 0.557937 0.034931 1.30092e-06 3
0.0405218 -0.128196 0.00307709 0.978422 0.557937 0.034931 3.66454e-06 3
0.0364204 -0.134644 -0.000212116 0.978422 0.557937 0.034931 1.1375e-06 3
0.0383895 -0.135317 0.000360349 0.978422 0.557937 0.034931 3.6266e-06 3
0.0385977 -0.13386 0.00401832 0.978422 0.557937 0.034931 1.60238e-06 3
0.0383138 -0.133278 0.000422779 0.978422 0.557937 0.034931 8.2953e-06 3
0.0414423 -0.127929 0.00387712 0.978422 0.557937 0.034931 4.25618e-06 3
0.0406387 -0.137674 0.000939925 0.978422 0.557937 0.034931 8.36516e-06 3
0.0408076 -0.128923 -0.00215292 0.978422 0.557937 0.034931 7.33327e-06 3
0.0411782 -0.134927 -0.00274644 0.978422 0.557937 0.034931 6.20253e-06 3
0.0387523 -0.130532 -0.00222689 0.978422 0.557937 0.034931 4.4496e-06 3
0.0377789 -0.123984 -0.00502114 0.978422 0.557937 0.034931 1.91415e-06 3
0.0385423 -0.121136 0.00250521 0.978422 0.557937 0.034931 1.11993e-06 3
0.0379714 -0.122976 -0.00023269 0.978422 0.557937 0.034931 1.04585e-06 3
0.0385519 -0.126192 0.00250265 0.978422 0.557937 0.034931 1.09875e-06 3
0.0385431 -0.122496 0.00250722 0.978422 0.557937 0.034931 1.3253e-06 3
0.0394724 -0.125925 0.00330269 0.978422 0.557937 0.034931 1.88853e-06 3
0.0380609 -0.122045 0.00103982 0.978422 0.557937 0.034931 4.24538e-06 3
0.037973 -0.125665 -0.000228705 0.978422 0.557937 0.034931 1.02295e-06 3
0.0381895 -0.126506 -0.0017273 0.978422 0.557937 0.034931 3.2002e-06 3
0.038288 -0.122048 -0.00222057 0.978422 0.557937 0.034931 2.91124e-06 3
0.0402999 -0.128492 -0.00477831 0.978422 0.557937 0.034931 3.79238e-06 3
0.0388106 -0.139488 -0.00312363 0.978422 0.557937 0.034931 5.44989e-07 3
0.0440395 -0.139169 -0.00705028 0.978422 0.557937 0.034931 2.4573e-06 3
0.0423239 -0.13563 -0.00367416 0.978422 0.557937 0.034931 2.04106e-06 3
0.0379271 -0.152355 -0.000870846 0.978422 0.557937 0.034931 9.47212e-07 3
0.0403807 -0.148645 0.000192141 0.978422 0.557937 0.034931 3.7934e-06 3
0.0387557 -0.142629 -0.00308055 0.978422 0.557937 0.034931 3.72394e-06 3
0.0464572 -0.141998 -0.00658247 0.978422 0.557937 0.034931 7.11815e-07 3
0.0440367 -0.14261 -0.00678353 0.978422 0.557937 0.034931 1.90444e-06 3
0.0390285 -0.138263 -0.00324702 0.978422 0.557937 0.034931 4.82268e-06 3
0.0425781 -0.151779 -0.00619051 0.978422 0.557937 0.034931 2.24514e-06 3
0.0457829 -0.14021 -0.00695544 0.978422 0.557937 0.034931 1.16348e-06 3
0.0387494 -0.141679 0.000301888 0.978422 0.557937 0.034931 6.4955e-06 3
0.0394834 -0.152656 -0.00459632 0.978422 0.557937 0.034931 1.95888e-06 3
0.0430674 -0.140331 -0.00685369 0.978422 0.557937 0.034931 1.49059e-06 3
0.0429676 -0.143541 -0.00638077 0.978422 0.557937 0.034931 3.83394e-06 3
0.0369579 -0.141594 0.00193477 0.978422 0.557937 0.034931 2.52519e-07 3
0.0431414 -0.145066 -0.00820647 0.978422 0.557937 0.034931 4.3547e-07 3
0.0406792 -0.136185 -0.00536726 0.978422 0.557937 0.034931 3.33331e-06 3
0.0379717 -0.151762 -0.00152728 0.978422 0.557937 0.034931 1.24839e-06 3
0.0415284 -0.139896 -0.0061445 0.978422 0.557937 0.034931 2.90936e-06 3
0.0391692 -0.140398 0.00138271 0.978422 0.557937 0.034931 3.56476e-06 3
0.0440501 -0.150226 -0.00641005 0.978422 0.557937 0.034931 3.34864e-06 3
0.0421248 -0.129765 -0.00302754 0.978422 0.557937 0.034931 6.80859e-06 3
0.0407071 -0.151625 -0.00560384 0.978422 0.557937 0.034931 1.5818e-06 3
0.0452422 -0.13782 -0.00671143 0.978422 0.557937 0.034931 8.06787e-07 3
0.0449901 -0.140246 -0.00710541 0.978422 0.557937 0.034931 1.11566e-06 3
0.0436384 -0.153305 -0.00636921 0.978422 0.557937 0.034931 4.26713e-06 3
0.0385521 -0.151919 -0.00333645 0.978422 0.557937 0.034931 9.76608e-07 3
0.0404229 -0.138156 -0.00523295 0.978422 0.557937 0.034931 4.31108e-06 3
0.0430403 -0.135326 -0.0041546 0.978422 0.557937 0.034931 3.22831e-06 3
0.0444457 -0.133686 -0.00816253 0.978422 0.557937 0.034931 1.23023e-06 3
0.0387692 -0.141213 -0.00308635 0.978422 0.557937 0.034931 2.30044e-06 3
0.0425835 -0.14873 -0.00607613 0.978422 0.557937 0.034931 4.39221e-06 3
0.0460762 -0.143292 -0.00656328 0.978422 0.557937 0.034931 1.8753e-06 3
0.0389769 -0.150024 -0.00397492 0.978422 0.557937 0.034931 3.16629e-06 3
0.0402637 -0.149856 -0.00531263 0.978422 0.557937 0.034931 3.05201e-06 3
0.0383563 -0.140734 -0.0017106 0.978422 0.557937 0.034931 5.23685e-06 3
0.0380618 -0.151886 -0.00250704 0.978422 0.557937 0.034931 6.39323e-07 3
0.0465924 -0.138805 -0.00666045 0.978422 0.557937 0.034931 2.5725e-06 3
0.0368895 -0.138149 -0.00366705 0.978422 0.557937 0.034931 6.16073e-07 3
0.0437698 -0.129215 -0.00365923 0.978422 0.557937 0.034931 8.08882e-06 3
0.0450275 -0.142649 -0.00685483 0.978422 0.557937 0.034931 1.11566e-06 3
0.0385648 -0.152741 -0.0033369 0.978422 0.557937 0.034931 1.45059e-06 3
0.0408808 -0.147531 -0.00126288 0.978422 0.557937 0.034931 8.89503e-06 3
0.0366167 -0.142514 -0.00350058 0.978422 0.557937 0.034931 7.24734e-07 3
0.0437203 -0.147867 -0.00349309 0.978422 0.557937 0.034931 9.28554e-06 3
0.0410168 -0.141849 -0.00584076 0.978422 0.557937 0.034931 3.1421e-06 3
0.0385668 -0.151263 -0.00349967 0.978422 0.557937 0.034931 1.63639e-07 3
0.0387913 -0.144105 -0.00310982 0.978422 0.557937 0.034931 9.5647e-07 3
0.0420724 -0.145998 -0.00780372 0.978422 0.557937 0.034931 9.31262e-07 3
0.0464622 -0.149655 -0.00589895 0.978422 0.557937 0.034931 2.80358e-06 3
0.0406683 -0.148515 -0.00556538 0.978422 0.557937 0.034931 1.66419e-06 3
0.0478163 -0.151407 -0.00491387 0.978422 0.557937 0.034931 3.9222e-06 3
0.0366092 -0.14673 -0.00319506 0.978422 0.557937 0.034931 7.87831e-07 3
0.040111 -0.142875 -0.00527601 0.978422 0.557937 0.034931 1.90747e-06 3
0.0389392 -0.146342 0.00151199 0.978422 0.557937 0.034931 4.57827e-06 3
0.0411853 -0.144397 -0.00153549 0.978422 0.557937 0.034931 9.48938e-06 3
0.0449707 -0.131283 -0.00553861 0.978422 0.557937 0.034931 2.16374e-06 3
0.0440248 -0.144733 -0.0037657 0.978422 0.557937 0.034931 8.88549e-06 3
0.0389326 -0.132359 -0.00216922 0.978422 0.557937 0.034931 4.82084e-06 3
0.0415396 -0.133306 -0.00514987 0.978422 0.557937 0.034931 5.34906e-06 3
0.0384178 -0.148479 -0.00185819 0.978422 0.557937 0.034931 5.27019e-06 3
0.0411608 -0.143801 0.000947202 0.978422 0.557937 0.034931 7.02596e-06 3
0.0453864 -0.13525 -0.00833839 0.978422 0.557937 0.034931 1.45734e-06 3
0.0421095 -0.144518 -0.00325495 0.978422 0.557937 0.034931 2.97127e-06 3
0.0484319 -0.145771 -0.0070064 0.978422 0.557937 0.034931 2.93191e-07 3
0.0478427 -0.146336 -0.00456769 0.978422 0.557937 0.034931 3.6878e-06 3
0.0392456 -0.14286 -0.00452285 0.978422 0.557937 0.034931 2.64074e-06 3
0.0366891 -0.148199 -0.00416211 0.978422 0.557937 0.034931 2.39235e-07 3
0.0367378 -0.152272 -0.00402449 0.978422 0.557937 0.034931 2.20182e-07 3
0.0371499 -0.149555 -0.00466251 0.978422 0.557937 0.034931 2.20101e-07 3
0.0365402 -0.14797 -0.00221604 0.978422 0.557937 0.034931 5.253e-07 3
0.0430476 -0.152627 -0.00806476 0.978422 0.557937 0.034931 5.42288e-07 3
0.0443015 -0.136256 -0.00653557 0.978422 0.557937 0.034931 6.04365e-06 3
0.041805 -0.147652 -0.00298234 0.978422 0.557937 0.034931 3.52836e-06 3
0.0384471 -0.149908 -0.00249549 0.978422 0.557937 0.034931 2.61466e-06 3
0.0461788 -0.148482 -0.0034158 0.978422 0.557937 0.034931 6.24734e-06 3
0.0492056 -0.151426 -0.00633735 0.978422 0.557937 0.034931 6.31046e-07 3
0.0454702 -0.150536 -0.00631015 0.978422 0.557937 0.034931 1.22888e-06 3
0.0458111 -0.132888 -0.00514294 0.978422 0.557937 0.034931 7.84617e-06 3
0.0462318 -0.132212 -0.00791958 0.978422 0.557937 0.034931 8.57104e-07 3
0.0433152 -0.171517 0.00643705 0.978422 0.557937 0.034931 2.65267e-06 3
0.0382434 -0.157366 0.000863848 0.978422 0.557937 0.034931 5.97938e-06 3
0.0419489 -0.151133 0.00356126 0.978422 0.557937 0.034931 9.29674e-06 3
0.0470582 -0.162006 0.00492658 0.978422 0.557937 0.034931 8.50905e-06 3
0.03991 -0.165016 0.00449431 0.978422 0.557937 0.034931 6.70173e-06 3
0.0455307 -0.156049 0.00577179 0.978422 0.557937 0.034931 4.1608e-06 3
0.045769 -0.15461 0.00565767 0.978422 0.557937 0.034931 4.17164e-06 3
0.0391194 -0.147964 0.00280133 0.978422 0.557937 0.034931 8.07264e-06 3
0.0380824 -0.153245 0.000905373 0.978422 0.557937 0.034931 2.5251e-06 3
0.0461725 -0.161886 0.00820346 0.978422 0.557937 0.034931 4.97234e-07 3
0.046529 -0.171288 0.00608161 0.978422 0.557937 0.034931 2.71765e-06 3
0.0441596 -0.148446 0.00696415 0.978422 0.557937 0.034931 4.02262e-06 3
0.0414155 -0.14977 0.00593447 0.978422 0.557937 0.034931 6.4414e-06 3
0.0383895 -0.158795 0.00201247 0.978422 0.557937 0.034931 9.16116e-06 3
0.045909 -0.166052 0.00623853 0.978422 0.557937 0.034931 2.99402e-06 3
0.0380927 -0.151892 0.000892573 0.978422 0.557937 0.034931 2.5251e-06 3
0.0405031 -0.147195 0.00488237 0.978422 0.557937 0.034931 7.44058e-06 3
0.0415203 -0.166239 0.00544713 0.978422 0.557937 0.034931 5.64796e-06 3
0.0463579 -0.173348 0.00576022 0.978422 0.557937 0.034931 3.6437e-06 3
0.0410561 -0.156916 0.00498255 0.978422 0.557937 0.034931 1.02291e-05 3
0.0432842 -0.158784 0.00594783 0.978422 0.557937 0.034931 7.69512e-06 3
0.0454463 -0.151556 0.00702238 0.978422 0.557937 0.034931 2.39991e-07 3
0.0436437 -0.154718 0.00609716 0.978422 0.557937 0.034931 2.90151e-06 3
0.0417601 -0.163196 0.00304627 0.978422 0.557937 0.034931 1.09998e-05 3
0.0462704 -0.156163 0.00819174 0.978422 0.557937 0.034931 6.93405e-07 3
0.0433586 -0.164908 0.00653098 0.978422 0.557937 0.034931 2.04247e-06 3
0.0470373 -0.163608 0.00773424 0.978422 0.557937 0.034931 1.43455e-07 3
0.044957 -0.151466 0.00449858 0.978422 0.557937 0.034931 4.15542e-06 3
0.0408131 -0.166452 0.00724443 0.978422 0.557937 0.034931 7.71647e-07 3
0.0463132 -0.151376 0.00410331 0.978422 0.557937 0.034931 4.20217e-06 3
0.0398039 -0.158833 0.0040642 0.978422 0.557937 0.034931 1.38682e-05 3
0.0432952 -0.174976 0.00515793 0.978422 0.557937 0.034931 7.27301e-06 3
0.0461756 -0.148228 0.00694905 0.978422 0.557937 0.034931 2.05942e-06 3
0.043808 -0.156535 0.0035774 0.978422 0.557937 0.034931 6.81089e-06 3
0.0443717 -0.166189 0.00658009 0.978422 0.557937 0.034931 1.78349e-06 3
0.0415665 -0.16825 0.00542486 0.978422 0.557937 0.034931 3.89865e-06 3
0.0439785 -0.160994 0.00604612 0.978422 0.557937 0.034931 2.72224e-06 3
0.0403457 -0.163158 0.000994543 0.978422 0.557937 0.034931 7.56055e-06 3
0.0437288 -0.167968 0.00645802 0.978422 0.557937 0.034931 1.62744e-06 3
0.0455968 -0.164514 0.00375733 0.978422 0.557937 0.034931 8.57407e-06 3
0.0458603 -0.160348 0.00572227 0.978422 0.557937 0.034931 3.21967e-06 3
0.0464396 -0.149886 0.0068567 0.978422 0.557937 0.034931 9.72537e-07 3
0.0405609 -0.150268 0.00148148 0.978422 0.557937 0.034931 6.98065e-06 3
0.0436883 -0.151625 0.00445057 0.978422 0.557937 0.034931 2.97813e-06 3
0.0431549 -0.150262 0.00682379 0.978422 0.557937 0.034931 2.18792e-06 3
0.0437066 -0.163489 0.00406291 0.978422 0.557937 0.034931 4.99033e-06 3
0.0451822 -0.149898 0.00711473 0.978422 0.557937 0.034931 1.89964e-06 3
0.04158 -0.154667 0.00261212 0.978422 0.557937 0.034931 9.44493e-06 3
0.0366666 -0.147567 0.0021933 0.978422 0.557937 0.034931 7.7858e-07 3
0.0454017 -0.15465 0.00866896 0.978422 0.557937 0.034931 1.44306e-07 3
0.0401817 -0.155155 0.000545143 0.978422 0.557937 0.034931 7.57815e-06 3
0.0444747 -0.173513 0.00604996 0.978422 0.557937 0.034931 3.65141e-06 3
0.0503731 -0.160043 -0.00187025 0.978422 0.557937 0.034931 3.71688e-06 3
0.0383591 -0.17173 0.00140363 0.978422 0.557937 0.034931 3.52528e-06 3
0.0463912 -0.158584 -0.00641189 0.978422 0.557937 0.034931 1.90753e-06 3
0.0469024 -0.177179 0.000807922 0.978422 0.557937 0.034931 5.75746e-06 3
0.0452207 -0.165056 -0.00395724 0.978422 0.557937 0.034931 8.64062e-06 3
0.0500967 -0.15771 -0.0023938 0.978422 0.557937 0.034931 4.07204e-06 3
0.0480452 -0.17327 0.00470737 0.978422 0.557937 0.034931 4.03808e-06 3
0.0501498 -0.166842 -0.00126913 0.978422 0.557937 0.034931 3.68956e-06 3
0.0494603 -0.175686 0.00552269 0.978422 0.557937 0.034931 6.3861e-07 3
0.0394872 -0.174014 0.0026264 0.978422 0.557937 0.034931 7.0083e-06 3
0.037699 -0.17637 0.00238868 0.978422 0.557937 0.034931 1.24169e-06 3
0.0474558 -0.170869 -0.00468413 0.978422 0.557937 0.034931 3.32953e-06 3
0.0408377 -0.174031 0.00468649 0.978422 0.557937 0.034931 7.40716e-06 3
0.0451353 -0.168511 -0.00547383 0.978422 0.557937 0.034931 4.05537e-06 3
0.0469908 -0.15621 -0.00350136 0.978422 0.557937 0.034931 5.44449e-06 3
0.0481228 -0.163257 -0.005383 0.978422 0.557937 0.034931 1.02484e-06 3
0.0475769 -0.161628 -0.00564291 0.978422 0.557937 0.034931 1.09691e-06 3
0.0471443 -0.168959 -0.00509434 0.978422 0.557937 0.034931 3.66044e-06 3
0.0503878 -0.158182 0.00163392 0.978422 0.557937 0.034931 3.61674e-06 3
0.0488756 -0.159971 -0.00462299 0.978422 0.557937 0.034931 3.48107e-06 3
0.0477368 -0.163989 -0.00261854 0.978422 0.557937 0.034931 2.93785e-06 3
0.0490896 -0.157712 -0.004194 0.978422 0.557937 0.034931 3.83063e-06 3
0.0483141 -0.174579 0.00398816 0.978422 0.557937 0.034931 4.43757e-06 3
0.0500242 -0.16587 -0.00235512 0.978422 0.557937 0.034931 1.7448e-06 3
0.04883 -0.166498 -0.00404924 0.978422 0.557937 0.034931 3.36165e-06 3
0.0523403 -0.154043 -6.9989e-05 0.978422 0.557937 0.034931 1.82924e-06 3
0.0493032 -0.171807 -0.00270577 0.978422 0.557937 0.034931 3.88407e-06 3
0.0483175 -0.179595 0.00162324 0.978422 0.557937 0.034931 9.83626e-07 3
0.0499142 -0.173624 0.00234213 0.978422 0.557937 0.034931 5.22282e-06 3
0.0466582 -0.176367 0.0039339 0.978422 0.557937 0.034931 4.02157e-06 3
0.0478386 -0.17648 0.00191751 0.978422 0.557937 0.034931 7.42081e-06 3
0.049673 -0.173761 -0.00151102 0.978422 0.557937 0.034931 5.31423e-06 3
0.048224 -0.177927 -0.00375715 0.978422 0.557937 0.034931 2.17645e-06 3
0.0480995 -0.175621 -0.00156948 0.978422 0.557937 0.034931 6.60978e-06 3
0.0451579 -0.171883 -0.00482445 0.978422 0.557937 0.034931 8.80706e-06 3
0.0486839 -0.168394 -0.00418179 0.978422 0.557937 0.034931 2.76336e-06 3
0.0483237 -0.1565 0.000310096 0.978422 0.557937 0.034931 6.51197e-06 3
0.049999 -0.154767 -0.000316759 0.978422 0.557937 0.034931 4.57689e-06 3
0.0515577 -0.162045 -0.00396535 0.978422 0.557937 0.034931 3.41724e-07 3
0.0411272 -0.171656 0.00549683 0.978422 0.557937 0.034931 4.5638e-06 3
0.0504283 -0.170847 0.00133866 0.978422 0.557937 0.034931 4.89641e-06 3
0.0497017 -0.161325 -0.00330373 0.978422 0.557937 0.034931 3.19827e-06 3
0.0463106 -0.163621 -0.00598011 0.978422 0.557937 0.034931 2.86838e-06 3
0.0502337 -0.16945 0.00238209 0.978422 0.557937 0.034931 3.37423e-06 3
0.0495338 -0.165795 -0.00330766 0.978422 0.557937 0.034931 1.97613e-06 3
0.0399618 -0.17015 0.00450808 0.978422 0.557937 0.034931 6.31882e-06 3
0.0479979 -0.156208 -0.00170116 0.978422 0.557937 0.034931 6.36908e-06 3
0.0496769 -0.174899 0.000909821 0.978422 0.557937 0.034931 5.94535e-06 3
0.0482271 -0.164063 -0.00166601 0.978422 0.557937 0.034931 3.60394e-06 3
0.0470329 -0.164692 -0.00336013 0.978422 0.557937 0.034931 3.9554e-06 3
0.0487025 -0.160874 -0.00706549 0.978422 0.557937 0.034931 2.21572e-07 3
0.0499317 -0.169716 0.00361563 0.978422 0.557937 0.034931 1.11222e-06 3
0.0492202 -0.170964 0.00434254 0.978422 0.557937 0.034931 3.30833e-06 3
0.0383146 -0.177236 0.000566324 0.978422 0.557937 0.034931 1.69442e-06 3
0.0484907 -0.169915 0.00503881 0.978422 0.557937 0.034931 2.1209e-06 3
0.0401028 -0.174881 0.000804046 0.978422 0.557937 0.034931 8.93062e-06 3
0.0419086 -0.178942 -0.00227925 0.978422 0.557937 0.034931 8.33231e-07 3
0.0469168 -0.163414 -0.00764324 0.978422 0.557937 0.034931 2.85298e-07 3
0.0475601 -0.160255 -0.00565513 0.978422 0.557937 0.034931 2.52573e-06 3
0.0510478 -0.171559 -0.0040074 0.978422 0.557937 0.034931 5.32785e-07 3
0.0429437 -0.177147 -0.000527554 0.978422 0.557937 0.034931 3.71904e-06 3
0.049636 -0.162536 -0.00333437 0.978422 0.557937 0.034931 2.96921e-07 3
0.0503029 -0.169551 -0.000789111 0.978422 0.557937 0.034931 5.32456e-06 3
0.0450773 -0.17543 -0.0018469 0.978422 0.557937 0.034931 1.56795e-05 3
0.0442464 -0.17654 0.00410554 0.978422 0.557937 0.034931 4.41397e-06 3
0.0396799 -0.178976 0.000515961 0.978422 0.557937 0.034931 1.16759e-06 3
0.0414681 -0.176621 0.000753684 0.978422 0.557937 0.034931 5.95138e-06 3
0.0445474 -0.177851 0.00112792 0.978422 0.557937 0.034931 5.71105e-06 3
0.0430718 -0.177325 0.00240915 0.978422 0.557937 0.034931 6.67927e-06 3
0.0496366 -0.170281 -0.00240188 0.978422 0.557937 0.034931 5.29815e-06 3
0.0406776 -0.156686 -0.00322967 0.978422 0.557937 0.034931 3.95905e-06 3
0.0445269 -0.167031 -0.00552514 0.978422 0.557937 0.034931 5.61215e-06 3
0.0514606 -0.16747 0.00378887 0.978422 0.557937 0.034931 2.43154e-07 3
0.0423204 -0.163295 -0.00617457 0.978422 0.557937 0.034931 1.37041e-07 3
0.0385936 -0.155496 -0.00319943 0.978422 0.557937 0.034931 9.79958e-07 3
0.0383346 -0.160882 -0.00253987 0.978422 0.557937 0.034931 1.82209e-06 3
0.0455562 -0.1774 -0.00490269 0.978422 0.557937 0.034931 6.78703e-06 3
0.0365788 -0.162994 -0.00362842 0.978422 0.557937 0.034931 2.15416e-07 3
0.0488143 -0.167971 0.00469181 0.978422 0.557937 0.034931 1.4752e-06 3
0.0463879 -0.154871 -0.00619102 0.978422 0.557937 0.034931 2.56527e-06 3
0.0395142 -0.153932 -0.00462162 0.978422 0.557937 0.034931 1.81454e-06 3
0.0379169 -0.153708 -0.000858046 0.978422 0.557937 0.034931 9.47212e-07 3
0.0485636 -0.154958 0.00416519 0.978422 0.557937 0.034931 6.06673e-06 3
0.0390625 -0.171896 -0.0059026 0.978422 0.557937 0.034931 5.1824e-07 3
0.045695 -0.157866 0.00325203 0.978422 0.557937 0.034931 7.05728e-06 3
0.040493 -0.162539 -0.00524233 0.978422 0.557937 0.034931 9.06987e-07 3
0.047876 -0.164651 0.00180389 0.978422 0.557937 0.034931 5.23956e-06 3
0.0417981 -0.154427 -0.00580784 0.978422 0.557937 0.034931 3.70591e-06 3
0.0408174 -0.166927 -0.00472369 0.978422 0.557937 0.034931 4.5522e-06 3
0.0478575 -0.153062 -0.00494452 0.978422 0.557937 0.034931 4.19695e-07 3
0.0470665 -0.163677 0.00494485 0.978422 0.557937 0.034931 1.09455e-06 3
0.0385294 -0.16611 9.65254e-05 0.978422 0.557937 0.034931 8.66306e-06 3
0.0383075 -0.159809 -0.00243789 0.978422 0.557937 0.034931 1.82209e-06 3
0.0380451 -0.154021 -0.00218105 0.978422 0.557937 0.034931 1.02487e-06 3
0.0503031 -0.162563 -0.000308789 0.978422 0.557937 0.034931 2.83103e-07 3
0.0427326 -0.154748 -0.00809052 0.978422 0.557937 0.034931 3.37923e-07 3
0.0500306 -0.152806 -0.000385962 0.978422 0.557937 0.034931 6.95204e-06 3
0.0503768 -0.151825 0.00162606 0.978422 0.557937 0.034931 4.82051e-06 3
0.0400015 -0.156274 -0.00105506 0.978422 0.557937 0.034931 1.96853e-06 3
0.0416144 -0.155917 -0.00566524 0.978422 0.557937 0.034931 3.39752e-06 3
0.0482473 -0.163287 0.00705309 0.978422 0.557937 0.034931 6.27484e-07 3
0.0505014 -0.161117 -0.000836087 0.978422 0.557937 0.034931 2.0319e-06 3
0.0387096 -0.168788 -0.00205894 0.978422 0.557937 0.034931 3.77298e-06 3
0.0394012 -0.159006 -0.00444359 0.978422 0.557937 0.034931 4.58174e-07 3
0.0431479 -0.15711 -0.00451433 0.978422 0.557937 0.034931 8.58543e-06 3
0.0474775 -0.168281 0.00570448 0.978422 0.557937 0.034931 1.17762e-06 3
0.0385442 -0.170241 0.00247497 0.978422 0.557937 0.034931 5.1005e-06 3
0.0387703 -0.159166 -0.00387162 0.978422 0.557937 0.034931 7.87183e-07 3
0.0396622 -0.163402 -0.00470388 0.978422 0.557937 0.034931 2.20365e-06 3
0.0395204 -0.158238 -0.00454112 0.978422 0.557937 0.034931 1.57889e-06 3
0.0493808 -0.161791 0.00290238 0.978422 0.557937 0.034931 1.75467e-06 3
0.050287 -0.165727 0.000324915 0.978422 0.557937 0.034931 3.04253e-06 3
0.0493692 -0.160679 0.00288505 0.978422 0.557937 0.034931 3.23998e-06 3
0.0457647 -0.161991 -0.00624003 0.978422 0.557937 0.034931 3.58583e-06 3
0.0471251 -0.15452 0.00526241 0.978422 0.557937 0.034931 4.04043e-06 3
0.0403868 -0.172723 -0.00320463 0.978422 0.557937 0.034931 6.30728e-06 3
0.0468344 -0.152434 -0.00585168 0.978422 0.557937 0.034931 5.41434e-07 3
0.045929 -0.152094 -0.00620213 0.978422 0.557937 0.034931 4.7465e-07 3
0.042391 -0.166489 -0.00554585 0.978422 0.557937 0.034931 2.51917e-06 3
0.0502385 -0.161652 0.00118 0.978422 0.557937 0.034931 1.79412e-06 3
0.0497221 -0.163398 0.00259419 0.978422 0.557937 0.034931 6.13762e-07 3
0.0498576 -0.166344 0.00222826 0.978422 0.557937 0.034931 3.09783e-06 3
0.0429141 -0.161851 -0.00627383 0.978422 0.557937 0.034931 2.47668e-06 3
0.0422103 -0.16288 -0.0061199 0.978422 0.557937 0.034931 2.14208e-07 3
0.0435633 -0.17411 -0.00330433 0.978422 0.557937 0.034931 6.7231e-06 3
0.0364046 -0.166415 -0.000139283 0.978422 0.557937 0.034931 1.47453e-06 3
0.0401271 -0.156689 -0.00204852 0.978422 0.557937 0.034931 3.79366e-06 3
0.0447527 -0.168752 0.00633407 0.978422 0.557937 0.034931 2.4299e-06 3
0.0473718 -0.156865 0.0020407 0.978422 0.557937 0.034931 8.41723e-06 3
0.0419308 -0.160519 -0.00587067 0.978422 0.557937 0.034931 2.9788e-06 3
0.0465967 -0.167766 0.00605075 0.978422 0.557937 0.034931 1.99672e-06 3
0.0385305 -0.162739 -0.0028996 0.978422 0.557937 0.034931 3.30229e-06 3
0.0415112 -0.164953 -0.0031558 0.978422 0.557937 0.034931 6.33082e-06 3
0.0496029 -0.167611 0.00298125 0.978422 0.557937 0.034931 2.74352e-06 3
0.0393342 -0.172595 -0.0014992 0.978422 0.557937 0.034931 6.21752e-06 3
0.0385809 -0.154674 -0.00319898 0.978422 0.557937 0.034931 1.81805e-06 3
0.0477296 -0.152628 -0.00497462 0.978422 0.557937 0.034931 5.84443e-07 3
0.0446142 -0.161178 -0.0065677 0.978422 0.557937 0.034931 1.69012e-06 3
0.0381271 -0.153456 -0.00580888 0.978422 0.557937 0.034931 1.75022e-07 3
0.0456078 -0.156798 -0.00468711 0.978422 0.557937 0.034931 4.85187e-06 3
0.0451629 -0.173266 -0.0073681 0.978422 0.557937 0.034931 2.82289e-06 3
0.0391494 -0.175599 -0.00504119 0.978422 0.557937 0.034931 2.90515e-07 3
0.0494044 -0.152635 0.00344213 0.978422 0.557937 0.034931 5.11452e-06 3
0.0522847 -0.164256 0.00011558 0.978422 0.557937 0.034931 1.71799e-07 3
0.0434226 -0.179116 -0.00358334 0.978422 0.557937 0.034931 1.93401e-06 3
0.0440422 -0.177225 -0.0035986 0.978422 0.557937 0.034931 4.00993e-06 3
0.0379322 -0.154428 -0.00118803 0.978422 0.557937 0.034931 6.46035e-07 3
0.0406409 -0.155978 -0.00711929 0.978422 0.557937 0.034931 2.62996e-07 3
0.0367792 -0.15585 -0.00388746 0.978422 0.557937 0.034931 2.99178e-07 3
0.0504368 -0.160206 0.000652702 0.978422 0.557937 0.034931 4.327e-06 3
0.049436 -0.158547 0.00336453 0.978422 0.557937 0.034931 3.92562e-06 3
0.0512678 -0.16148 0.00428786 0.978422 0.557937 0.034931 5.35558e-07 3
0.0430848 -0.164515 -0.00397795 0.978422 0.557937 0.034931 3.97827e-06 3
0.0413221 -0.157062 -0.00385264 0.978422 0.557937 0.034931 7.87703e-07 3
0.0411619 -0.158956 -0.00747792 0.978422 0.557937 0.034931 4.88631e-07 3
0.0396195 -0.160094 -0.00478178 0.978422 0.557937 0.034931 6.73229e-07 3
0.0400882 -0.168403 -0.00400354 0.978422 0.557937 0.034931 4.56665e-06 3
0.0517037 -0.165091 0.00301855 0.978422 0.557937 0.034931 2.8905e-07 3
0.0385033 -0.161666 -0.00279761 0.978422 0.557937 0.034931 8.67493e-07 3
0.0417284 -0.156727 -0.00786202 0.978422 0.557937 0.034931 5.81716e-07 3
0.0385989 -0.170768 -0.000851424 0.978422 0.557937 0.034931 3.38804e-06 3
0.0397161 -0.16193 -0.00478342 0.978422 0.557937 0.034931 4.95614e-07 3
0.0477708 -0.154284 -0.00500528 0.978422 0.557937 0.034931 3.71596e-06 3
0.0385724 -0.168251 9.28728e-05 0.978422 0.557937 0.034931 5.30866e-06 3
0.0380632 -0.158485 -0.00073635 0.978422 0.557937 0.034931 1.52212e-06 3
0.0446756 -0.170394 0.00634438 0.978422 0.557937 0.034931 3.29382e-06 3
0.0384956 -0.164978 0.00244259 0.978422 0.557937 0.034931 5.49415e-06 3
0.0433169 -0.158909 -0.00631402 0.978422 0.557937 0.034931 3.47681e-06 3
0.0401783 -0.160985 -0.00509766 0.978422 0.557937 0.034931 1.71086e-06 3
0.0415776 -0.162871 -0.00589086 0.978422 0.557937 0.034931 3.55127e-07 3
0.0388582 -0.161719 -0.00414299 0.978422 0.557937 0.034931 2.08384e-07 3
0.0389885 -0.160255 -0.0042098 0.978422 0.557937 0.034931 9.37437e-07 3
0.0386895 -0.160935 -0.00388525 0.978422 0.557937 0.034931 4.74704e-07 3
0.0381888 -0.1589 -0.00172982 0.978422 0.557937 0.034931 3.24126e-06 3
0.0489686 -0.162317 0.00379749 0.978422 0.557937 0.034931 3.70692e-06 3
0.0455691 -0.15331 -0.00648072 0.978422 0.557937 0.034931 1.70353e-06 3
0.0412188 -0.161354 -0.00745477 0.978422 0.557937 0.034931 1.08421e-07 3
0.0421662 -0.156977 -0.00770642 0.978422 0.557937 0.034931 2.57777e-07 3
0.0410301 -0.170512 -0.00450145 0.978422 0.557937 0.034931 5.78802e-06 3
0.0422022 -0.162686 -0.00785793 0.978422 0.557937 0.034931 9.01449e-08 3
0.0450824 -0.175667 -0.00715207 0.978422 0.557937 0.034931 2.70871e-06 3
0.0499908 -0.168307 0.00260134 0.978422 0.557937 0.034931 1.20915e-07 3
0.0430005 -0.170526 -0.00539934 0.978422 0.557937 0.034931 5.02563e-06 3
0.0516795 -0.166312 0.00353376 0.978422 0.557937 0.034931 5.78101e-07 3
0.0439178 -0.173362 -0.00436198 0.978422 0.557937 0.034931 3.62456e-06 3
0.0449354 -0.169878 0.00821307 0.978422 0.557937 0.034931 3.95851e-07 3
0.0452575 -0.159143 -0.00672734 0.978422 0.557937 0.034931 1.48162e-06 3
0.0416266 -0.16527 -0.00774246 0.978422 0.557937 0.034931 6.53375e-08 3
0.0378677 -0.157813 -0.00559449 0.978422 0.557937 0.034931 8.60525e-08 3
0.0474869 -0.17016 0.00572502 0.978422 0.557937 0.034931 1.69306e-06 3
0.0403795 -0.16429 -0.00135152 0.978422 0.557937 0.034931 9.853e-06 3
0.0491601 -0.154302 -0.00642875 0.978422 0.557937 0.034931 4.60597e-07 3
0.0483239 -0.167294 0.0051604 0.978422 0.557937 0.034931 1.00961e-06 3
0.0471308 -0.165242 0.00302547 0.978422 0.557937 0.034931 2.87373e-06 3
0.0373438 -0.176032 -0.00182179 0.978422 0.557937 0.034931 7.87769e-07 3
0.0384192 -0.174107 -0.00460577 0.978422 0.557937 0.034931 1.48974e-06 3
0.041117 -0.174215 -0.00364005 0.978422 0.557937 0.034931 1.01296e-06 3
0.0430055 -0.171908 -0.00794299 0.978422 0.557937 0.034931 1.12776e-06 3
0.0373666 -0.173979 -0.00290035 0.978422 0.557937 0.034931 1.46939e-06 3
0.0439228 -0.174744 -0.00690562 0.978422 0.557937 0.034931 1.14841e-06 3
0.0483055 -0.164035 -9.94538e-05 0.978422 0.557937 0.034931 5.79806e-06 3
0.0515177 -0.149764 -0.00376168 0.978422 0.557937 0.034931 1.07474e-06 3
0.047876 -0.142373 -0.0059478 0.978422 0.557937 0.034931 5.33082e-07 3
0.0491305 -0.138433 -0.00472967 0.978422 0.557937 0.034931 3.46942e-06 3
0.0508137 -0.13959 -0.00126121 0.978422 0.557937 0.034931 2.16297e-06 3
0.050019 -0.139685 -0.00355292 0.978422 0.557937 0.034931 2.57695e-06 3
0.0505494 -0.138339 -0.00224432 0.978422 0.557937 0.034931 3.82698e-06 3
0.0484048 -0.142334 -0.00554847 0.978422 0.557937 0.034931 6.18411e-07 3
0.0493463 -0.145079 -0.00674335 0.978422 0.557937 0.034931 5.34857e-08 3
0.0486489 -0.130422 -0.00309719 0.978422 0.557937 0.034931 8.80198e-06 3
0.0508648 -0.130302 -0.0046669 0.978422 0.557937 0.034931 1.65978e-06 3
0.0491855 -0.142905 -8.60459e-05 0.978422 0.557937 0.034931 2.58332e-06 3
0.0501782 -0.141748 -0.00299509 0.978422 0.557937 0.034931 1.35611e-06 3
0.0473426 -0.141771 -0.00623005 0.978422 0.557937 0.034931 9.3345e-07 3
0.0518976 -0.131222 0.00369319 0.978422 0.557937 0.034931 3.49549e-07 3
0.0496653 -0.149504 -0.00307317 0.978422 0.557937 0.034931 8.33098e-07 3
0.0496645 -0.142449 -0.00381983 0.978422 0.557937 0.034931 2.06976e-06 3
0.0483642 -0.134148 -0.00408726 0.978422 0.557937 0.034931 4.94714e-06 3
0.0484224 -0.139711 -0.00548349 0.978422 0.557937 0.034931 1.73207e-06 3
0.0503982 -0.133788 -0.000476609 0.978422 0.557937 0.034931 4.7759e-06 3
0.0474966 -0.139779 -0.00618273 0.978422 0.557937 0.034931 1.49307e-06 3
0.0508171 -0.141599 -0.00130068 0.978422 0.557937 0.034931 1.31135e-06 3
0.0487972 -0.141664 -0.00513147 0.978422 0.557937 0.034931 1.08287e-06 3
0.0477721 -0.150542 0.00300687 0.978422 0.557937 0.034931 6.50586e-06 3
0.050712 -0.142412 -0.00172598 0.978422 0.557937 0.034931 8.49603e-07 3
0.0502904 -0.145609 -0.00235644 0.978422 0.557937 0.034931 3.15845e-06 3
0.0473535 -0.136258 -0.00285906 0.978422 0.557937 0.034931 6.4795e-06 3
0.0479827 -0.130728 0.00533923 0.978422 0.557937 0.034931 2.12912e-06 3
0.047448 -0.128355 -0.00121781 0.978422 0.557937 0.034931 1.36631e-05 3
0.0495338 -0.146541 -0.00358435 0.978422 0.557937 0.034931 3.0435e-06 3
0.05182 -0.128736 -0.00289937 0.978422 0.557937 0.034931 1.56351e-06 3
0.0511732 -0.143944 0.000972544 0.978422 0.557937 0.034931 1.00518e-06 3
0.0481748 -0.143148 -0.00565323 0.978422 0.557937 0.034931 1.44219e-07 3
0.0487446 -0.149732 0.0011908 0.978422 0.557937 0.034931 5.10825e-06 3
0.0493283 -0.151051 -0.00307143 0.978422 0.557937 0.034931 6.71247e-06 3
0.0478699 -0.148687 -0.00243246 0.978422 0.557937 0.034931 4.73038e-06 3
0.0518429 -0.143584 -0.00393604 0.978422 0.557937 0.034931 2.6163e-07 3
0.0448004 -0.134998 -0.00391474 0.978422 0.557937 0.034931 1.14493e-05 3
0.0528634 -0.145574 -9.34626e-05 0.978422 0.557937 0.034931 1.61079e-07 3
0.0510705 -0.146223 0.000518446 0.978422 0.557937 0.034931 3.41768e-06 3
0.0483998 -0.136158 -0.0010401 0.978422 0.557937 0.034931 6.26135e-06 3
0.0505023 -0.131962 0.00150946 0.978422 0.557937 0.034931 1.16648e-06 3
0.0499749 -0.132326 0.00287144 0.978422 0.557937 0.034931 2.54582e-06 3
0.0495485 -0.131793 -0.00229247 0.978422 0.557937 0.034931 2.19592e-06 3
0.0493189 -0.133098 -0.003276 0.978422 0.557937 0.034931 4.61156e-06 3
0.0503066 -0.132838 -0.0014843 0.978422 0.557937 0.034931 3.0444e-06 3
0.0510368 -0.147637 0.00197678 0.978422 0.557937 0.034931 3.79712e-06 3
0.049774 -0.130908 0.00324637 0.978422 0.557937 0.034931 2.42774e-06 3
0.0389294 -0.135991 0.00405422 0.978422 0.557937 0.034931 1.61548e-06 3
0.0490804 -0.143718 -0.000511339 0.978422 0.557937 0.034931 2.05806e-06 3
0.047502 -0.145433 -0.00475619 0.978422 0.557937 0.034931 1.14209e-06 3
0.0473081 -0.14379 -0.00335521 0.978422 0.557937 0.034931 3.25702e-06 3
0.0461426 -0.144444 -0.00387691 0.978422 0.557937 0.034931 4.42492e-06 3
0.0488854 -0.131205 0.00468698 0.978422 0.557937 0.034931 1.68697e-06 3
0.0505777 -0.133327 0.00116358 0.978422 0.557937 0.034931 2.7708e-06 3
0.0520985 -0.13264 0.00331827 0.978422 0.557937 0.034931 1.38058e-07 3
0.0526141 -0.133667 -0.00204632 0.978422 0.557937 0.034931 3.71712e-07 3
0.0505801 -0.134028 -0.00565697 0.978422 0.557937 0.034931 2.09474e-07 3
0.0487353 -0.149166 -0.000822964 0.978422 0.557937 0.034931 6.17528e-06 3
0.0514893 -0.142788 -0.0042387 0.978422 0.557937 0.034931 1.71421e-07 3
0.0519031 -0.145093 -0.0039348 0.978422 0.557937 0.034931 2.72816e-07 3
0.0518438 -0.140023 -0.00397179 0.978422 0.557937 0.034931 2.13426e-07 3
0.052003 -0.142087 -0.00341397 0.978422 0.557937 0.034931 1.12315e-07 3
0.0484054 -0.143762 -0.0019388 0.978422 0.557937 0.034931 5.05078e-06 3
0.0509678 -0.147031 -0.00095778 0.978422 0.557937 0.034931 3.05567e-06 3
0.051068 -0.144757 0.000547252 0.978422 0.557937 0.034931 1.13695e-07 3
0.0467947 -0.130222 -0.00528765 0.978422 0.557937 0.034931 4.93862e-06 3
0.0506063 -0.127528 0.000330125 0.978422 0.557937 0.034931 1.53757e-06 3
0.0498464 -0.106458 0.0027621 0.978422 0.557937 0.034931 1.68505e-06 3
0.049813 -0.110712 0.00602071 0.978422 0.557937 0.034931 7.68327e-07 3
0.0496017 -0.102094 0.00405302 0.978422 0.557937 0.034931 2.80529e-06 3
0.0490328 -0.112998 0.00683005 0.978422 0.557937 0.034931 1.60963e-06 3
0.0499602 -0.105131 0.0027614 0.978422 0.557937 0.034931 5.72807e-06 3
0.0489896 -0.103832 0.00459971 0.978422 0.557937 0.034931 4.62617e-06 3
0.0505408 -0.100012 0.00216756 0.978422 0.557937 0.034931 7.59466e-07 3
0.0509367 -0.104081 0.000896244 0.978422 0.557937 0.034931 3.25338e-06 3
0.0476864 -0.103393 0.0055946 0.978422 0.557937 0.034931 1.82198e-06 3
0.0517245 -0.106901 0.00376594 0.978422 0.557937 0.034931 1.48606e-06 3
0.0475144 -0.110447 0.00490199 0.978422 0.557937 0.034931 6.98151e-06 3
0.0474413 -0.107727 0.00269293 0.978422 0.557937 0.034931 9.46026e-06 3
0.0502603 -0.0990576 0.00241359 0.978422 0.557937 0.034931 2.66636e-06 3
0.0467838 -0.103574 0.00602879 0.978422 0.557937 0.034931 2.16815e-06 3
0.0484117 -0.107723 0.000851524 0.978422 0.557937 0.034931 8.67659e-06 3
0.0498899 -0.0994171 0.00375581 0.978422 0.557937 0.034931 1.35877e-06 3
0.0525465 -0.101476 0.00209862 0.978422 0.557937 0.034931 4.41349e-07 3
0.0505785 -0.102348 0.00219097 0.978422 0.557937 0.034931 3.09708e-06 3
0.052419 -0.100455 0.0031714 0.978422 0.557937 0.034931 4.59436e-07 3
0.0483783 -0.111977 0.00411013 0.978422 0.557937 0.034931 6.94068e-06 3
0.0475981 -0.114263 0.00491947 0.978422 0.557937 0.034931 9.20607e-06 3
0.0502989 -0.109932 0.0014827 0.978422 0.557937 0.034931 2.51237e-06 3
0.0449112 -0.101587 0.00628325 0.978422 0.557937 0.034931 1.70303e-06 3
0.0453916 -0.106775 0.00828995 0.978422 0.557937 0.034931 2.21867e-06 3
0.0434459 -0.102069 0.00633534 0.978422 0.557937 0.034931 3.99582e-06 3
0.0476858 -0.100784 0.0055884 0.978422 0.557937 0.034931 1.82198e-06 3
0.0420666 -0.102356 0.00590166 0.978422 0.557937 0.034931 1.97479e-06 3
0.0487084 -0.100268 0.00483954 0.978422 0.557937 0.034931 3.17371e-06 3
0.0448331 -0.0982065 0.00447355 0.978422 0.557937 0.034931 3.87958e-06 3
0.0406352 -0.101684 0.00369302 0.978422 0.557937 0.034931 2.54905e-06 3
0.0459016 -0.098656 0.00808459 0.978422 0.557937 0.034931 1.28044e-06 3
0.0453265 -0.0986526 0.00608586 0.978422 0.557937 0.034931 9.83052e-07 3
0.0425045 -0.105607 0.00373663 0.978422 0.557937 0.034931 4.03959e-06 3
0.0390763 -0.111909 0.00397656 0.978422 0.557937 0.034931 2.04479e-06 3
0.0449992 -0.100141 0.00852188 0.978422 0.557937 0.034931 7.22441e-07 3
0.0434739 -0.108573 0.00751834 0.978422 0.557937 0.034931 5.18743e-06 3
0.0413543 -0.112073 0.00517836 0.978422 0.557937 0.034931 4.26682e-06 3
0.0439148 -0.110577 0.00535349 0.978422 0.557937 0.034931 1.13426e-05 3
0.0452302 -0.11552 0.00602731 0.978422 0.557937 0.034931 7.22136e-06 3
0.0411895 -0.106801 0.00269256 0.978422 0.557937 0.034931 7.85275e-06 3
0.0406693 -0.107507 0.00519267 0.978422 0.557937 0.034931 2.43105e-06 3
