ply
format ascii 1.0
comment Created by Open3D
element vertex 819
property float32 x
property float32 y
property float32 z
property float32 red
property float32 green
property float32 blue
property uint8 segmentation
end_header
0.0946483 0.0205031 0.0086614 0.529412 0.54902 0.54902 0
0.103115 0.020135 -0.00076687 0.529412 0.54902 0.54902 0
0.0198067 0.00192539 -0.00892509 0.529412 0.54902 0.54902 0
0.0516617 0.0121869 0.00643403 0.529412 0.54902 0.54902 0
-0.0147215 0.00297547 0.00612362 0.529412 0.54902 0.54902 0
0.0585478 0.0146188 0.00130628 0.529412 0.54902 0.54902 0
-0.0143563 -0.006731 0.00273428 0.529412 0.54902 0.54902 0
0.0675265 0.0169086 -0.00278658 0.529412 0.54902 0.54902 0
0.0394944 0.00953253 0.000401072 0.529412 0.54902 0.54902 0
0.0104446 0.0020367 -0.0120702 0.529412 0.54902 0.54902 0
0.0229779 0.00508785 0.0013466 0.529412 0.54902 0.54902 0
-0.0152742 0.00155698 0.00460034 0.529412 0.54902 0.54902 0
0.115882 0.0288796 0.008611 0.529412 0.54902 0.54902 0
0.122793 0.0263526 0.00826777 0.529412 0.54902 0.54902 0
0.121325 0.0250317 0.00127887 0.529412 0.54902 0.54902 0
0.0908668 0.0175503 -0.00708573 0.529412 0.54902 0.54902 0
0.164864 0.0363885 -0.0172798 0.529412 0.54902 0.54902 0
0.0930241 0.017449 0.00139299 0.529412 0.54902 0.54902 0
0.00339994 -0.00287296 0.0155777 0.529412 0.54902 0.54902 0
0.0984356 0.0238356 -0.00843324 0.529412 0.54902 0.54902 0
0.00562871 -0.00327875 -0.0102332 0.529412 0.54902 0.54902 0
0.0976382 0.0216388 0.0086614 0.529412 0.54902 0.54902 0
0.0815355 0.0143393 0.000269598 0.529412 0.54902 0.54902 0
0.0710304 0.0119289 -0.00528013 0.529412 0.54902 0.54902 0
0.00479875 0.00582321 -0.0151963 0.529412 0.54902 0.54902 0
0.111905 0.0289389 -0.000232314 0.529412 0.54902 0.54902 0
0.0437887 0.0092118 -0.00842337 0.529412 0.54902 0.54902 0
0.021642 -0.00145212 0.00425706 0.529412 0.54902 0.54902 0
0.0908471 0.0176632 -0.00762895 0.529412 0.54902 0.54902 0
-0.0081961 0.00228473 -0.0136907 0.529412 0.54902 0.54902 0
0.0461587 0.00485843 -0.000158795 0.529412 0.54902 0.54902 0
-0.0147553 -0.006731 0.000303199 0.529412 0.54902 0.54902 0
0.124406 0.0318012 0.00663074 0.529412 0.54902 0.54902 0
0.139621 0.0281377 0.0179962 0.529412 0.54902 0.54902 0
0.0364768 0.00683206 -0.00860305 0.529412 0.54902 0.54902 0
0.0827793 0.0210411 0.00259609 0.529412 0.54902 0.54902 0
0.0539231 0.00715277 0.00392168 0.529412 0.54902 0.54902 0
0.0530248 0.00691775 -0.00393274 0.529412 0.54902 0.54902 0
0.139973 0.0382243 0.0136814 0.529412 0.54902 0.54902 0
0.135475 0.033123 -0.023424 0.529412 0.54902 0.54902 0
0.00475615 -0.000382934 0.0112693 0.529412 0.54902 0.54902 0
0.0353344 0.00808789 -0.00474741 0.529412 0.54902 0.54902 0
0.00150832 -0.00668042 0.0127008 0.529412 0.54902 0.54902 0
-0.0138756 -0.00404375 0.00787716 0.529412 0.54902 0.54902 0
0.05187 0.00638886 -0.000107682 0.529412 0.54902 0.54902 0
0.149625 0.0408107 0.0206263 0.529412 0.54902 0.54902 0
0.106902 0.0215266 -0.00517646 0.529412 0.54902 0.54902 0
-0.00636228 -0.00322512 0.00987106 0.529412 0.54902 0.54902 0
0.0669004 0.0167221 -0.00306029 0.529412 0.54902 0.54902 0
0.109809 0.0223324 0.00523891 0.529412 0.54902 0.54902 0
0.0259959 -0.000464729 -0.00227385 0.529412 0.54902 0.54902 0
0.129174 0.0253382 -0.00149327 0.529412 0.54902 0.54902 0
0.00812083 0.006731 -0.0120277 0.529412 0.54902 0.54902 0
0.148704 0.0405637 -0.0185941 0.529412 0.54902 0.54902 0
0.0408776 0.00981564 -0.00226999 0.529412 0.54902 0.54902 0
0.123787 0.0256874 0.00114637 0.529412 0.54902 0.54902 0
-0.00111527 -0.000630381 0.0119212 0.529412 0.54902 0.54902 0
0.0691879 0.0115208 -0.00579071 0.529412 0.54902 0.54902 0
0.0952011 0.0185282 -0.00599724 0.529412 0.54902 0.54902 0
0.153979 0.0387058 -0.0219099 0.529412 0.54902 0.54902 0
0.0715452 0.0116911 -0.00118537 0.529412 0.54902 0.54902 0
0.0576417 0.00854583 0.00643403 0.529412 0.54902 0.54902 0
0.156156 0.0325682 -0.0179593 0.529412 0.54902 0.54902 0
0.112423 0.0244152 -0.00857582 0.529412 0.54902 0.54902 0
-0.014653 0.00196092 0.00628597 0.529412 0.54902 0.54902 0
0.0364229 0.00229706 0.00153636 0.529412 0.54902 0.54902 0
0.0852291 0.0155079 0.00356896 0.529412 0.54902 0.54902 0
0.134008 0.0366262 -0.00713821 0.529412 0.54902 0.54902 0
0.120119 0.0305512 -0.00624453 0.529412 0.54902 0.54902 0
0.100298 0.0255542 0.00444813 0.529412 0.54902 0.54902 0
0.11389 0.0235482 0.00599861 0.529412 0.54902 0.54902 0
0.130033 0.0355608 -0.00118537 0.529412 0.54902 0.54902 0
0.131855 0.0360493 0.016033 0.529412 0.54902 0.54902 0
0.015385 -0.00669296 -0.00118537 0.529412 0.54902 0.54902 0
0.019504 0.00390597 0.00439827 0.529412 0.54902 0.54902 0
0.0163111 0.00578036 -0.000322499 0.529412 0.54902 0.54902 0
0.0500495 0.0123234 0.0016623 0.529412 0.54902 0.54902 0
0.0746005 0.0157073 -0.0086614 0.529412 0.54902 0.54902 0
-0.00514674 0.00426994 0.015098 0.529412 0.54902 0.54902 0
0.0603695 0.0146978 0.00534554 0.529412 0.54902 0.54902 0
0.110898 0.02815 0.00593653 0.529412 0.54902 0.54902 0
0.138054 0.0368028 0.00843198 0.529412 0.54902 0.54902 0
0.000960796 0.00427593 0.0159282 0.529412 0.54902 0.54902 0
0.128514 0.0251615 -0.00470481 0.529412 0.54902 0.54902 0
-0.00991247 0.00646968 -0.00853586 0.529412 0.54902 0.54902 0
0.0694163 0.0118016 0.00705763 0.529412 0.54902 0.54902 0
0.141242 0.037366 0.0267257 0.529412 0.54902 0.54902 0
0.0630916 0.00942479 0.00138055 0.529412 0.54902 0.54902 0
0.125377 0.0343135 -0.000986361 0.529412 0.54902 0.54902 0
0.0326701 0.00196746 0.00713163 0.529412 0.54902 0.54902 0
0.0925709 0.0200612 0.0086614 0.529412 0.54902 0.54902 0
0.019465 0.00414169 0.00193979 0.529412 0.54902 0.54902 0
0.11219 0.0289727 -0.00158511 0.529412 0.54902 0.54902 0
-0.00819639 -0.00387267 -0.0136904 0.529412 0.54902 0.54902 0
0.0769457 0.0139106 0.00753796 0.529412 0.54902 0.54902 0
0.0847741 0.0214524 -0.00383978 0.529412 0.54902 0.54902 0
0.0609144 0.00901892 -0.00382027 0.529412 0.54902 0.54902 0
0.0530496 0.00929845 -0.0086614 0.529412 0.54902 0.54902 0
0.156403 0.0326342 0.0120244 0.529412 0.54902 0.54902 0
0.118075 0.0248725 -0.00718492 0.529412 0.54902 0.54902 0
0.0413576 0.0092118 -0.0076157 0.529412 0.54902 0.54902 0
0.0314384 0.000921011 0.000481328 0.529412 0.54902 0.54902 0
-0.0125131 0.00264547 -0.00989325 0.529412 0.54902 0.54902 0
0.0647235 0.010199 0.00491838 0.529412 0.54902 0.54902 0
0.158972 0.0433055 -0.0158524 0.529412 0.54902 0.54902 0
0.104997 0.0266491 -0.00544808 0.529412 0.54902 0.54902 0
0.100619 0.019455 -0.000178676 0.529412 0.54902 0.54902 0
0.122173 0.026065 -0.00764368 0.529412 0.54902 0.54902 0
0.0294311 0.000479058 0.00271064 0.529412 0.54902 0.54902 0
0.0734314 0.0127571 -0.00637765 0.529412 0.54902 0.54902 0
0.0130702 0.00658055 -0.0031079 0.529412 0.54902 0.54902 0
0.0209008 -0.0017077 -0.00375934 0.529412 0.54902 0.54902 0
0.102864 0.0200553 -9.68817e-05 0.529412 0.54902 0.54902 0
0.135933 0.0371418 0.012507 0.529412 0.54902 0.54902 0
0.0713749 0.0121894 -0.00628046 0.529412 0.54902 0.54902 0
0.0783088 0.0146188 0.00815306 0.529412 0.54902 0.54902 0
-0.0152172 -0.00666383 0.00280049 0.529412 0.54902 0.54902 0
0.0760663 0.0192956 -0.00160806 0.529412 0.54902 0.54902 0
0.137184 0.037477 -0.0142162 0.529412 0.54902 0.54902 0
0.105455 0.0210218 -0.00445082 0.529412 0.54902 0.54902 0
0.0881997 0.0166547 -0.00601629 0.529412 0.54902 0.54902 0
-0.000528689 0.00520985 -0.0117136 0.529412 0.54902 0.54902 0
0.122871 0.0262543 -0.00771628 0.529412 0.54902 0.54902 0
-0.014278 -0.00451599 -0.00705412 0.529412 0.54902 0.54902 0
0.0607612 0.00943227 0.00674692 0.529412 0.54902 0.54902 0
0.144794 0.0295238 -0.0229551 0.529412 0.54902 0.54902 0
0.103561 0.025936 -0.00740968 0.529412 0.54902 0.54902 0
0.00340104 -0.00233902 0.0155788 0.529412 0.54902 0.54902 0
0.127225 0.0248161 -0.00336234 0.529412 0.54902 0.54902 0
0.14636 0.0399357 -0.0216005 0.529412 0.54902 0.54902 0
0.00434214 0.000745376 -0.0153441 0.529412 0.54902 0.54902 0
0.0408386 0.00382408 -0.00520832 0.529412 0.54902 0.54902 0
0.133298 0.0264433 0.00379912 0.529412 0.54902 0.54902 0
0.13555 0.0370392 0.00956004 0.529412 0.54902 0.54902 0
-0.00914715 0.006731 0.010788 0.529412 0.54902 0.54902 0
0.034874 0.00814379 -0.00329421 0.529412 0.54902 0.54902 0
0.145435 0.0296955 0.0240447 0.529412 0.54902 0.54902 0
0.131501 0.0275385 -0.0211893 0.529412 0.54902 0.54902 0
0.0109214 0.0041734 -0.0116076 0.529412 0.54902 0.54902 0
0.116523 0.0296691 -0.00587033 0.529412 0.54902 0.54902 0
0.00267983 -0.00170847 -0.0157365 0.529412 0.54902 0.54902 0
0.00347615 -2.42988e-05 -0.0155666 0.529412 0.54902 0.54902 0
0.155696 0.0357751 -0.0138029 0.529412 0.54902 0.54902 0
-0.0129787 0.00636886 0.00907179 0.529412 0.54902 0.54902 0
0.0118079 -0.00480114 -0.0107294 0.529412 0.54902 0.54902 0
0.0558407 0.0128353 -0.00807537 0.529412 0.54902 0.54902 0
-0.00984723 0.00247772 0.00643322 0.529412 0.54902 0.54902 0
0.157271 0.0367613 0.021597 0.529412 0.54902 0.54902 0
-0.015276 0.00205531 0.0045985 0.529412 0.54902 0.54902 0
0.0112842 0.00370393 0.00474754 0.529412 0.54902 0.54902 0
0.0175772 0.00417597 -0.00321899 0.529412 0.54902 0.54902 0
0.0989317 0.0190661 0.00208009 0.529412 0.54902 0.54902 0
-0.000585626 -0.00601715 -0.0159158 0.529412 0.54902 0.54902 0
-0.000417668 0.00400168 -0.0159482 0.529412 0.54902 0.54902 0
-0.0115669 -0.006731 0.00612066 0.529412 0.54902 0.54902 0
0.145039 0.0395818 -0.0162639 0.529412 0.54902 0.54902 0
0.069249 0.0111127 -0.00169815 0.529412 0.54902 0.54902 0
0.0133865 0.00218544 0.00952317 0.529412 0.54902 0.54902 0
0.0314384 0.00134874 0.00534554 0.529412 0.54902 0.54902 0
0.0167931 -0.00354133 -0.000322007 0.529412 0.54902 0.54902 0
-0.00297182 0.000926432 -0.015681 0.529412 0.54902 0.54902 0
0.0152046 0.006731 -0.000325892 0.529412 0.54902 0.54902 0
0.125698 0.0342417 0.00861033 0.529412 0.54902 0.54902 0
0.071763 0.0118113 -0.00227385 0.529412 0.54902 0.54902 0
0.0737676 0.0183643 -0.00490876 0.529412 0.54902 0.54902 0
0.10282 0.0262301 -0.00445082 0.529412 0.54902 0.54902 0
-0.010692 -0.00438144 -0.011849 0.529412 0.54902 0.54902 0
0.0596891 0.0147087 0.00413544 0.529412 0.54902 0.54902 0
-0.00484241 0.00455463 0.0111199 0.529412 0.54902 0.54902 0
-0.0147359 -0.00342751 0.00610835 0.529412 0.54902 0.54902 0
-0.00739472 0.00656856 -0.013782 0.529412 0.54902 0.54902 0
0.157995 0.0404643 -0.0147231 0.529412 0.54902 0.54902 0
0.0884656 0.0168718 -0.00688099 0.529412 0.54902 0.54902 0
0.148183 0.0328925 -0.0116585 0.529412 0.54902 0.54902 0
0.108859 0.0278597 -0.00430253 0.529412 0.54902 0.54902 0
0.0942778 0.0177533 -6.57141e-05 0.529412 0.54902 0.54902 0
0.106801 0.0211497 0.00162215 0.529412 0.54902 0.54902 0
0.109089 0.0246053 -0.0086614 0.529412 0.54902 0.54902 0
0.00612209 -0.00319672 0.00995551 0.529412 0.54902 0.54902 0
0.0980318 0.0249795 -0.00409168 0.529412 0.54902 0.54902 0
0.00690529 -0.00460444 -0.00977044 0.529412 0.54902 0.54902 0
0.137976 0.0376894 0.0217406 0.529412 0.54902 0.54902 0
0.0357204 0.00808789 -0.00553931 0.529412 0.54902 0.54902 0
0.137116 0.0274951 -0.00614138 0.529412 0.54902 0.54902 0
0.102553 0.0261186 -0.00470468 0.529412 0.54902 0.54902 0
0.0587855 0.0144128 0.00451419 0.529412 0.54902 0.54902 0
-0.00504029 0.00345574 -0.0151315 0.529412 0.54902 0.54902 0
0.0183766 0.00325583 0.00673499 0.529412 0.54902 0.54902 0
0.0327504 0.00648232 -0.00825331 0.529412 0.54902 0.54902 0
0.131793 0.0360326 0.00632123 0.529412 0.54902 0.54902 0
0.100436 0.0194045 -9.68817e-05 0.529412 0.54902 0.54902 0
0.0998943 0.0192982 0.00162215 0.529412 0.54902 0.54902 0
0.0813574 0.0206705 0.00242752 0.529412 0.54902 0.54902 0
0.137812 0.0376454 -0.0119326 0.529412 0.54902 0.54902 0
0.0601205 0.0101413 0.0084632 0.529412 0.54902 0.54902 0
0.108143 0.0262821 -0.00851133 0.529412 0.54902 0.54902 0
-0.0157366 -0.00127658 0.00267892 0.529412 0.54902 0.54902 0
0.137987 0.0364261 0.00815986 0.529412 0.54902 0.54902 0
0.012113 0.00305746 0.00425706 0.529412 0.54902 0.54902 0
0.00220996 -0.006731 0.0140165 0.529412 0.54902 0.54902 0
-0.0100074 -0.00283589 -0.0124263 0.529412 0.54902 0.54902 0
-0.00132481 -0.000517378 0.0158658 0.529412 0.54902 0.54902 0
0.110493 0.0229456 -0.00768913 0.529412 0.54902 0.54902 0
0.146013 0.0298502 -0.0125282 0.529412 0.54902 0.54902 0
-0.00967423 0.00103245 0.0126847 0.529412 0.54902 0.54902 0
0.132034 0.0261047 0.00259172 0.529412 0.54902 0.54902 0
0.0269168 -0.000141655 -0.00334837 0.529412 0.54902 0.54902 0
-8.58617e-05 -0.00480733 -0.0116625 0.529412 0.54902 0.54902 0
0.0566933 0.00768512 -0.000399701 0.529412 0.54902 0.54902 0
0.00463159 -0.0035263 0.01527 0.529412 0.54902 0.54902 0
-0.0148606 -0.0044981 -0.00582693 0.529412 0.54902 0.54902 0
0.0986024 0.0250648 -0.0046711 0.529412 0.54902 0.54902 0
0.0550645 0.00847312 -0.00823055 0.529412 0.54902 0.54902 0
0.130537 0.0343863 0.0179494 0.529412 0.54902 0.54902 0
0.00558857 0.00336363 -0.0102613 0.529412 0.54902 0.54902 0
-0.0122408 -0.00036717 0.0102471 0.529412 0.54902 0.54902 0
0.0106379 -0.006731 0.00978083 0.529412 0.54902 0.54902 0
0.0886205 0.0226961 -0.000554819 0.529412 0.54902 0.54902 0
0.0969486 0.0184929 -0.00128948 0.529412 0.54902 0.54902 0
0.0481648 0.0118079 0.00190924 0.529412 0.54902 0.54902 0
0.134387 0.026735 0.000188669 0.529412 0.54902 0.54902 0
0.160866 0.0338302 0.0140479 0.529412 0.54902 0.54902 0
0.0847126 0.0159329 0.00725934 0.529412 0.54902 0.54902 0
0.0554361 0.0138056 0.000351099 0.529412 0.54902 0.54902 0
0.0913305 0.0170866 0.00271064 0.529412 0.54902 0.54902 0
0.0682643 0.0112856 0.00577419 0.529412 0.54902 0.54902 0
0.0441107 0.0106168 0.00330292 0.529412 0.54902 0.54902 0
0.151361 0.0372439 -0.0127827 0.529412 0.54902 0.54902 0
0.0354077 0.0020649 -0.00232398 0.529412 0.54902 0.54902 0
0.0855014 0.0216769 -0.00336234 0.529412 0.54902 0.54902 0
0.133743 0.0267995 -0.022148 0.529412 0.54902 0.54902 0
0.102345 0.0212241 0.00830763 0.529412 0.54902 0.54902 0
0.0428671 0.00414262 -0.00340723 0.529412 0.54902 0.54902 0
0.132808 0.0363046 -0.0119519 0.529412 0.54902 0.54902 0
0.0832614 0.0178843 -0.0086614 0.529412 0.54902 0.54902 0
0.059281 0.0148348 0.000421691 0.529412 0.54902 0.54902 0
0.160225 0.0338432 0.0196584 0.529412 0.54902 0.54902 0
0.097378 0.0187618 -0.00345166 0.529412 0.54902 0.54902 0
0.152937 0.0384227 0.023906 0.529412 0.54902 0.54902 0
-0.0134043 -0.00582703 -0.00860019 0.529412 0.54902 0.54902 0
0.0444363 0.00473925 0.00477361 0.529412 0.54902 0.54902 0
0.135475 0.0370191 0.0197998 0.529412 0.54902 0.54902 0
0.153979 0.0356782 -0.0133518 0.529412 0.54902 0.54902 0
-0.00805307 -0.006731 -0.0125258 0.529412 0.54902 0.54902 0
0.0920949 0.0172326 0.00202791 0.529412 0.54902 0.54902 0
0.135475 0.0342115 -0.0234542 0.529412 0.54902 0.54902 0
0.11773 0.0281539 0.00970636 0.529412 0.54902 0.54902 0
0.128838 0.0352407 -0.013065 0.529412 0.54902 0.54902 0
0.148208 0.0304386 0.024841 0.529412 0.54902 0.54902 0
0.108872 0.0281147 0.000991603 0.529412 0.54902 0.54902 0
0.0608275 0.0137888 -0.00841607 0.529412 0.54902 0.54902 0
0.00453523 -0.000793974 -0.0152913 0.529412 0.54902 0.54902 0
-0.015762 0.00546535 -0.00252366 0.529412 0.54902 0.54902 0
0.019037 0.00382408 -0.00428661 0.529412 0.54902 0.54902 0
0.0078347 -0.00568843 -0.013903 0.529412 0.54902 0.54902 0
0.0115851 0.00668455 0.00515155 0.529412 0.54902 0.54902 0
0.135933 0.0371419 0.00979337 0.529412 0.54902 0.54902 0
0.036842 0.00811832 0.0070382 0.529412 0.54902 0.54902 0
0.0804403 0.0178843 0.0086614 0.529412 0.54902 0.54902 0
0.121736 0.0259616 0.0076875 0.529412 0.54902 0.54902 0
0.16051 0.0337348 0.0168609 0.529412 0.54902 0.54902 0
0.0673136 0.0119623 -0.00839298 0.529412 0.54902 0.54902 0
0.062678 0.014952 0.00752251 0.529412 0.54902 0.54902 0
0.0264517 0.00601378 -0.00145379 0.529412 0.54902 0.54902 0
0.0937512 0.0196277 -0.00863056 0.529412 0.54902 0.54902 0
0.0745489 0.018825 0.00276865 0.529412 0.54902 0.54902 0
0.0525788 0.00690278 -0.00480261 0.529412 0.54902 0.54902 0
0.0125984 0.00472712 -0.00978958 0.529412 0.54902 0.54902 0
0.0695353 0.0158485 -0.00855193 0.529412 0.54902 0.54902 0
0.133865 0.0365878 0.00596222 0.529412 0.54902 0.54902 0
0.0989285 0.0197105 0.00706458 0.529412 0.54902 0.54902 0
0.023361 0.00123483 -0.00866382 0.529412 0.54902 0.54902 0
0.139829 0.0281933 -0.0157936 0.529412 0.54902 0.54902 0
0.139613 0.038128 -0.0224832 0.529412 0.54902 0.54902 0
0.04308 0.00458591 0.00607437 0.529412 0.54902 0.54902 0
0.0245316 0.00384367 -0.00852994 0.529412 0.54902 0.54902 0
0.145566 0.039723 -0.0194349 0.529412 0.54902 0.54902 0
0.115146 0.0240579 -0.00708573 0.529412 0.54902 0.54902 0
0.10219 0.0261118 -0.00382027 0.529412 0.54902 0.54902 0
0.00159134 -0.00432066 0.0158508 0.529412 0.54902 0.54902 0
0.0571041 0.00779805 0.000653422 0.529412 0.54902 0.54902 0
0.0434038 0.0102982 -0.00444977 0.529412 0.54902 0.54902 0
0.00749171 0.00117492 0.0140816 0.529412 0.54902 0.54902 0
0.0276865 0.00042047 -0.00591485 0.529412 0.54902 0.54902 0
0.0586505 0.00834908 0.00316857 0.529412 0.54902 0.54902 0
-0.0100886 -0.0061817 -0.0122739 0.529412 0.54902 0.54902 0
0.0559323 0.00819002 0.00706647 0.529412 0.54902 0.54902 0
0.0722648 0.0119911 0.00293417 0.529412 0.54902 0.54902 0
0.0756544 0.0189727 0.00425706 0.529412 0.54902 0.54902 0
0.164234 0.0370858 0.0157725 0.529412 0.54902 0.54902 0
0.0913722 0.0232007 0.00406597 0.529412 0.54902 0.54902 0
0.00204928 -0.00245482 0.0124456 0.529412 0.54902 0.54902 0
0.137021 0.0274865 7.38766e-06 0.529412 0.54902 0.54902 0
-0.000698624 -0.00279696 0.0159115 0.529412 0.54902 0.54902 0
-0.0110125 0.006731 -0.00597628 0.529412 0.54902 0.54902 0
0.128271 0.0250963 0.00223521 0.529412 0.54902 0.54902 0
0.134387 0.0367275 0.00425706 0.529412 0.54902 0.54902 0
0.00666698 0.000107369 -0.00979128 0.529412 0.54902 0.54902 0
0.0741875 0.018202 -0.00664339 0.529412 0.54902 0.54902 0
0.00685166 -0.00414809 0.0144114 0.529412 0.54902 0.54902 0
0.037035 0.00247545 0.0018129 0.529412 0.54902 0.54902 0
0.140269 0.0383037 0.0224937 0.529412 0.54902 0.54902 0
0.155068 0.042269 -0.0162371 0.529412 0.54902 0.54902 0
0.0261472 0.000429656 -0.00785555 0.529412 0.54902 0.54902 0
0.0790566 0.0201244 0.000991603 0.529412 0.54902 0.54902 0
-0.00167411 0.00336771 0.0158592 0.529412 0.54902 0.54902 0
0.0354344 0.00350027 0.00844576 0.529412 0.54902 0.54902 0
-0.0127825 0.0067135 -0.00848449 0.529412 0.54902 0.54902 0
0.00119376 0.00658726 0.012323 0.529412 0.54902 0.54902 0
0.165801 0.0439348 0.0118376 0.529412 0.54902 0.54902 0
0.0143287 0.006731 0.00153837 0.529412 0.54902 0.54902 0
0.129402 0.0353919 -0.0129905 0.529412 0.54902 0.54902 0
0.0900222 0.0225059 -0.00620212 0.529412 0.54902 0.54902 0
0.00928246 0.000492306 -0.00932839 0.529412 0.54902 0.54902 0
0.0118456 0.00222721 -0.0107086 0.529412 0.54902 0.54902 0
0.101732 0.0259076 -0.0046502 0.529412 0.54902 0.54902 0
-0.0155999 -0.00220978 -0.00336234 0.529412 0.54902 0.54902 0
0.139648 0.0328956 -0.0238312 0.529412 0.54902 0.54902 0
-0.014059 0.00459375 -0.00753935 0.529412 0.54902 0.54902 0
0.164431 0.0359535 0.00706458 0.529412 0.54902 0.54902 0
0.0350595 0.00829691 0.00190543 0.529412 0.54902 0.54902 0
0.0519923 0.0123982 0.00567479 0.529412 0.54902 0.54902 0
-0.0152532 -0.00413437 0.00462133 0.529412 0.54902 0.54902 0
0.138301 0.0377763 0.017994 0.529412 0.54902 0.54902 0
0.134387 0.026735 0.0183757 0.529412 0.54902 0.54902 0
0.00255732 -0.006731 -0.0149569 0.529412 0.54902 0.54902 0
0.165322 0.0450166 0.00706458 0.529412 0.54902 0.54902 0
0.0583318 0.0109555 -0.0086614 0.529412 0.54902 0.54902 0
0.149 0.0306507 -0.0142472 0.529412 0.54902 0.54902 0
0.135713 0.0320774 0.0227734 0.529412 0.54902 0.54902 0
0.0045116 0.00548448 0.0152818 0.529412 0.54902 0.54902 0
0.14604 0.0298576 0.0174895 0.529412 0.54902 0.54902 0
0.135933 0.0271494 0.00208009 0.529412 0.54902 0.54902 0
0.0603695 0.0150389 -0.00227385 0.529412 0.54902 0.54902 0
0.132341 0.0261868 -0.0098808 0.529412 0.54902 0.54902 0
0.12268 0.0317349 -0.00302834 0.529412 0.54902 0.54902 0
0.000997215 -0.006731 0.013175 0.529412 0.54902 0.54902 0
0.0871872 0.0163565 -0.00585692 0.529412 0.54902 0.54902 0
0.0652769 0.0103329 -0.00496013 0.529412 0.54902 0.54902 0
0.0586505 0.014327 -0.0048078 0.529412 0.54902 0.54902 0
0.0157913 -0.00451599 0.00333954 0.529412 0.54902 0.54902 0
0.0505988 0.0119426 -0.00630046 0.529412 0.54902 0.54902 0
0.0673584 0.0153381 0.00851811 0.529412 0.54902 0.54902 0
0.0111995 0.00304701 -0.0113489 0.529412 0.54902 0.54902 0
0.097836 0.0244535 0.00708821 0.529412 0.54902 0.54902 0
0.0284719 0.00601743 0.00616036 0.529412 0.54902 0.54902 0
-0.0085205 -0.006731 0.0110787 0.529412 0.54902 0.54902 0
0.0585876 0.0139853 -0.00684979 0.529412 0.54902 0.54902 0
0.0816266 0.0194307 0.00836685 0.529412 0.54902 0.54902 0
0.147906 0.0303762 -0.012041 0.529412 0.54902 0.54902 0
0.0204356 0.00383784 0.00644447 0.529412 0.54902 0.54902 0
0.0097536 0.0046627 -0.00796388 0.529412 0.54902 0.54902 0
0.0300652 0.00665005 0.00488761 0.529412 0.54902 0.54902 0
0.00356039 0.00150817 0.0126595 0.529412 0.54902 0.54902 0
0.00656536 0.00063509 -0.0145292 0.529412 0.54902 0.54902 0
0.106073 0.0273717 0.000534764 0.529412 0.54902 0.54902 0
0.0654274 0.0157513 0.00720196 0.529412 0.54902 0.54902 0
0.00285027 0.0061501 -0.0127777 0.529412 0.54902 0.54902 0
0.0687421 0.0162841 -0.00808616 0.529412 0.54902 0.54902 0
0.133441 0.0364742 0.0127564 0.529412 0.54902 0.54902 0
0.136563 0.0304028 -0.00227385 0.529412 0.54902 0.54902 0
0.0377473 0.00324322 -0.00665543 0.529412 0.54902 0.54902 0
0.063587 0.0113533 0.00858188 0.529412 0.54902 0.54902 0
0.0150903 -0.006731 -0.000554819 0.529412 0.54902 0.54902 0
0.127856 0.024985 -0.00421877 0.529412 0.54902 0.54902 0
0.0923674 0.0175453 -0.0046682 0.529412 0.54902 0.54902 0
-0.0150651 -0.000788673 0.00526971 0.529412 0.54902 0.54902 0
0.145953 0.0298342 -0.0176564 0.529412 0.54902 0.54902 0
0.129543 0.0354297 -0.00417938 0.529412 0.54902 0.54902 0
0.123002 0.0320346 -0.00028266 0.529412 0.54902 0.54902 0
0.111259 0.02742 -0.00833441 0.529412 0.54902 0.54902 0
0.129402 0.0353919 0.014684 0.529412 0.54902 0.54902 0
0.159717 0.0347385 0.0202218 0.529412 0.54902 0.54902 0
0.104997 0.0209537 -0.00480552 0.529412 0.54902 0.54902 0
0.137219 0.0320346 0.00379912 0.529412 0.54902 0.54902 0
-0.00591641 0.006731 0.0139268 0.529412 0.54902 0.54902 0
0.154437 0.0421 0.0156106 0.529412 0.54902 0.54902 0
0.0655158 0.0163264 0.00354814 0.529412 0.54902 0.54902 0
0.139049 0.0379768 -0.0150236 0.529412 0.54902 0.54902 0
0.149371 0.0307502 0.0213804 0.529412 0.54902 0.54902 0
0.0863002 0.0159594 -0.00490876 0.529412 0.54902 0.54902 0
0.120201 0.0247857 0.00242568 0.529412 0.54902 0.54902 0
0.136563 0.0273183 0.0165382 0.529412 0.54902 0.54902 0
0.00267983 -0.000642307 -0.0127279 0.529412 0.54902 0.54902 0
0.129398 0.0264424 0.0129649 0.529412 0.54902 0.54902 0
0.0489586 0.00612769 -0.00595793 0.529412 0.54902 0.54902 0
0.0177167 0.00445683 0.000915935 0.529412 0.54902 0.54902 0
0.097378 0.0189446 0.00488761 0.529412 0.54902 0.54902 0
0.000222506 0.00355735 -0.0159556 0.529412 0.54902 0.54902 0
0.107996 0.0278775 -0.00101928 0.529412 0.54902 0.54902 0
0.108036 0.0214494 -0.000502753 0.529412 0.54902 0.54902 0
0.13874 0.0378941 0.0216728 0.529412 0.54902 0.54902 0
0.114477 0.0239704 -0.00756134 0.529412 0.54902 0.54902 0
0.129059 0.0353 -0.00917038 0.529412 0.54902 0.54902 0
0.00831175 -0.000743771 -0.0136166 0.529412 0.54902 0.54902 0
0.121504 0.0314576 -0.00178152 0.529412 0.54902 0.54902 0
0.0546136 0.0128763 -0.00709741 0.529412 0.54902 0.54902 0
0.137576 0.0275897 -0.0224462 0.529412 0.54902 0.54902 0
0.138109 0.033123 0.0248814 0.529412 0.54902 0.54902 0
0.150714 0.0380385 -0.022782 0.529412 0.54902 0.54902 0
-0.015929 0.00419189 -0.000554819 0.529412 0.54902 0.54902 0
-0.000127689 0.006731 0.0124959 0.529412 0.54902 0.54902 0
0.0815087 0.0203074 -0.00569856 0.529412 0.54902 0.54902 0
0.131368 0.0259261 0.0135926 0.529412 0.54902 0.54902 0
0.0368819 0.00379408 0.00838371 0.529412 0.54902 0.54902 0
0.0967418 0.0184803 0.00208009 0.529412 0.54902 0.54902 0
0.118062 0.0302451 0.00490512 0.529412 0.54902 0.54902 0
0.137407 0.0325891 0.0242298 0.529412 0.54902 0.54902 0
0.127708 0.0349379 -0.00546096 0.529412 0.54902 0.54902 0
-0.010382 -0.00151114 -0.00543089 0.529412 0.54902 0.54902 0
-0.000289619 -0.00128502 -0.0116776 0.529412 0.54902 0.54902 0
0.0626827 0.0105505 -0.00826445 0.529412 0.54902 0.54902 0
0.0117586 -0.0025438 -0.000693216 0.529412 0.54902 0.54902 0
0.142227 0.0388283 0.0256874 0.529412 0.54902 0.54902 0
0.0726949 0.0172867 0.00815524 0.529412 0.54902 0.54902 0
0.149735 0.0408401 0.0118216 0.529412 0.54902 0.54902 0
0.0202663 -0.00206691 0.00100948 0.529412 0.54902 0.54902 0
0.0732408 0.0121225 0.000684499 0.529412 0.54902 0.54902 0
0.016849 -0.00267655 0.00528894 0.529412 0.54902 0.54902 0
0.15226 0.0387419 0.0242252 0.529412 0.54902 0.54902 0
0.0250537 0.00509594 0.00619488 0.529412 0.54902 0.54902 0
0.0388869 0.00327937 -0.00507994 0.529412 0.54902 0.54902 0
0.00998399 -0.00288661 0.0124584 0.529412 0.54902 0.54902 0
0.025538 0.00155698 -0.00865347 0.529412 0.54902 0.54902 0
0.0716267 0.0121173 0.00534359 0.529412 0.54902 0.54902 0
-0.0145917 -0.00572959 -0.00639214 0.529412 0.54902 0.54902 0
-0.0158888 -0.000973837 -0.00135015 0.529412 0.54902 0.54902 0
0.133071 0.0263825 -0.00623768 0.529412 0.54902 0.54902 0
-0.0153639 -0.00286853 0.00425706 0.529412 0.54902 0.54902 0
0.0128065 -0.006731 -0.00734211 0.529412 0.54902 0.54902 0
0.0582507 0.0144809 0.00239523 0.529412 0.54902 0.54902 0
0.157173 0.0407424 0.008611 0.529412 0.54902 0.54902 0
0.0322435 0.00113297 7.88455e-05 0.529412 0.54902 0.54902 0
0.1021 0.0205192 -0.00684075 0.529412 0.54902 0.54902 0
0.1496 0.0343027 0.0259434 0.529412 0.54902 0.54902 0
0.100686 0.0197626 0.00446192 0.529412 0.54902 0.54902 0
0.119252 0.0305239 -0.00513962 0.529412 0.54902 0.54902 0
-0.0159316 -0.00497393 0.000864278 0.529412 0.54902 0.54902 0
0.0723429 0.0128114 -0.0078627 0.529412 0.54902 0.54902 0
-0.00123732 0.006731 -0.0139444 0.529412 0.54902 0.54902 0
0.141375 0.0324025 0.0110808 0.529412 0.54902 0.54902 0
-0.00360739 0.00645691 0.0153596 0.529412 0.54902 0.54902 0
0.134275 0.027433 0.0201498 0.529412 0.54902 0.54902 0
0.0107572 0.00481899 -0.00507966 0.529412 0.54902 0.54902 0
0.132712 0.0293559 0.0189634 0.529412 0.54902 0.54902 0
0.11154 0.0284512 0.00516945 0.529412 0.54902 0.54902 0
0.145001 0.0395716 0.024147 0.529412 0.54902 0.54902 0
0.118508 0.0247906 0.00599861 0.529412 0.54902 0.54902 0
0.103632 0.0265504 0.00343716 0.529412 0.54902 0.54902 0
0.135734 0.0368464 0.0235299 0.529412 0.54902 0.54902 0
0.0412347 0.00354531 -0.000603625 0.529412 0.54902 0.54902 0
0.0575172 0.0143649 0.000243983 0.529412 0.54902 0.54902 0
0.104363 0.0205192 0.00208009 0.529412 0.54902 0.54902 0
-0.00949966 -0.000308303 -0.00906481 0.529412 0.54902 0.54902 0
-0.0111172 -0.00125054 -0.0114397 0.529412 0.54902 0.54902 0
0.0569581 0.0141093 0.00280087 0.529412 0.54902 0.54902 0
0.0878087 0.0167449 -0.00716739 0.529412 0.54902 0.54902 0
-0.00126721 0.0067234 0.0152374 0.529412 0.54902 0.54902 0
0.0385998 0.00285834 -0.000882916 0.529412 0.54902 0.54902 0
0.136383 0.02727 -9.68817e-05 0.529412 0.54902 0.54902 0
0.0864932 0.0161973 -0.00601617 0.529412 0.54902 0.54902 0
0.0303194 0.00658534 -0.00587033 0.529412 0.54902 0.54902 0
-0.0120272 0.00273059 -0.0104902 0.529412 0.54902 0.54902 0
-0.0122536 0.006731 -0.00893136 0.529412 0.54902 0.54902 0
0.138459 0.0278261 0.00935626 0.529412 0.54902 0.54902 0
0.0192818 0.00399676 -0.00324204 0.529412 0.54902 0.54902 0
0.0299955 0.000535701 0.00061088 0.529412 0.54902 0.54902 0
0.0136036 0.00671372 0.00706112 0.529412 0.54902 0.54902 0
-0.00901655 -0.0026357 -0.0131587 0.529412 0.54902 0.54902 0
0.136589 0.0367234 0.00560721 0.529412 0.54902 0.54902 0
0.0815087 0.0207612 -0.00145225 0.529412 0.54902 0.54902 0
-0.0140635 -0.006731 -0.00125421 0.529412 0.54902 0.54902 0
0.100299 0.0258267 0.000367928 0.529412 0.54902 0.54902 0
0.0670914 0.0105873 0.0026368 0.529412 0.54902 0.54902 0
0.13874 0.0378941 0.0151419 0.529412 0.54902 0.54902 0
0.0901726 0.0167052 -0.0016433 0.529412 0.54902 0.54902 0
0.119078 0.0244397 0.0015922 0.529412 0.54902 0.54902 0
0.0746367 0.0125236 0.00150261 0.529412 0.54902 0.54902 0
0.108352 0.021621 0.00248627 0.529412 0.54902 0.54902 0
-0.012101 -0.006731 -0.00572081 0.529412 0.54902 0.54902 0
-0.0027631 0.000991554 0.0157225 0.529412 0.54902 0.54902 0
0.0500071 0.00598777 -0.00246782 0.529412 0.54902 0.54902 0
-0.0159183 -0.00509207 -0.00116171 0.529412 0.54902 0.54902 0
0.140383 0.0383342 0.0226076 0.529412 0.54902 0.54902 0
0.0270491 0.00027488 -0.0060619 0.529412 0.54902 0.54902 0
0.111986 0.0227577 0.00425706 0.529412 0.54902 0.54902 0
0.00963451 0.00201492 -0.012701 0.529412 0.54902 0.54902 0
0.130476 0.0322924 0.0171281 0.529412 0.54902 0.54902 0
0.0303407 0.00637451 -0.00708573 0.529412 0.54902 0.54902 0
0.152321 0.0315405 0.0223034 0.529412 0.54902 0.54902 0
-0.00436177 0.00659426 0.012507 0.529412 0.54902 0.54902 0
0.134671 0.0268113 -0.0150626 0.529412 0.54902 0.54902 0
0.122173 0.0308848 0.00752251 0.529412 0.54902 0.54902 0
0.141207 0.0367245 -0.0101185 0.529412 0.54902 0.54902 0
-0.00602805 0.00450563 0.0100005 0.529412 0.54902 0.54902 0
0.089243 0.0225339 -0.00479437 0.529412 0.54902 0.54902 0
0.108465 0.0225096 -0.00790071 0.529412 0.54902 0.54902 0
0.0573404 0.01427 0.00178673 0.529412 0.54902 0.54902 0
0.134798 0.0368377 0.0100976 0.529412 0.54902 0.54902 0
0.0106926 0.00446549 -0.0118274 0.529412 0.54902 0.54902 0
0.0900863 0.0229488 0.00316857 0.529412 0.54902 0.54902 0
0.0159799 -0.00543365 -9.68817e-05 0.529412 0.54902 0.54902 0
0.155445 0.0375969 -0.0138642 0.529412 0.54902 0.54902 0
0.0630044 0.0154777 -0.00490876 0.529412 0.54902 0.54902 0
0.135784 0.033327 -0.00255859 0.529412 0.54902 0.54902 0
0.0324041 0.00152303 0.00482285 0.529412 0.54902 0.54902 0
0.0296717 0.00470468 -0.00865264 0.529412 0.54902 0.54902 0
0.101575 0.0197231 -0.000806417 0.529412 0.54902 0.54902 0
0.0701659 0.0114985 -0.00382027 0.529412 0.54902 0.54902 0
0.153433 0.0418309 0.0205843 0.529412 0.54902 0.54902 0
0.0195476 0.00158715 -0.008968 0.529412 0.54902 0.54902 0
0.0140951 0.006731 -0.00566591 0.529412 0.54902 0.54902 0
0.01802 -0.00233132 0.00493614 0.529412 0.54902 0.54902 0
0.0658465 0.0144932 -0.00864478 0.529412 0.54902 0.54902 0
-0.00437706 -0.00365666 0.0153399 0.529412 0.54902 0.54902 0
0.0320689 0.0011325 0.00162215 0.529412 0.54902 0.54902 0
0.143216 0.0361504 0.0121479 0.529412 0.54902 0.54902 0
0.124482 0.0260188 -0.00442445 0.529412 0.54902 0.54902 0
-0.012113 0.00103002 0.00425706 0.529412 0.54902 0.54902 0
0.0945371 0.0240088 0.0044702 0.529412 0.54902 0.54902 0
0.117949 0.024254 0.00325247 0.529412 0.54902 0.54902 0
0.0891356 0.0208114 -0.00863362 0.529412 0.54902 0.54902 0
0.0342969 0.00666941 0.00842281 0.529412 0.54902 0.54902 0
0.155526 0.0323992 0.0182623 0.529412 0.54902 0.54902 0
0.143696 0.0292295 0.0259985 0.529412 0.54902 0.54902 0
0.0336153 0.00149882 -9.68817e-05 0.529412 0.54902 0.54902 0
0.0446605 0.0105871 -0.00473573 0.529412 0.54902 0.54902 0
0.11759 0.0280552 -0.00942177 0.529412 0.54902 0.54902 0
0.0755569 0.0132447 -0.00589007 0.529412 0.54902 0.54902 0
0.147667 0.0402859 -0.0195196 0.529412 0.54902 0.54902 0
-0.0155715 -0.0044227 0.00350323 0.529412 0.54902 0.54902 0
0.115368 0.0269143 -0.00886861 0.529412 0.54902 0.54902 0
0.00970051 0.0048162 0.008611 0.529412 0.54902 0.54902 0
0.110776 0.0263466 -0.00865904 0.529412 0.54902 0.54902 0
-0.0119002 0.00231883 -0.0106341 0.529412 0.54902 0.54902 0
-0.00989757 -0.00445132 0.012507 0.529412 0.54902 0.54902 0
0.0397553 0.00851626 0.00809269 0.529412 0.54902 0.54902 0
0.0066999 -0.0061817 -0.0144364 0.529412 0.54902 0.54902 0
0.143094 0.0290683 -0.0223928 0.529412 0.54902 0.54902 0
0.118631 0.030732 0.000855889 0.529412 0.54902 0.54902 0
0.129402 0.0253994 0.008611 0.529412 0.54902 0.54902 0
-0.0129266 -0.00384205 0.00931394 0.529412 0.54902 0.54902 0
0.0826174 0.0203815 0.00705218 0.529412 0.54902 0.54902 0
0.0336735 0.00795952 0.00113957 0.529412 0.54902 0.54902 0
0.127067 0.0247737 -0.00784646 0.529412 0.54902 0.54902 0
0.0958461 0.0241227 0.00587967 0.529412 0.54902 0.54902 0
0.0173126 0.00308022 -0.00694355 0.529412 0.54902 0.54902 0
0.156772 0.0427258 0.0155174 0.529412 0.54902 0.54902 0
0.140917 0.0384774 0.0183415 0.529412 0.54902 0.54902 0
0.114038 0.0271037 0.00897407 0.529412 0.54902 0.54902 0
0.0515465 0.0087024 0.0086614 0.529412 0.54902 0.54902 0
0.0879839 0.0221029 0.00535202 0.529412 0.54902 0.54902 0
0.119939 0.0300401 -0.00880476 0.529412 0.54902 0.54902 0
0.0985207 0.0201291 -0.00824175 0.529412 0.54902 0.54902 0
0.1197 0.0309269 0.00271064 0.529412 0.54902 0.54902 0
0.0161996 0.00380311 -0.00599724 0.529412 0.54902 0.54902 0
0.136804 0.0368464 0.00617473 0.529412 0.54902 0.54902 0
0.0625421 0.0150028 -0.00708573 0.529412 0.54902 0.54902 0
-0.0123764 -0.00326136 -0.0100813 0.529412 0.54902 0.54902 0
0.106544 0.0271505 0.00493702 0.529412 0.54902 0.54902 0
-0.00169456 0.000330016 -0.0158605 0.529412 0.54902 0.54902 0
0.0183766 -0.00257299 -0.000804468 0.529412 0.54902 0.54902 0
0.00612209 0.00450003 0.00995551 0.529412 0.54902 0.54902 0
0.139156 0.0280129 0.0227323 0.529412 0.54902 0.54902 0
0.139198 0.0355475 0.0258895 0.529412 0.54902 0.54902 0
0.0172881 -0.00306978 0.000991603 0.529412 0.54902 0.54902 0
0.0859109 0.0155329 0.00110966 0.529412 0.54902 0.54902 0
0.0968883 0.0245095 -0.0052389 0.529412 0.54902 0.54902 0
0.160968 0.0344683 0.0192719 0.529412 0.54902 0.54902 0
0.0788646 0.0196582 0.00534554 0.529412 0.54902 0.54902 0
0.160394 0.0393362 0.00787466 0.529412 0.54902 0.54902 0
0.129509 0.0353 -0.0207781 0.529412 0.54902 0.54902 0
0.105962 0.0248731 0.0086614 0.529412 0.54902 0.54902 0
-0.000357513 0.00414789 0.0159371 0.529412 0.54902 0.54902 0
0.102345 0.0210357 0.00812885 0.529412 0.54902 0.54902 0
-0.00437242 -0.00573119 -0.0153357 0.529412 0.54902 0.54902 0
0.0098009 -0.00319451 0.00663622 0.529412 0.54902 0.54902 0
0.101732 0.0258897 0.00476033 0.529412 0.54902 0.54902 0
0.0910627 0.0233324 -0.00121046 0.529412 0.54902 0.54902 0
0.0438497 0.00431095 -0.00218594 0.529412 0.54902 0.54902 0
0.110537 0.0282968 -0.00445184 0.529412 0.54902 0.54902 0
0.156767 0.0407424 0.0212149 0.529412 0.54902 0.54902 0
0.0711472 0.0172289 -0.00749671 0.529412 0.54902 0.54902 0
0.135152 0.0269401 -0.0122109 0.529412 0.54902 0.54902 0
0.11227 0.0284344 0.00643403 0.529412 0.54902 0.54902 0
0.156429 0.035344 0.0223667 0.529412 0.54902 0.54902 0
0.118715 0.0244483 0.00312715 0.529412 0.54902 0.54902 0
0.145791 0.0353 0.0119343 0.529412 0.54902 0.54902 0
0.0119692 0.00654087 -0.000482606 0.529412 0.54902 0.54902 0
0.0082176 0.00591092 -0.0136639 0.529412 0.54902 0.54902 0
0.136563 0.0273183 0.0158803 0.529412 0.54902 0.54902 0
0.0341736 0.00454916 -0.0086614 0.529412 0.54902 0.54902 0
0.00844868 0.000902081 0.00973636 0.529412 0.54902 0.54902 0
0.109502 0.0221616 0.00468938 0.529412 0.54902 0.54902 0
0.0118472 0.006731 0.00644447 0.529412 0.54902 0.54902 0
0.00144729 0.00306624 -0.0120981 0.529412 0.54902 0.54902 0
0.021642 0.00455044 -0.00380886 0.529412 0.54902 0.54902 0
0.0738457 0.0186815 0.00197786 0.529412 0.54902 0.54902 0
0.113056 0.0269143 -0.00867889 0.529412 0.54902 0.54902 0
0.140471 0.0382525 0.01192 0.529412 0.54902 0.54902 0
-0.0117144 -0.000758326 0.000533666 0.529412 0.54902 0.54902 0
0.108502 0.0229685 0.00837299 0.529412 0.54902 0.54902 0
0.0943939 0.0179013 -0.0026448 0.529412 0.54902 0.54902 0
0.13089 0.0357907 -0.0049068 0.529412 0.54902 0.54902 0
0.0199669 -0.00164048 0.0059757 0.529412 0.54902 0.54902 0
0.128944 0.0318816 0.0150536 0.529412 0.54902 0.54902 0
0.12459 0.0305568 0.0123138 0.529412 0.54902 0.54902 0
0.047637 0.00536343 -0.00255521 0.529412 0.54902 0.54902 0
0.167499 0.0422889 0.0058311 0.529412 0.54902 0.54902 0
0.139198 0.0380168 0.014264 0.529412 0.54902 0.54902 0
0.0864446 0.018002 0.0086614 0.529412 0.54902 0.54902 0
0.0564162 0.00954669 0.008611 0.529412 0.54902 0.54902 0
0.133071 0.0263825 0.0024702 0.529412 0.54902 0.54902 0
0.131663 0.0359978 0.0138046 0.529412 0.54902 0.54902 0
0.129607 0.0354469 -0.00347489 0.529412 0.54902 0.54902 0
-0.0131176 0.006731 -0.00708573 0.529412 0.54902 0.54902 0
0.102893 0.0263351 0.00360398 0.529412 0.54902 0.54902 0
0.0223064 -0.00097164 0.0061283 0.529412 0.54902 0.54902 0
-0.0125434 0.00457003 0.00379912 0.529412 0.54902 0.54902 0
0.115335 0.0298576 -0.000253753 0.529412 0.54902 0.54902 0
0.137105 0.0330717 0.00428132 0.529412 0.54902 0.54902 0
-0.00739969 0.000480723 0.0141281 0.529412 0.54902 0.54902 0
0.0662699 0.016646 0.00212926 0.529412 0.54902 0.54902 0
0.0815638 0.0146378 0.00445925 0.529412 0.54902 0.54902 0
0.00204928 0.00560165 0.0158122 0.529412 0.54902 0.54902 0
0.130432 0.0356678 -0.0179803 0.529412 0.54902 0.54902 0
-0.0141574 -0.006731 -0.00273179 0.529412 0.54902 0.54902 0
0.0661746 0.0166418 -0.00169384 0.529412 0.54902 0.54902 0
0.104446 0.0206966 0.00399295 0.529412 0.54902 0.54902 0
0.0455887 0.00478556 0.00208009 0.529412 0.54902 0.54902 0
0.0133761 -0.00272175 -0.00985112 0.529412 0.54902 0.54902 0
0.151802 0.0314015 0.0199635 0.529412 0.54902 0.54902 0
0.169676 0.0426959 0.00597609 0.529412 0.54902 0.54902 0
0.140267 0.0283107 0.013794 0.529412 0.54902 0.54902 0
0.152096 0.0414727 0.0114178 0.529412 0.54902 0.54902 0
0.038462 0.0037294 -0.00785555 0.529412 0.54902 0.54902 0
0.0911968 0.0196048 -0.0086614 0.529412 0.54902 0.54902 0
0.0171609 0.00460319 -0.0022975 0.529412 0.54902 0.54902 0
0.0168573 0.00472311 0.00271064 0.529412 0.54902 0.54902 0
0.00397028 0.00357341 0.0124218 0.529412 0.54902 0.54902 0
0.131116 0.0358512 0.0013475 0.529412 0.54902 0.54902 0
-0.00943591 0.000580999 -0.0128581 0.529412 0.54902 0.54902 0
-0.0148243 -0.00204625 0.00587967 0.529412 0.54902 0.54902 0
0.134387 0.0367275 -0.00915619 0.529412 0.54902 0.54902 0
-0.00659467 0.00367419 -0.00981038 0.529412 0.54902 0.54902 0
0.136582 0.0356678 0.0242298 0.529412 0.54902 0.54902 0
0.135965 0.0271579 0.0166503 0.529412 0.54902 0.54902 0
-0.000306238 -0.00510144 -0.0116801 0.529412 0.54902 0.54902 0
0.0117861 0.00648972 0.0104201 0.529412 0.54902 0.54902 0
0.0585642 0.0083155 0.0030106 0.529412 0.54902 0.54902 0
0.158776 0.0380136 -0.0147552 0.529412 0.54902 0.54902 0
0.0846919 0.0212941 -0.00490876 0.529412 0.54902 0.54902 0
0.0854122 0.0162207 0.00767405 0.529412 0.54902 0.54902 0
0.00579862 -0.00211217 0.0101189 0.529412 0.54902 0.54902 0
0.145576 0.0397257 0.02479 0.529412 0.54902 0.54902 0
0.128838 0.0307418 -0.019451 0.529412 0.54902 0.54902 0
-0.00620672 -0.00471057 -0.0146881 0.529412 0.54902 0.54902 0
0.00128475 0.006731 -0.0131587 0.529412 0.54902 0.54902 0
0.0733484 0.0141537 0.00862876 0.529412 0.54902 0.54902 0
0.119224 0.0307557 0.00316857 0.529412 0.54902 0.54902 0
0.144504 0.0394383 -0.0142097 0.529412 0.54902 0.54902 0
0.0815087 0.0144051 0.00208009 0.529412 0.54902 0.54902 0
0.133114 0.036247 0.00534584 0.505882 0.501961 0.521569 0
0.143552 0.0391835 0.0185094 0.529412 0.54902 0.54902 0
0.124419 0.0302801 -0.0134843 0.529412 0.54902 0.54902 0
0.0455887 0.0111305 0.00162215 0.529412 0.54902 0.54902 0
0.0499461 0.0064914 -0.00653606 0.529412 0.54902 0.54902 0
0.0505176 0.00942436 0.0086614 0.529412 0.54902 0.54902 0
0.0848474 0.0152749 -0.00155777 0.529412 0.54902 0.54902 0
0.0615522 0.00932571 0.00477263 0.529412 0.54902 0.54902 0
0.124519 0.033581 0.00520414 0.529412 0.54902 0.54902 0
0.0050134 0.00245417 0.0151419 0.529412 0.54902 0.54902 0
-0.0127616 0.00653878 0.00208009 0.529412 0.54902 0.54902 0
0.151158 0.0412215 0.0234051 0.529412 0.54902 0.54902 0
0.141767 0.038705 0.0174664 0.529412 0.54902 0.54902 0
-0.0154918 -0.00560448 0.00379912 0.529412 0.54902 0.54902 0
0.0906696 0.0168558 0.00208009 0.529412 0.54902 0.54902 0
0.040771 0.00342228 0.00061088 0.529412 0.54902 0.54902 0
0.0529426 0.0131 -0.0016433 0.529412 0.54902 0.54902 0
0.124928 0.0341932 0.00311942 0.529412 0.54902 0.54902 0
0.0686676 0.0111495 0.00425706 0.529412 0.54902 0.54902 0
-0.0142776 -0.00115561 -0.00708383 0.529412 0.54902 0.54902 0
0.125048 0.0283278 -0.013719 0.529412 0.54902 0.54902 0
0.0967792 0.0184915 0.0020942 0.529412 0.54902 0.54902 0
0.134164 0.0365339 0.02196 0.529412 0.54902 0.54902 0
0.130316 0.0356368 0.0134435 0.529412 0.54902 0.54902 0
0.0329276 0.00775809 -0.00118537 0.529412 0.54902 0.54902 0
0.0169111 -0.00293865 -0.00381683 0.529412 0.54902 0.54902 0
0.0270844 -0.000212331 -0.0015225 0.529412 0.54902 0.54902 0
-0.00774708 -0.00279038 0.0097536 0.529412 0.54902 0.54902 0
0.0592991 0.00838159 -0.000291923 0.529412 0.54902 0.54902 0
0.136211 0.0272238 -0.019829 0.529412 0.54902 0.54902 0
0.065056 0.0159317 0.00548219 0.529412 0.54902 0.54902 0
0.0549271 0.0102649 -0.0086614 0.529412 0.54902 0.54902 0
0.129729 0.0354796 0.0106427 0.529412 0.54902 0.54902 0
0.123494 0.0329647 -0.00231471 0.529412 0.54902 0.54902 0
0.0864932 0.0221173 0.000991603 0.529412 0.54902 0.54902 0
0.117567 0.024552 0.00609804 0.529412 0.54902 0.54902 0
0.127856 0.024985 0.00347797 0.529412 0.54902 0.54902 0
0.110812 0.0283472 -0.00462418 0.529412 0.54902 0.54902 0
0.154437 0.0408068 -0.0215799 0.529412 0.54902 0.54902 0
0.047087 0.00518162 0.00195053 0.529412 0.54902 0.54902 0
0.0647235 0.0160452 0.00425706 0.529412 0.54902 0.54902 0
0.128944 0.0252767 0.000107613 0.529412 0.54902 0.54902 0
-0.0097536 -0.0012293 -0.00725208 0.529412 0.54902 0.54902 0
0.0619498 0.0155375 0.00113053 0.529412 0.54902 0.54902 0
0.139613 0.0375105 0.0107888 0.529412 0.54902 0.54902 0
0.0713007 0.0118113 0.00394683 0.529412 0.54902 0.54902 0
0.0558868 0.0128998 -0.00801121 0.529412 0.54902 0.54902 0
0.0996947 0.0256552 0.000991603 0.529412 0.54902 0.54902 0
0.127883 0.0349848 0.00107904 0.529412 0.54902 0.54902 0
0.132681 0.026278 0.00442581 0.529412 0.54902 0.54902 0
0.0587363 0.0141374 0.00609444 0.529412 0.54902 0.54902 0
0.0687421 0.0165944 0.00746293 0.529412 0.54902 0.54902 0
0.0208443 0.000882906 0.00880883 0.529412 0.54902 0.54902 0
0.101807 0.0222382 0.0086614 0.529412 0.54902 0.54902 0
0.0336608 0.00162211 -0.00269747 0.529412 0.54902 0.54902 0
0.126137 0.0298769 -0.0153357 0.529412 0.54902 0.54902 0
-0.0152393 -0.00111778 0.00469523 0.529412 0.54902 0.54902 0
0.125517 0.0322027 0.00838968 0.529412 0.54902 0.54902 0
-0.0104414 -0.00428956 -0.0120702 0.529412 0.54902 0.54902 0
0.143667 0.0292217 0.0227251 0.529412 0.54902 0.54902 0
0.0760663 0.0174291 0.00860281 0.529412 0.54902 0.54902 0
0.0448152 0.0108778 -0.00211758 0.529412 0.54902 0.54902 0
-0.00997791 -0.00657953 -0.00878143 0.529412 0.54902 0.54902 0
0.0200956 -0.00146194 0.00683471 0.529412 0.54902 0.54902 0
0.0319834 0.00742733 -0.00249105 0.529412 0.54902 0.54902 0
0.0915696 0.0173292 -0.00465479 0.529412 0.54902 0.54902 0
-0.000791459 -0.006731 -0.0138909 0.529412 0.54902 0.54902 0
0.125881 0.0316204 0.0118322 0.529412 0.54902 0.54902 0
0.092663 0.0235798 -0.00356131 0.529412 0.54902 0.54902 0
0.158333 0.0401119 0.0201778 0.529412 0.54902 0.54902 0
0.0437393 0.00439214 0.00357918 0.529412 0.54902 0.54902 0
-0.0135625 0.00636886 0.00811622 0.529412 0.54902 0.54902 0
0.0801338 0.0139883 -0.00118537 0.529412 0.54902 0.54902 0
0.0802872 0.0194603 0.00797922 0.529412 0.54902 0.54902 0
-0.00466385 -0.000478345 0.0152527 0.529412 0.54902 0.54902 0
0.115882 0.02368 0.00300591 0.529412 0.54902 0.54902 0
0.0156909 -0.00606241 -0.00273179 0.529412 0.54902 0.54902 0
0.103653 0.0267073 -0.00115981 0.529412 0.54902 0.54902 0
0.154165 0.0320346 -0.0201475 0.529412 0.54902 0.54902 0
0.116163 0.0287691 -0.00866113 0.529412 0.54902 0.54902 0
0.00921074 0.006731 0.0116042 0.529412 0.54902 0.54902 0
0.119443 0.029685 -0.00946126 0.529412 0.54902 0.54902 0
0.131573 0.0359735 0.0118396 0.529412 0.54902 0.54902 0
0.125388 0.0333588 -0.0141319 0.529412 0.54902 0.54902 0
0.117739 0.030503 0.000146974 0.529412 0.54902 0.54902 0
0.134485 0.0367539 0.0130011 0.529412 0.54902 0.54902 0
0.0121099 0.0061331 -0.0103144 0.529412 0.54902 0.54902 0
0.155068 0.0385655 -0.0215694 0.529412 0.54902 0.54902 0
0.0199898 -0.0020797 0.00227228 0.529412 0.54902 0.54902 0
0.0888051 0.0226975 0.00181683 0.529412 0.54902 0.54902 0
0.106925 0.0222963 -0.00816233 0.529412 0.54902 0.54902 0
0.0102992 0.000392093 -0.00553613 0.529412 0.54902 0.54902 0
0.0124347 0.00203684 0.00395336 0.529412 0.54902 0.54902 0
0.011868 0.00672429 -0.00520184 0.529412 0.54902 0.54902 0
0.0789309 0.0200807 -0.00125228 0.529412 0.54902 0.54902 0
0.122477 0.0276806 -0.0115832 0.529412 0.54902 0.54902 0
0.0629333 0.0130353 -0.0086614 0.529412 0.54902 0.54902 0
0.146986 0.0301111 0.0199748 0.529412 0.54902 0.54902 0
0.0911237 0.0233571 0.00105674 0.529412 0.54902 0.54902 0
0.0646678 0.00988355 -0.0016433 0.529412 0.54902 0.54902 0
0.0247827 0.0049645 -0.00664086 0.529412 0.54902 0.54902 0
-0.0158958 -0.0061461 0.000888102 0.529412 0.54902 0.54902 0
0.143902 0.0392772 -0.021921 0.529412 0.54902 0.54902 0
0.0127323 0.00275422 0.00978842 0.529412 0.54902 0.54902 0
0.145271 0.0396441 0.0173189 0.529412 0.54902 0.54902 0
0.131184 0.0346695 0.0188443 0.529412 0.54902 0.54902 0
0.00159134 0.000468495 -0.0158688 0.529412 0.54902 0.54902 0
0.138668 0.0278822 -0.0196085 0.529412 0.54902 0.54902 0
0.0184167 -0.00250035 -0.00225471 0.529412 0.54902 0.54902 0
-0.00979133 0.00477157 -0.00666643 0.529412 0.54902 0.54902 0
0.00228724 -0.006731 -0.0147826 0.529412 0.54902 0.54902 0
-0.0104161 0.00155698 -0.0120925 0.529412 0.54902 0.54902 0
0.0364129 0.00799908 0.00706458 0.529412 0.54902 0.54902 0
0.0910627 0.0229913 0.00497935 0.529412 0.54902 0.54902 0
0.0295694 0.0004201 0.000454464 0.529412 0.54902 0.54902 0
-0.0159222 -0.00585789 0.00111475 0.529412 0.54902 0.54902 0
0.0989047 0.025175 0.00450093 0.529412 0.54902 0.54902 0
0.138966 0.0379544 -0.0114248 0.529412 0.54902 0.54902 0
0.0534372 0.00910451 -0.00865944 0.529412 0.54902 0.54902 0
-0.000852499 -0.006731 -0.0132275 0.529412 0.54902 0.54902 0
-0.00898613 0.00195193 -0.0131587 0.529412 0.54902 0.54902 0
0.0222726 -0.0015319 0.000747269 0.529412 0.54902 0.54902 0
0.125941 0.0310262 0.0130143 0.529412 0.54902 0.54902 0
-0.00192547 -0.00170847 -0.0158356 0.529412 0.54902 0.54902 0
-0.00337234 0.006731 0.0146829 0.529412 0.54902 0.54902 0
0.00980884 0.006731 0.011301 0.529412 0.54902 0.54902 0
0.123018 0.025557 -0.00260374 0.529412 0.54902 0.54902 0
0.107381 0.027436 0.00457496 0.529412 0.54902 0.54902 0
0.08292 0.0158104 -0.00810186 0.529412 0.54902 0.54902 0
0.0168301 -0.000162052 0.00955157 0.529412 0.54902 0.54902 0
0.00260364 0.00264547 -0.0157466 0.529412 0.54902 0.54902 0
0.029702 0.00641324 0.00575069 0.529412 0.54902 0.54902 0
0.0885195 0.0166123 0.00514591 0.529412 0.54902 0.54902 0
0.135882 0.0272483 -0.0227876 0.529412 0.54902 0.54902 0
0.151928 0.0404904 0.00998589 0.529412 0.54902 0.54902 0
0.135562 0.0270501 -0.0153357 0.529412 0.54902 0.54902 0
0.0553618 0.00847016 0.00815306 0.529412 0.54902 0.54902 0
0.143743 0.0320346 0.0269441 0.529412 0.54902 0.54902 0
-0.0055926 -0.006731 0.0139846 0.529412 0.54902 0.54902 0
0.0146583 -0.00671199 -0.00445082 0.529412 0.54902 0.54902 0
0.108492 0.0280053 0.00117384 0.529412 0.54902 0.54902 0
0.0540126 0.00721468 -0.00422333 0.529412 0.54902 0.54902 0
0.143556 0.0344337 0.0269661 0.529412 0.54902 0.54902 0
0.0134219 0.006731 0.000828739 0.529412 0.54902 0.54902 0
0.00970051 0.00327685 0.008611 0.529412 0.54902 0.54902 0
-0.0157501 0.0027765 0.00259627 0.529412 0.54902 0.54902 0
0.0902166 0.0222554 0.00773872 0.529412 0.54902 0.54902 0
0.157245 0.0333312 -0.0212086 0.529412 0.54902 0.54902 0
0.137243 0.0320217 0.0239787 0.529412 0.54902 0.54902 0
0.100193 0.0197436 -0.0052674 0.529412 0.54902 0.54902 0
0.00861527 -0.00179532 0.00969948 0.529412 0.54902 0.54902 0
0.0961876 0.0186785 0.00521623 0.529412 0.54902 0.54902 0
0.080236 0.0145628 0.00620348 0.529412 0.54902 0.54902 0
0.000686851 -0.0061817 -0.0158793 0.529412 0.54902 0.54902 0
0.0523316 0.0101735 0.0086614 0.529412 0.54902 0.54902 0
0.141233 0.0285694 0.0117903 0.529412 0.54902 0.54902 0
0.162289 0.0342115 0.014684 0.529412 0.54902 0.54902 0
