ply
format ascii 1.0
comment Created by Open3D
element vertex 645
property float32 x
property float32 y
property float32 z
property float32 red
property float32 green
property float32 blue
property float32 volume
property uint8 segmentation
end_header
-0.0617676 0.0836601 0.00718395 0.735683 0.215906 0.330245 3.49388e-06 2
-0.0572013 0.0897811 0.00406645 0.735683 0.215906 0.330245 1.50379e-05 2
-0.055096 0.0888925 0.00242028 0.735683 0.215906 0.330245 7.17528e-06 2
-0.0574821 0.0943277 0.00667338 0.735683 0.215906 0.330245 4.94386e-06 2
-0.0564256 0.0932174 0.00375722 0.735683 0.215906 0.330245 1.49176e-05 2
-0.0516298 0.0972001 0.0069051 0.735683 0.215906 0.330245 2.13076e-06 2
-0.0603864 0.0745677 0.00504589 0.735683 0.215906 0.330245 4.057e-06 2
-0.0620564 0.0816517 0.00463386 0.735683 0.215906 0.330245 7.62158e-06 2
-0.0608485 0.0858897 0.00473855 0.735683 0.215906 0.330245 6.06701e-06 2
-0.0510124 0.100025 0.00802979 0.735683 0.215906 0.330245 3.87499e-06 2
-0.0552242 0.0968457 0.00758139 0.735683 0.215906 0.330245 4.78497e-06 2
-0.0620273 0.0776383 0.0128096 0.735683 0.215906 0.330245 1.68618e-05 2
-0.0626051 0.0769846 0.00549004 0.735683 0.215906 0.330245 4.94697e-06 2
-0.0634825 0.0760584 0.0032086 0.735683 0.215906 0.330245 6.77071e-06 2
-0.0604304 0.0745974 0.00802658 0.735683 0.215906 0.330245 1.38757e-05 2
-0.0468467 0.00893638 -0.00203787 0.978422 0.557937 0.034931 1.76077e-06 3
-0.0353695 -0.00858047 -0.0007965 0.978422 0.557937 0.034931 1.92898e-06 3
-0.0295746 -0.00547377 -0.00302287 0.978422 0.557937 0.034931 4.74104e-07 3
-0.0193818 0.00178393 0.00414735 0.978422 0.557937 0.034931 1.81427e-06 3
-0.0417899 -0.00471727 0.00783916 0.978422 0.557937 0.034931 2.31589e-06 3
-0.027886 -0.000751942 0.00720116 0.978422 0.557937 0.034931 1.26135e-07 3
-0.0427237 -0.00755811 0.00743232 0.978422 0.557937 0.034931 1.25208e-06 3
-0.0433054 -0.00561059 0.00197015 0.978422 0.557937 0.034931 8.62975e-06 3
-0.0400334 -0.00704131 0.00384292 0.978422 0.557937 0.034931 4.99209e-06 3
-0.0182905 -0.00323401 -0.0005189 0.978422 0.557937 0.034931 8.28162e-06 3
-0.0361514 -0.0126714 0.000263035 0.978422 0.557937 0.034931 4.76032e-06 3
-0.0373246 -0.00916092 -0.000806847 0.978422 0.557937 0.034931 1.05694e-05 3
-0.0197813 0.000120313 0.00806264 0.978422 0.557937 0.034931 6.82301e-07 3
-0.0199438 -0.00475142 -0.000971005 0.978422 0.557937 0.034931 6.94038e-06 3
-0.0398184 0.00343671 -5.59819e-05 0.978422 0.557937 0.034931 1.6865e-05 3
-0.0338914 -0.000331895 0.00444446 0.978422 0.557937 0.034931 9.57032e-06 3
-0.0367246 -0.00950266 -0.00324532 0.978422 0.557937 0.034931 2.01942e-06 3
-0.0215026 -0.000333942 0.00791494 0.978422 0.557937 0.034931 3.21669e-07 3
-0.0192619 -0.00179043 0.0067994 0.978422 0.557937 0.034931 8.58663e-07 3
-0.0256339 -0.00792746 0.00158169 0.978422 0.557937 0.034931 7.81109e-06 3
-0.0394017 -0.00455919 0.00791174 0.978422 0.557937 0.034931 2.31589e-06 3
-0.0221701 0.00274313 -0.000374327 0.978422 0.557937 0.034931 1.48032e-05 3
-0.033449 -0.00910554 0.00122098 0.978422 0.557937 0.034931 3.80609e-06 3
-0.0463044 -0.00742906 -0.000703701 0.978422 0.557937 0.034931 8.25835e-06 3
-0.048851 0.00259383 -0.000442683 0.978422 0.557937 0.034931 7.73109e-06 3
-0.0211103 0.00110328 0.00208959 0.978422 0.557937 0.034931 1.99193e-06 3
-0.0333744 -0.0103734 0.00192995 0.978422 0.557937 0.034931 3.52603e-06 3
-0.0437014 -0.00278043 -4.86631e-05 0.978422 0.557937 0.034931 8.93371e-06 3
-0.0398511 -0.00853558 0.00130771 0.978422 0.557937 0.034931 9.08091e-06 3
-0.0470564 0.000193866 0.00698903 0.978422 0.557937 0.034931 3.30396e-06 3
-0.0476508 0.00172806 0.0075103 0.978422 0.557937 0.034931 3.85078e-06 3
-0.0452209 -0.00230505 0.00719494 0.978422 0.557937 0.034931 2.90579e-06 3
-0.0463039 -0.00518638 0.00415454 0.978422 0.557937 0.034931 6.28692e-06 3
-0.0405446 -0.00768751 0.00664264 0.978422 0.557937 0.034931 1.88776e-06 3
-0.0323227 -0.00237358 0.00706808 0.978422 0.557937 0.034931 4.04313e-06 3
-0.0384705 -0.0069752 0.00756127 0.978422 0.557937 0.034931 8.9248e-07 3
-0.0390995 -0.00420047 0.00424976 0.978422 0.557937 0.034931 9.23354e-06 3
-0.0384167 -0.00476763 0.00708577 0.978422 0.557937 0.034931 3.61485e-06 3
-0.0413729 0.0073751 0.000527864 0.978422 0.557937 0.034931 9.90361e-06 3
-0.0271238 -0.00458899 0.0061946 0.978422 0.557937 0.034931 4.7671e-07 3
-0.0285137 0.00107531 0.00681678 0.978422 0.557937 0.034931 3.70862e-07 3
-0.0208971 0.0016688 0.0074664 0.978422 0.557937 0.034931 2.95786e-07 3
-0.0285655 -0.00429909 0.00758987 0.978422 0.557937 0.034931 1.282e-06 3
-0.0345841 -0.00720074 0.00141817 0.978422 0.557937 0.034931 6.60874e-06 3
-0.0288813 -0.00480502 0.00150843 0.978422 0.557937 0.034931 7.44437e-06 3
-0.0245374 0.00161877 0.00747235 0.978422 0.557937 0.034931 1.60331e-07 3
-0.0232444 0.00290277 0.00691214 0.978422 0.557937 0.034931 3.68044e-07 3
-0.0215404 0.00244075 0.00753438 0.978422 0.557937 0.034931 3.56124e-07 3
-0.0325694 -0.00556433 0.0015075 0.978422 0.557937 0.034931 7.50807e-06 3
-0.0278904 -0.00880999 -0.000884242 0.978422 0.557937 0.034931 1.50193e-05 3
-0.0253479 0.00213182 0.00686487 0.978422 0.557937 0.034931 5.62646e-07 3
-0.023384 0.000643739 0.00714268 0.978422 0.557937 0.034931 1.15355e-06 3
-0.027654 -0.00599884 -0.00100539 0.978422 0.557937 0.034931 9.98689e-06 3
-0.026369 -0.00564377 0.00661746 0.978422 0.557937 0.034931 3.80648e-07 3
-0.0397461 0.00853554 0.00366986 0.978422 0.557937 0.034931 1.29168e-05 3
-0.0293203 -0.0032443 0.00716701 0.978422 0.557937 0.034931 4.92221e-07 3
-0.0321134 0.000101104 0.00721609 0.978422 0.557937 0.034931 2.97723e-06 3
-0.0295081 7.31207e-05 0.00750254 0.978422 0.557937 0.034931 5.04942e-07 3
-0.0215307 0.000591708 0.0071072 0.978422 0.557937 0.034931 6.29544e-07 3
-0.0199905 0.00230516 0.00687691 0.978422 0.557937 0.034931 5.8885e-07 3
-0.0271544 -0.00463927 0.00703941 0.978422 0.557937 0.034931 6.19782e-07 3
-0.0279092 -0.00358449 0.00661655 0.978422 0.557937 0.034931 6.25016e-07 3
-0.0201801 -0.00756257 -0.000849852 0.978422 0.557937 0.034931 1.09062e-05 3
-0.0270575 -0.00162423 0.00668494 0.978422 0.557937 0.034931 3.12508e-07 3
-0.0265727 -0.000881475 0.00732326 0.978422 0.557937 0.034931 6.43059e-07 3
-0.0262721 -0.00262873 0.006263 0.978422 0.557937 0.034931 2.38355e-07 3
-0.0204149 -0.00095678 0.00770344 0.978422 0.557937 0.034931 5.19381e-07 3
-0.0308019 -0.00427994 -0.000509048 0.978422 0.557937 0.034931 1.42756e-05 3
-0.0200251 0.00255588 0.00421533 0.978422 0.557937 0.034931 9.78461e-07 3
-0.0189387 0.00154972 0.00730432 0.978422 0.557937 0.034931 2.54301e-07 3
-0.020886 -0.003057 0.00629595 0.978422 0.557937 0.034931 1.26843e-06 3
-0.0220671 -0.0012977 0.00639224 0.978422 0.557937 0.034931 7.93145e-07 3
-0.0407075 -0.0113587 0.00165827 0.978422 0.557937 0.034931 7.84032e-06 3
-0.0331971 -0.00613852 0.00749054 0.978422 0.557937 0.034931 1.33278e-06 3
-0.0355475 -0.00313615 0.0042527 0.978422 0.557937 0.034931 1.86173e-05 3
-0.0331695 -0.00522259 0.00394597 0.978422 0.557937 0.034931 4.67241e-06 3
-0.0336269 -0.00366122 0.00627018 0.978422 0.557937 0.034931 7.42687e-07 3
-0.0343374 -0.00400999 0.00697874 0.978422 0.557937 0.034931 3.23887e-06 3
-0.0461946 0.00112798 0.00415304 0.978422 0.557937 0.034931 1.37616e-05 3
-0.0467 -0.00235623 0.00213572 0.978422 0.557937 0.034931 7.3649e-06 3
-0.045211 -0.0064877 0.00681699 0.978422 0.557937 0.034931 2.27563e-06 3
-0.038181 -0.011984 -0.000456281 0.978422 0.557937 0.034931 8.90365e-06 3
-0.0431231 -0.00710487 -0.000565062 0.978422 0.557937 0.034931 1.72254e-05 3
-0.0464688 -0.00459166 0.00763416 0.978422 0.557937 0.034931 1.60477e-06 3
-0.0460276 0.00651153 -0.00232429 0.978422 0.557937 0.034931 4.69068e-06 3
-0.0476072 0.00595614 4.01872e-05 0.978422 0.557937 0.034931 1.14658e-05 3
-0.0416165 0.00125916 -0.00039582 0.978422 0.557937 0.034931 1.07073e-05 3
-0.0413606 -0.00179514 0.00217457 0.978422 0.557937 0.034931 1.31086e-05 3
-0.0447505 0.00464216 0.0025525 0.978422 0.557937 0.034931 1.71594e-05 3
-0.043171 0.00519755 0.000188025 0.978422 0.557937 0.034931 6.1236e-06 3
-0.0485354 0.000142683 0.00192981 0.978422 0.557937 0.034931 4.86463e-06 3
-0.0443591 -0.00137094 0.00435896 0.978422 0.557937 0.034931 1.34785e-05 3
-0.0439278 -0.0034545 0.00777398 0.978422 0.557937 0.034931 2.98801e-06 3
-0.0192859 -0.00142797 0.00192531 0.978422 0.557937 0.034931 7.21345e-06 3
-0.0246329 0.00136662 0.00416441 0.978422 0.557937 0.034931 1.8651e-06 3
-0.0256927 0.00300646 0.00170049 0.978422 0.557937 0.034931 4.1933e-06 3
-0.023423 0.00208654 0.00419691 0.978422 0.557937 0.034931 1.1241e-06 3
-0.0244828 0.00372638 0.00173299 0.978422 0.557937 0.034931 7.84266e-06 3
-0.0297458 -0.00113395 0.00212118 0.978422 0.557937 0.034931 1.2924e-05 3
-0.0269734 0.00030124 0.00420706 0.978422 0.557937 0.034931 1.54598e-06 3
-0.020467 0.000331332 0.00202161 0.978422 0.557937 0.034931 2.2305e-06 3
-0.0222343 -0.00464239 0.001424 0.978422 0.557937 0.034931 6.80734e-06 3
-0.0266247 -0.00392249 0.00397436 0.978422 0.557937 0.034931 4.85969e-06 3
-0.0253975 -0.00511631 0.00146053 0.978422 0.557937 0.034931 5.4733e-06 3
-0.0196586 -0.00359491 -0.0029506 0.978422 0.557937 0.034931 5.77809e-07 3
-0.0213244 -0.00284718 0.00392515 0.978422 0.557937 0.034931 7.43524e-06 3
-0.025773 -0.00196223 0.00404276 0.978422 0.557937 0.034931 2.42984e-06 3
-0.0225056 -0.00108788 0.00402145 0.978422 0.557937 0.034931 4.64924e-06 3
-0.0339245 0.00435191 0.00762378 0.978422 0.557937 0.034931 4.13474e-06 3
-0.0296765 0.00867012 0.00692507 0.978422 0.557937 0.034931 2.21773e-05 3
-0.0206338 0.00307711 0.00694489 0.978422 0.557937 0.034931 3.17574e-07 3
-0.0238438 0.0053456 0.0160316 0.978422 0.557937 0.034931 1.6797e-05 3
-0.0249777 0.00512061 0.00951453 0.978422 0.557937 0.034931 3.3468e-06 3
-0.028029 0.00181806 0.00745509 0.978422 0.557937 0.034931 3.28154e-07 3
-0.00588735 0.00592071 0.00990206 0.978422 0.557937 0.034931 1.22469e-05 3
-0.0271206 0.00237329 0.00695312 0.978422 0.557937 0.034931 4.88346e-07 3
-0.0289039 0.0051102 0.0133421 0.978422 0.557937 0.034931 5.00204e-06 3
-0.0151265 0.00560505 0.0124102 0.978422 0.557937 0.034931 1.25588e-05 3
-0.0123798 0.00797064 0.00656409 0.978422 0.557937 0.034931 9.96568e-06 3
-0.0258526 0.006521 0.0187742 0.978422 0.557937 0.034931 4.46155e-06 3
-0.0365209 0.00556405 0.0105825 0.978422 0.557937 0.034931 2.27266e-05 3
-0.0312977 0.00671652 0.00997921 0.978422 0.557937 0.034931 4.81407e-06 3
-0.0303893 0.00727174 0.00947724 0.978422 0.557937 0.034931 6.38001e-06 3
-0.0242535 0.00227219 0.00749515 0.978422 0.557937 0.034931 3.46268e-07 3
-0.0342055 0.00675364 0.013717 0.978422 0.557937 0.034931 1.81944e-05 3
-0.0198411 0.00424678 0.0103138 0.978422 0.557937 0.034931 2.56727e-06 3
-0.00903616 0.00219943 0.00692341 0.978422 0.557937 0.034931 5.14755e-06 3
-0.0194914 0.00838771 0.0137252 0.978422 0.557937 0.034931 2.94921e-05 3
-0.0152327 0.00553656 0.00847363 0.978422 0.557937 0.034931 4.00698e-06 3
-0.0260016 0.00689304 0.00641171 0.978422 0.557937 0.034931 1.02845e-05 3
-0.0180142 0.0012761 0.0161131 0.978422 0.557937 0.034931 1.80693e-05 3
-0.034184 0.00914623 0.015786 0.978422 0.557937 0.034931 7.89522e-06 3
-0.0154271 0.00200938 0.00803103 0.978422 0.557937 0.034931 1.38466e-06 3
-0.0259868 0.00449002 0.0100975 0.978422 0.557937 0.034931 3.17401e-06 3
-0.0169005 0.00608831 0.0117765 0.978422 0.557937 0.034931 7.09285e-06 3
-0.0202044 0.00766499 0.0103974 0.978422 0.557937 0.034931 1.62467e-06 3
-0.028632 0.00430886 0.0100489 0.978422 0.557937 0.034931 2.19227e-06 3
-0.0277236 0.00486408 0.00954689 0.978422 0.557937 0.034931 3.26246e-06 3
-0.0134587 0.0050533 0.00910741 0.978422 0.557937 0.034931 4.63424e-06 3
-0.019531 0.007087 0.00533109 0.978422 0.557937 0.034931 6.44483e-06 3
-0.0224321 0.00654618 0.0122625 0.978422 0.557937 0.034931 5.0109e-06 3
-0.00924649 0.00594016 0.00854717 0.978422 0.557937 0.034931 6.77629e-06 3
-0.0233387 0.00590982 0.012852 0.978422 0.557937 0.034931 9.07419e-06 3
-0.022135 0.00880107 0.00788406 0.978422 0.557937 0.034931 4.97694e-05 3
-0.00818073 0.00827218 0.00660809 0.978422 0.557937 0.034931 1.63574e-05 3
-0.0172012 0.00249264 0.00739725 0.978422 0.557937 0.034931 1.20756e-06 3
-0.0315697 0.00751786 0.0132724 0.978422 0.557937 0.034931 1.31069e-05 3
-0.0360616 0.00654676 0.00525152 0.978422 0.557937 0.034931 1.927e-05 3
-0.0330689 0.0044012 -9.11076e-05 0.978422 0.557937 0.034931 3.64008e-05 3
-0.0365182 0.00522333 -0.00276686 0.978422 0.557937 0.034931 1.41575e-05 3
-0.0293914 0.00143228 -0.000328568 0.978422 0.557937 0.034931 3.35012e-05 3
-0.0158408 -0.00193138 0.00388166 0.978422 0.557937 0.034931 8.62343e-06 3
-0.0235036 -0.00258804 0.00656302 0.978422 0.557937 0.034931 5.58387e-07 3
-0.0248579 -0.00170235 0.00627717 0.978422 0.557937 0.034931 5.89301e-07 3
-0.021085 0.00419572 0.00175141 0.978422 0.557937 0.034931 6.10854e-06 3
-0.0363691 0.00261457 0.00261977 0.978422 0.557937 0.034931 2.92312e-05 3
-0.0233405 -0.00441246 0.00726303 0.978422 0.557937 0.034931 4.56291e-07 3
-0.0240616 -0.000839002 0.0066477 0.978422 0.557937 0.034931 4.0567e-07 3
-0.0159926 -0.0034267 0.00740314 0.978422 0.557937 0.034931 2.96956e-06 3
-0.0242239 -0.00523497 0.00737724 0.978422 0.557937 0.034931 2.36713e-07 3
-0.0266191 0.00286746 0.00175731 0.978422 0.557937 0.034931 3.32397e-06 3
-0.0161106 0.00767933 5.66894e-05 0.978422 0.557937 0.034931 2.59039e-05 3
-0.0297159 0.00669375 0.00441092 0.978422 0.557937 0.034931 7.83803e-06 3
-0.0327614 0.00833338 0.00254064 0.978422 0.557937 0.034931 1.66793e-05 3
-0.0240335 -0.00176465 0.00745544 0.978422 0.557937 0.034931 1.12085e-06 3
-0.0251443 -0.0033317 0.00790691 0.978422 0.557937 0.034931 5.97981e-07 3
-0.025187 -0.000789622 0.0077851 0.978422 0.557937 0.034931 7.97076e-07 3
-0.0183548 0.00472401 -0.000763332 0.978422 0.557937 0.034931 2.26833e-05 3
-0.0159001 0.00899256 0.00403409 0.978422 0.557937 0.034931 2.81058e-05 3
-0.0189992 -0.00313311 0.00781758 0.978422 0.557937 0.034931 1.25056e-06 3
-0.0162553 -0.00208402 0.00638496 0.978422 0.557937 0.034931 2.03897e-06 3
-0.027251 0.00419675 0.00386506 0.978422 0.557937 0.034931 2.02987e-06 3
-0.0243588 -0.00103584 0.00405693 0.978422 0.557937 0.034931 6.00746e-06 3
-0.0233901 -0.0137432 0.00592037 0.978422 0.557937 0.034931 1.56938e-05 3
-0.0189597 -0.0107764 0.0061265 0.978422 0.557937 0.034931 3.79352e-05 3
-0.0217853 0.000592126 0.0136839 0.978422 0.557937 0.034931 3.84703e-06 3
-0.0255659 0.0039923 0.0132869 0.978422 0.557937 0.034931 7.7371e-06 3
-0.0292736 -0.00513164 0.0102652 0.978422 0.557937 0.034931 5.01971e-06 3
-0.0245093 0.000693119 0.00828008 0.978422 0.557937 0.034931 6.19012e-07 3
-0.029961 -0.00797734 0.0121124 0.978422 0.557937 0.034931 1.08043e-05 3
-0.0355281 -0.0070358 0.0163267 0.978422 0.557937 0.034931 1.3305e-05 3
-0.0172337 -0.00969521 0.0124913 0.978422 0.557937 0.034931 2.38213e-05 3
-0.0274006 -0.0076832 0.0117623 0.978422 0.557937 0.034931 1.21421e-05 3
-0.0172082 -0.0042501 0.0164039 0.978422 0.557937 0.034931 1.157e-05 3
-0.0281255 -0.00280891 0.00830979 0.978422 0.557937 0.034931 4.28665e-07 3
-0.031834 -0.00542578 0.0106153 0.978422 0.557937 0.034931 4.55238e-06 3
-0.0361221 -0.00217002 0.0110868 0.978422 0.557937 0.034931 1.34464e-05 3
-0.0288336 -0.00364146 0.0109852 0.978422 0.557937 0.034931 3.94041e-06 3
-0.0210048 -0.00349419 0.0116696 0.978422 0.557937 0.034931 2.25909e-06 3
-0.014529 -0.0016469 0.00818264 0.978422 0.557937 0.034931 3.96569e-06 3
-0.0203102 -0.00175134 0.0116233 0.978422 0.557937 0.034931 4.09652e-06 3
-0.021041 -0.00336845 0.00899423 0.978422 0.557937 0.034931 5.65024e-07 3
-0.0257612 -0.0025952 0.0136597 0.978422 0.557937 0.034931 3.6923e-06 3
-0.0130638 -0.00162702 0.0106752 0.978422 0.557937 0.034931 1.15059e-05 3
-0.024121 -0.000862414 0.0138592 0.978422 0.557937 0.034931 5.28192e-06 3
-0.0259728 -0.00245941 0.00842313 0.978422 0.557937 0.034931 6.3393e-07 3
-0.0414878 -0.00696694 0.0137349 0.978422 0.557937 0.034931 4.59496e-06 3
-0.0349344 -0.00985342 0.0156457 0.978422 0.557937 0.034931 5.76615e-06 3
-0.0199769 -0.00734125 0.0156754 0.978422 0.557937 0.034931 1.21595e-05 3
-0.0212845 -0.00639526 0.0130534 0.978422 0.557937 0.034931 5.86377e-06 3
-0.0238046 0.000848816 0.0114922 0.978422 0.557937 0.034931 2.55663e-06 3
-0.0316795 -0.0101588 0.0143991 0.978422 0.557937 0.034931 2.39198e-05 3
-0.0341462 -0.00478966 0.013583 0.978422 0.557937 0.034931 7.84494e-06 3
-0.0360562 -0.00362034 0.0137478 0.978422 0.557937 0.034931 1.23088e-06 3
-0.0212529 0.0030462 0.0140829 0.978422 0.557937 0.034931 3.88865e-06 3
-0.0349022 -0.00319509 0.0160103 0.978422 0.557937 0.034931 7.28215e-06 3
-0.0213317 -0.00021626 0.0112709 0.978422 0.557937 0.034931 2.04826e-06 3
-0.0253107 0.000238363 0.0115134 0.978422 0.557937 0.034931 3.51714e-06 3
-0.0175233 -0.0086841 0.009073 0.978422 0.557937 0.034931 8.99701e-06 3
-0.0266808 -0.00329196 0.0110985 0.978422 0.557937 0.034931 6.79245e-06 3
-0.0201523 -0.00229946 0.00872162 0.978422 0.557937 0.034931 7.64986e-07 3
-0.0270935 0.000989252 0.0112391 0.978422 0.557937 0.034931 1.65055e-06 3
-0.0198879 -0.0042021 0.00809019 0.978422 0.557937 0.034931 9.23672e-07 3
-0.0195186 -0.00122237 0.00908082 0.978422 0.557937 0.034931 7.3604e-07 3
-0.0256985 -0.00963397 0.00630116 0.978422 0.557937 0.034931 1.45628e-05 3
-0.0224707 -0.00745354 0.00154516 0.978422 0.557937 0.034931 9.71494e-06 3
-0.020869 0.000743151 0.00827414 0.978422 0.557937 0.034931 7.16843e-07 3
-0.0178213 -0.00156125 0.0137355 0.978422 0.557937 0.034931 1.05032e-05 3
-0.0262148 -0.00178682 0.0160727 0.978422 0.557937 0.034931 1.08267e-05 3
-0.023762 -0.00744635 0.0094248 0.978422 0.557937 0.034931 1.23533e-06 3
-0.0226498 -0.00380769 0.011087 0.978422 0.557937 0.034931 2.25909e-06 3
-0.0227401 -0.00331611 0.00814682 0.978422 0.557937 0.034931 6.26272e-07 3
-0.0236235 -0.00413862 0.00826103 0.978422 0.557937 0.034931 3.24894e-07 3
-0.0277983 0.000833554 0.00802699 0.978422 0.557937 0.034931 3.94262e-07 3
-0.0226149 -0.000251961 0.0138379 0.978422 0.557937 0.034931 1.46494e-06 3
-0.0251583 -0.00673438 0.014792 0.978422 0.557937 0.034931 1.888e-05 3
-0.0248786 -0.00383332 0.0134082 0.978422 0.557937 0.034931 6.74772e-06 3
-0.0230282 -0.00752363 0.0177053 0.978422 0.557937 0.034931 7.47125e-06 3
-0.0209568 0.00189439 0.0164139 0.978422 0.557937 0.034931 7.93647e-06 3
-0.028283 9.07996e-05 0.00738867 0.978422 0.557937 0.034931 3.05005e-07 3
-0.0299289 -0.00183506 0.0111099 0.978422 0.557937 0.034931 1.36173e-06 3
-0.0292774 -0.000911389 0.00807443 0.978422 0.557937 0.034931 4.43511e-07 3
-0.0288803 -0.00175413 0.00788692 0.978422 0.557937 0.034931 1.64585e-07 3
-0.0262428 -0.000661876 0.00863859 0.978422 0.557937 0.034931 5.05596e-07 3
-0.0274012 -9.18668e-06 0.00783948 0.978422 0.557937 0.034931 2.59553e-07 3
-0.0203636 -0.00687016 0.0099872 0.978422 0.557937 0.034931 2.77176e-06 3
-0.0229295 -0.00670875 0.0124707 0.978422 0.557937 0.034931 5.86377e-06 3
-0.0254144 -0.00153416 0.00812237 0.978422 0.557937 0.034931 4.76924e-07 3
-0.0214458 -0.00455643 0.00702281 0.978422 0.557937 0.034931 1.33534e-06 3
-0.0207477 0.00361042 0.0109033 0.978422 0.557937 0.034931 2.85387e-06 3
-0.0233559 -0.000281911 0.00795042 0.978422 0.557937 0.034931 8.11028e-07 3
-0.0221206 -0.00715776 0.00477316 0.978422 0.557937 0.034931 2.94371e-06 3
-0.0235534 -0.00922516 0.00706095 0.978422 0.557937 0.034931 7.33535e-06 3
-0.0218 -0.00896246 0.0070407 0.978422 0.557937 0.034931 1.18403e-05 3
-0.0275747 0.0051677 0.0160294 0.978422 0.557937 0.034931 9.00371e-06 3
-0.0275962 0.00277511 0.0139604 0.978422 0.557937 0.034931 3.28739e-06 3
-0.0282087 0.00221568 0.0139964 0.978422 0.557937 0.034931 2.96021e-06 3
-0.0298489 0.000482896 0.0137969 0.978422 0.557937 0.034931 2.57664e-06 3
-0.0285197 0.000540394 0.0164843 0.978422 0.557937 0.034931 1.62421e-05 3
-0.0381924 -0.0079758 0.0165232 0.978422 0.557937 0.034931 5.78632e-06 3
-0.0390997 -0.00680886 0.0138075 0.978422 0.557937 0.034931 4.59496e-06 3
-0.0355752 -0.00405208 0.00779727 0.978422 0.557937 0.034931 4.28435e-06 3
-0.038506 -0.00962647 0.0131265 0.978422 0.557937 0.034931 7.70392e-06 3
-0.0319663 -0.0114048 0.0170785 0.978422 0.557937 0.034931 9.90165e-06 3
-0.0582387 -0.00945525 0.00796946 0.978422 0.557937 0.034931 1.19937e-06 3
-0.0386187 -0.0101354 0.00721957 0.978422 0.557937 0.034931 2.4537e-06 3
-0.0338562 -0.0114865 0.00390195 0.978422 0.557937 0.034931 6.99835e-06 3
-0.0566358 -0.0102543 0.00655835 0.978422 0.557937 0.034931 4.87066e-07 3
-0.0618484 -0.0133087 0.00798425 0.978422 0.557937 0.034931 5.89475e-06 3
-0.0594846 -0.00966325 0.00738721 0.978422 0.557937 0.034931 2.40594e-06 3
-0.0559743 -0.00953637 0.00800815 0.978422 0.557937 0.034931 9.29198e-07 3
-0.0540324 -0.0121436 0.00983319 0.978422 0.557937 0.034931 3.48476e-06 3
-0.0303963 -0.0115705 7.8289e-05 0.978422 0.557937 0.034931 5.78419e-06 3
-0.0405945 -0.0127238 0.00744074 0.978422 0.557937 0.034931 9.26479e-06 3
-0.0429532 -0.0104312 0.00842935 0.978422 0.557937 0.034931 3.74035e-06 3
-0.0311446 -0.0108534 0.0087887 0.978422 0.557937 0.034931 1.72999e-05 3
-0.0283756 -0.012338 0.00607478 0.978422 0.557937 0.034931 3.44487e-05 3
-0.0587527 -0.0101305 0.00650385 0.978422 0.557937 0.034931 6.49422e-07 3
-0.0571788 -0.0100742 0.00678091 0.978422 0.557937 0.034931 3.24711e-07 3
-0.0464908 -0.0140688 0.000385184 0.978422 0.557937 0.034931 9.08945e-06 3
-0.0442269 -0.0126128 -0.000561838 0.978422 0.557937 0.034931 8.77986e-06 3
-0.0304709 -0.0103027 -0.000630681 0.978422 0.557937 0.034931 5.94272e-06 3
-0.0459808 -0.0145661 -0.00200726 0.978422 0.557937 0.034931 5.24528e-07 3
-0.0599971 -0.0117897 0.00605858 0.978422 0.557937 0.034931 1.62887e-06 3
-0.0579265 -0.0119386 0.00428226 0.978422 0.557937 0.034931 3.18244e-06 3
-0.0579828 -0.0068191 0.00831147 0.978422 0.557937 0.034931 1.25599e-07 3
-0.0581331 -0.00710375 0.00766488 0.978422 0.557937 0.034931 2.44025e-07 3
-0.055068 -0.0101317 0.00694039 0.978422 0.557937 0.034931 6.49422e-07 3
-0.0343218 -0.00958943 0.00649372 0.978422 0.557937 0.034931 3.67779e-06 3
-0.0494138 -0.0123112 0.00200875 0.978422 0.557937 0.034931 1.05576e-05 3
-0.059379 -0.00731174 0.00708263 0.978422 0.557937 0.034931 4.89515e-07 3
-0.0549315 -0.0118965 0.0102951 0.978422 0.557937 0.034931 5.78082e-06 3
-0.0605123 -0.0114708 0.00370522 0.978422 0.557937 0.034931 4.17149e-06 3
-0.04321 -0.014862 0.0148875 0.978422 0.557937 0.034931 9.91225e-06 3
-0.063207 -0.0120587 0.0020671 0.978422 0.557937 0.034931 7.7154e-06 3
-0.0501679 -0.0129394 0.00965651 0.978422 0.557937 0.034931 4.41909e-06 3
-0.0586471 -0.00777895 0.00619927 0.978422 0.557937 0.034931 1.35723e-07 3
-0.0480939 -0.0125991 0.0104458 0.978422 0.557937 0.034931 1.14902e-05 3
-0.0508338 -0.0171286 0.00813924 0.978422 0.557937 0.034931 5.71593e-06 3
-0.0391729 -0.0125998 0.00390817 0.978422 0.557937 0.034931 8.12354e-06 3
-0.0308782 -0.0126837 0.00205029 0.978422 0.557937 0.034931 1.13201e-05 3
-0.0259071 -0.00785515 0.00866502 0.978422 0.557937 0.034931 1.98649e-06 3
-0.0451174 -0.0128807 0.0133467 0.978422 0.557937 0.034931 1.99562e-05 3
-0.0328631 -0.0130349 0.0110754 0.978422 0.557937 0.034931 2.74925e-05 3
-0.0404819 -0.0122149 0.0133476 0.978422 0.557937 0.034931 1.23374e-05 3
-0.0409397 -0.0149007 0.0049916 0.978422 0.557937 0.034931 1.12856e-05 3
-0.0387982 -0.00797212 0.0074185 0.978422 0.557937 0.034931 4.26203e-07 3
-0.0376337 -0.0103438 0.0063936 0.978422 0.557937 0.034931 4.74086e-06 3
-0.0462213 -0.0108505 0.00760377 0.978422 0.557937 0.034931 7.15792e-06 3
-0.0555743 -0.0103494 0.00653312 0.978422 0.557937 0.034931 4.87066e-07 3
-0.0513738 -0.0149009 0.00577384 0.978422 0.557937 0.034931 2.30744e-05 3
-0.0476611 -0.0133581 0.00531229 0.978422 0.557937 0.034931 1.71364e-05 3
-0.0486339 -0.0103713 0.00808041 0.978422 0.557937 0.034931 3.18169e-06 3
-0.0562307 -0.014201 0.00275484 0.978422 0.557937 0.034931 1.54623e-05 3
-0.0543909 -0.0127632 0.00470342 0.978422 0.557937 0.034931 2.62604e-06 3
-0.0597378 -0.00663849 0.00685875 0.978422 0.557937 0.034931 4.43729e-07 3
-0.0539789 -0.012606 0.00897826 0.978422 0.557937 0.034931 3.60492e-06 3
-0.051468 -0.0149613 0.00964143 0.978422 0.557937 0.034931 1.50387e-05 3
-0.0551216 -0.00966933 0.00779531 0.978422 0.557937 0.034931 6.61792e-07 3
-0.0569944 -0.00977108 0.00738839 0.978422 0.557937 0.034931 5.45675e-07 3
-0.0563486 -0.00927049 0.00856238 0.978422 0.557937 0.034931 6.17311e-07 3
-0.0447381 -0.0151157 0.00368872 0.978422 0.557937 0.034931 1.51667e-05 3
-0.0366332 -0.0137845 0.00223504 0.978422 0.557937 0.034931 9.40325e-06 3
-0.0426935 -0.0168541 0.00354617 0.978422 0.557937 0.034931 2.73995e-06 3
-0.0370253 -0.0115625 0.00960638 0.978422 0.557937 0.034931 9.68863e-06 3
-0.0390012 -0.0141509 0.00982755 0.978422 0.557937 0.034931 1.45097e-05 3
-0.0525612 -0.00383225 0.00192493 0.978422 0.557937 0.034931 2.35583e-06 3
-0.0651228 -0.00366583 0.00698787 0.978422 0.557937 0.034931 1.81261e-07 3
-0.0563814 -0.0076144 0.00704984 0.978422 0.557937 0.034931 6.95546e-08 3
-0.04945 -0.00940255 0.00139816 0.978422 0.557937 0.034931 1.25614e-05 3
-0.0545017 -0.00797501 0.00622163 0.978422 0.557937 0.034931 1.24757e-07 3
-0.0729933 -0.000197801 3.60447e-05 0.978422 0.557937 0.034931 1.55616e-05 3
-0.0625909 -0.00843317 0.000500858 0.978422 0.557937 0.034931 1.83449e-05 3
-0.0550945 0.00366959 0.00672697 0.978422 0.557937 0.034931 3.27021e-06 3
-0.0523689 -0.00914106 0.00146754 0.978422 0.557937 0.034931 2.79178e-06 3
-0.0602672 -0.0070394 0.00212504 0.978422 0.557937 0.034931 6.27983e-06 3
-0.0605561 -0.00442183 0.00418905 0.978422 0.557937 0.034931 1.81101e-06 3
-0.0552859 -0.00718429 0.00384526 0.978422 0.557937 0.034931 2.85325e-07 3
-0.0542777 -0.00631972 0.00396139 0.978422 0.557937 0.034931 5.95207e-07 3
-0.0517953 0.00468549 0.00346636 0.978422 0.557937 0.034931 3.64142e-06 3
-0.0494028 -0.00686962 0.00382891 0.978422 0.557937 0.034931 1.14133e-05 3
-0.0573133 0.0044698 0.00756238 0.978422 0.557937 0.034931 1.55963e-06 3
-0.0625804 -0.00491595 0.00789928 0.978422 0.557937 0.034931 7.80766e-07 3
-0.0565658 -0.00791749 0.00644236 0.978422 0.557937 0.034931 4.69871e-08 3
-0.0742674 0.0102976 0.00762213 0.978422 0.557937 0.034931 2.48909e-06 3
-0.0730154 0.00312873 0.002168 0.978422 0.557937 0.034931 1.45811e-05 3
-0.0520429 -0.00603798 0.00397897 0.978422 0.557937 0.034931 2.62844e-06 3
-0.0618886 -0.00437676 0.0042316 0.978422 0.557937 0.034931 1.73692e-06 3
-0.0747783 0.00825751 -0.000400228 0.978422 0.557937 0.034931 1.64431e-05 3
-0.0635161 -0.00604932 0.00250328 0.978422 0.557937 0.034931 7.93368e-06 3
-0.0520741 0.00376854 0.00636012 0.978422 0.557937 0.034931 1.3336e-06 3
-0.055319 -0.00432614 0.00687714 0.978422 0.557937 0.034931 3.93167e-07 3
-0.0545005 -0.000927667 0.00203336 0.978422 0.557937 0.034931 6.51213e-06 3
-0.0560228 -0.00809766 0.0062198 0.978422 0.557937 0.034931 7.04806e-08 3
-0.0732846 -0.0014023 -0.00240784 0.978422 0.557937 0.034931 9.95846e-06 3
-0.062984 -0.00567012 0.00621347 0.978422 0.557937 0.034931 1.37079e-07 3
-0.0577408 0.0130272 -0.000294944 0.978422 0.557937 0.034931 9.53587e-06 3
-0.0569577 -0.00769791 0.00619321 0.978422 0.557937 0.034931 2.45184e-08 3
-0.0569319 -0.00657337 0.00752931 0.978422 0.557937 0.034931 1.03657e-07 3
-0.0543777 0.00359759 0.00180993 0.978422 0.557937 0.034931 9.57416e-06 3
-0.0542087 -0.0105789 -0.00048103 0.978422 0.557937 0.034931 1.30657e-05 3
-0.0741508 0.000210099 0.00291996 0.978422 0.557937 0.034931 2.07157e-05 3
-0.0725438 0.010328 0.00221877 0.978422 0.557937 0.034931 1.40074e-05 3
-0.0569494 -0.00661967 0.00672593 0.978422 0.557937 0.034931 9.42526e-08 3
-0.0526655 -0.00651407 0.00651162 0.978422 0.557937 0.034931 4.51732e-07 3
-0.0557748 -0.00635302 0.00771472 0.978422 0.557937 0.034931 2.85534e-07 3
-0.0572808 -0.00719999 0.00683466 0.978422 0.557937 0.034931 6.2314e-08 3
-0.0700346 0.0102769 0.00792766 0.978422 0.557937 0.034931 2.56851e-06 3
-0.0680626 0.012587 0.00765379 0.978422 0.557937 0.034931 1.28425e-06 3
-0.0649616 0.0121471 0.000295698 0.978422 0.557937 0.034931 1.93772e-05 3
-0.0598452 -0.000679806 0.00434424 0.978422 0.557937 0.034931 7.53066e-06 3
-0.054049 -0.0072949 0.00748382 0.978422 0.557937 0.034931 1.56406e-07 3
-0.0558566 -0.00355431 0.00754454 0.978422 0.557937 0.034931 3.93888e-07 3
-0.072864 0.00520942 0.00463663 0.978422 0.557937 0.034931 1.71738e-06 3
-0.0606475 -0.00605351 0.00687398 0.978422 0.557937 0.034931 8.31577e-07 3
-0.0596512 0.00663198 0.00720932 0.978422 0.557937 0.034931 2.9322e-06 3
-0.0573247 0.00647297 0.0076939 0.978422 0.557937 0.034931 3.259e-06 3
-0.0704485 -0.0024823 4.66341e-05 0.978422 0.557937 0.034931 1.22455e-05 3
-0.0690438 -0.00729284 0.000512403 0.978422 0.557937 0.034931 8.46422e-06 3
-0.0757001 0.00628941 0.00218216 0.978422 0.557937 0.034931 1.65993e-05 3
-0.0582392 -0.00336263 0.00670498 0.978422 0.557937 0.034931 8.30408e-07 3
-0.0653271 -0.00285893 0.00173937 0.978422 0.557937 0.034931 1.15501e-05 3
-0.0670299 0.0108149 0.00282899 0.978422 0.557937 0.034931 1.11575e-05 3
-0.069105 0.00884645 0.000366932 0.978422 0.557937 0.034931 8.90067e-06 3
-0.056983 0.00283964 0.00421911 0.978422 0.557937 0.034931 7.9617e-06 3
-0.0717811 0.00678051 0.00405961 0.978422 0.557937 0.034931 1.97864e-05 3
-0.0608376 0.0112651 -0.000128481 0.978422 0.557937 0.034931 2.26377e-05 3
-0.0574161 0.00507804 0.00208822 0.978422 0.557937 0.034931 1.26525e-05 3
-0.0602954 0.00492708 0.000273655 0.978422 0.557937 0.034931 1.49466e-05 3
-0.055574 0.0103745 0.0020507 0.978422 0.557937 0.034931 7.80017e-06 3
-0.0578655 0.00807016 0.00424302 0.978422 0.557937 0.034931 1.34154e-05 3
-0.0607449 0.0079192 0.00242846 0.978422 0.557937 0.034931 1.6018e-05 3
-0.0603881 0.00827302 -0.00228328 0.978422 0.557937 0.034931 1.10466e-06 3
-0.0644586 -0.00778172 -0.00193472 0.978422 0.557937 0.034931 8.61125e-06 3
-0.0653839 -0.00539787 6.77015e-05 0.978422 0.557937 0.034931 8.46094e-06 3
-0.063552 -0.00453221 0.00704453 0.978422 0.557937 0.034931 7.26001e-08 3
-0.0690696 0.00209165 0.00784986 0.978422 0.557937 0.034931 1.96615e-06 3
-0.0729386 0.00718841 0.00694352 0.978422 0.557937 0.034931 6.88719e-06 3
-0.0672743 0.000560028 0.007904 0.978422 0.557937 0.034931 1.0242e-07 3
-0.063465 -0.00252081 0.00423991 0.978422 0.557937 0.034931 2.52803e-06 3
-0.06284 -0.000283923 0.00443301 0.978422 0.557937 0.034931 8.63345e-06 3
-0.0638291 -0.00114979 0.00709088 0.978422 0.557937 0.034931 3.45853e-06 3
-0.0644541 -0.00338668 0.00689777 0.978422 0.557937 0.034931 1.01272e-06 3
-0.0667886 -0.000587335 -0.000398068 0.978422 0.557937 0.034931 1.76543e-05 3
-0.0657431 0.00229631 0.000208132 0.978422 0.557937 0.034931 7.95206e-06 3
-0.0661367 -0.00267726 0.00736525 0.978422 0.557937 0.034931 4.4508e-07 3
-0.0510757 -0.00399279 0.00216517 0.978422 0.557937 0.034931 2.23007e-06 3
-0.0622535 7.75128e-05 0.00779216 0.978422 0.557937 0.034931 8.24037e-07 3
-0.0592057 -0.0071345 0.00209981 0.978422 0.557937 0.034931 3.64701e-06 3
-0.0684635 0.00543601 0.00421133 0.978422 0.557937 0.034931 9.31348e-06 3
-0.0507482 0.00245085 0.00155755 0.978422 0.557937 0.034931 5.97798e-06 3
-0.0554249 -0.00681458 0.00640168 0.978422 0.557937 0.034931 7.67204e-08 3
-0.0523327 -0.0120497 0.00207813 0.978422 0.557937 0.034931 2.34643e-06 3
-0.0502835 4.02033e-05 0.0065636 0.978422 0.557937 0.034931 9.87563e-07 3
-0.0590059 -0.0071057 0.00597539 0.978422 0.557937 0.034931 9.70435e-08 3
-0.0585383 -0.00631633 0.00769005 0.978422 0.557937 0.034931 2.72138e-07 3
-0.0570718 -0.00487226 0.00762774 0.978422 0.557937 0.034931 9.47578e-07 3
-0.0574873 -0.0060706 0.00690789 0.978422 0.557937 0.034931 1.91763e-07 3
-0.0533306 0.00136294 -9.88796e-05 0.978422 0.557937 0.034931 1.51146e-05 3
-0.0576217 0.00061366 0.00415347 0.978422 0.557937 0.034931 6.34154e-06 3
-0.0529314 -0.00549279 0.00666428 0.978422 0.557937 0.034931 2.25906e-07 3
-0.0465519 -0.0101139 -0.00105104 0.978422 0.557937 0.034931 1.24796e-05 3
-0.0591377 -0.00296177 0.00410859 0.978422 0.557937 0.034931 1.90916e-06 3
-0.0508779 0.00157439 0.00708488 0.978422 0.557937 0.034931 2.08228e-06 3
-0.0593279 -0.00445059 0.00764357 0.978422 0.557937 0.034931 1.34914e-06 3
-0.0567232 0.000212795 0.00674986 0.978422 0.557937 0.034931 2.75832e-06 3
-0.0657263 0.00873042 0.00738595 0.978422 0.557937 0.034931 2.27873e-06 3
-0.0589467 -0.00108067 0.00694064 0.978422 0.557937 0.034931 3.27554e-06 3
-0.0503394 -0.00679149 0.00720762 0.978422 0.557937 0.034931 1.7438e-06 3
-0.0504326 -2.96013e-07 0.00393004 0.978422 0.557937 0.034931 3.82371e-06 3
-0.0484217 -0.00522802 0.00195576 0.978422 0.557937 0.034931 6.19971e-06 3
-0.0558321 0.00158645 0.00751138 0.978422 0.557937 0.034931 3.82025e-06 3
-0.0603659 0.000542513 0.0077307 0.978422 0.557937 0.034931 1.83662e-06 3
-0.0568529 -0.00373436 0.00671598 0.978422 0.557937 0.034931 7.2105e-07 3
-0.0530644 -0.00210036 0.00396235 0.978422 0.557937 0.034931 2.48867e-06 3
-0.0596267 -0.00913828 0.00392661 0.978422 0.557937 0.034931 2.31385e-06 3
-0.0552133 -0.00757506 0.00628787 0.978422 0.557937 0.034931 7.95037e-08 3
-0.0479268 -0.00727067 0.00673098 0.978422 0.557937 0.034931 3.92305e-06 3
-0.0539973 -0.00265956 -4.06313e-06 0.978422 0.557937 0.034931 6.79541e-06 3
-0.0556878 -0.00597034 0.00389152 0.978422 0.557937 0.034931 8.68519e-07 3
-0.0597139 -0.0134178 0.00405954 0.978422 0.557937 0.034931 5.30672e-06 3
-0.0575048 -0.0061169 0.0061045 0.978422 0.557937 0.034931 2.27056e-08 3
-0.0571751 -0.00729414 -2.42522e-05 0.978422 0.557937 0.034931 2.34617e-05 3
-0.0689589 0.00716986 0.00780781 0.978422 0.557937 0.034931 2.10644e-06 3
-0.0539955 -0.00775732 0.00662889 0.978422 0.557937 0.034931 1.66342e-07 3
-0.0541725 -0.0134875 0.000129556 0.978422 0.557937 0.034931 1.15245e-05 3
-0.05456 -0.00354045 0.00755233 0.978422 0.557937 0.034931 5.09234e-07 3
-0.0540661 -0.00708021 0.00384757 0.978422 0.557937 0.034931 6.168e-07 3
-0.0515789 -0.00226089 0.0042026 0.978422 0.557937 0.034931 3.89141e-06 3
-0.0560501 -0.00703408 0.0069411 0.978422 0.557937 0.034931 7.48002e-08 3
-0.0548756 -0.0076028 0.00377951 0.978422 0.557937 0.034931 5.46798e-07 3
-0.0560038 -0.00944057 0.0017647 0.978422 0.557937 0.034931 3.63198e-06 3
-0.0671078 0.00396468 0.00220912 0.978422 0.557937 0.034931 5.63368e-06 3
-0.056442 -0.0068145 0.00669195 0.978422 0.557937 0.034931 7.161e-08 3
-0.0567733 -0.00739481 0.00680069 0.978422 0.557937 0.034931 4.66242e-08 3
-0.0549668 -0.00647136 0.00394646 0.978422 0.557937 0.034931 2.80769e-07 3
-0.0578239 -0.00682983 0.0060033 0.978422 0.557937 0.034931 2.2328e-08 3
-0.0523088 -0.00501669 0.00413163 0.978422 0.557937 0.034931 1.31445e-06 3
-0.0533546 -0.00748016 0.00378134 0.978422 0.557937 0.034931 9.67879e-07 3
-0.0574651 -0.00750308 0.00622718 0.978422 0.557937 0.034931 3.12275e-08 3
-0.0656354 0.00180835 0.00771972 0.978422 0.557937 0.034931 1.4681e-06 3
-0.0683573 0.00401938 0.00764328 0.978422 0.557937 0.034931 3.62118e-06 3
-0.0651134 0.00357677 0.00708991 0.978422 0.557937 0.034931 1.68626e-06 3
-0.0557208 -0.00349313 0.00199552 0.978422 0.557937 0.034931 5.25562e-06 3
-0.0577515 -0.0033335 0.00411959 0.978422 0.557937 0.034931 1.21438e-06 3
-0.0564488 -0.00424243 0.00203681 0.978422 0.557937 0.034931 2.76532e-06 3
-0.0537658 -0.00652009 0.00730895 0.978422 0.557937 0.034931 5.35402e-08 3
-0.069621 0.00584391 0.00709524 0.978422 0.557937 0.034931 3.2418e-06 3
-0.0551348 -0.00478946 0.00613058 0.978422 0.557937 0.034931 7.5525e-08 3
-0.0542709 -0.00506941 0.00386516 0.978422 0.557937 0.034931 1.20166e-06 3
-0.0537943 -0.00485616 0.00389138 0.978422 0.557937 0.034931 6.49187e-07 3
-0.0634733 0.00706991 0.00485935 0.978422 0.557937 0.034931 5.12224e-06 3
-0.0677094 0.00711516 0.00237364 0.978422 0.557937 0.034931 6.47199e-06 3
-0.0567678 -0.00495536 0.00193561 0.978422 0.557937 0.034931 3.07869e-06 3
-0.0560069 -0.00668327 0.00379032 0.978422 0.557937 0.034931 8.20451e-07 3
-0.0650213 0.00392997 0.00453965 0.978422 0.557937 0.034931 5.85505e-06 3
-0.0527329 -0.00564806 0.0074259 0.978422 0.557937 0.034931 6.23613e-07 3
-0.0525434 -0.00230877 0.00687738 0.978422 0.557937 0.034931 1.3437e-06 3
-0.0536754 -2.75444e-06 0.00806606 0.978422 0.557937 0.034931 1.39348e-06 3
-0.0517416 -0.000113765 0.00800641 0.978422 0.557937 0.034931 1.82172e-06 3
-0.0511472 -0.00164796 0.00748513 0.978422 0.557937 0.034931 9.79192e-07 3
-0.0545665 -0.00137641 0.00730453 0.978422 0.557937 0.034931 9.82207e-07 3
-0.0656343 0.00908361 0.0048357 0.978422 0.557937 0.034931 7.9122e-06 3
-0.0540289 -0.00214824 0.00663713 0.978422 0.557937 0.034931 8.59335e-07 3
-0.0544608 -0.00647912 0.00790379 0.978422 0.557937 0.034931 3.61318e-07 3
-0.0541776 -0.00570431 0.00772892 0.978422 0.557937 0.034931 1.4684e-07 3
-0.0551496 -0.00613351 0.0071753 0.978422 0.557937 0.034931 2.99219e-07 3
-0.0548664 -0.0053587 0.00700043 0.978422 0.557937 0.034931 1.8278e-07 3
-0.0636567 0.0022616 0.00253867 0.978422 0.557937 0.034931 1.05011e-05 3
-0.0635378 0.00480407 0.0077912 0.978422 0.557937 0.034931 3.79679e-07 3
-0.0626519 0.00661807 0.00739832 0.978422 0.557937 0.034931 1.29369e-06 3
-0.0545182 0.0113022 0.00330549 0.978422 0.557937 0.034931 8.32821e-06 3
-0.049003 0.00843782 0.00797753 0.978422 0.557937 0.034931 1.04467e-05 3
-0.0587483 0.0159358 -2.24106e-05 0.978422 0.557937 0.034931 1.40893e-05 3
-0.0482355 0.00839697 0.00143583 0.978422 0.557937 0.034931 5.00587e-06 3
-0.0603227 0.0184102 0.00601779 0.978422 0.557937 0.034931 2.06232e-05 3
-0.0505264 0.00726931 0.00286177 0.978422 0.557937 0.034931 5.4927e-06 3
-0.0522585 0.0112562 0.013496 0.978422 0.557937 0.034931 3.91751e-05 3
-0.056598 0.0169926 0.00484282 0.978422 0.557937 0.034931 3.26741e-05 3
-0.0636587 0.022956 0.00823655 0.978422 0.557937 0.034931 2.76716e-06 3
-0.0506626 0.0112218 -0.00106003 0.978422 0.557937 0.034931 1.65756e-06 3
-0.0505319 0.0125896 0.00965875 0.978422 0.557937 0.034931 3.26503e-05 3
-0.042892 0.00712913 0.00962951 0.978422 0.557937 0.034931 2.37328e-05 3
-0.0540651 0.0132717 0.00143558 0.978422 0.557937 0.034931 1.5467e-06 3
-0.0507407 0.0131267 -0.000732047 0.978422 0.557937 0.034931 5.49189e-07 3
-0.0506892 0.00962671 0.00203022 0.978422 0.557937 0.034931 4.70401e-06 3
-0.0623889 0.0167256 0.00847795 0.978422 0.557937 0.034931 4.62729e-06 3
-0.0606251 0.015986 0.0117631 0.978422 0.557937 0.034931 1.37686e-05 3
-0.0501803 0.00640469 0.00938899 0.978422 0.557937 0.034931 5.39266e-06 3
-0.047943 0.0101562 -0.000233423 0.978422 0.557937 0.034931 1.69421e-06 3
-0.0453788 0.00708299 0.00394814 0.978422 0.557937 0.034931 5.24399e-06 3
-0.051803 0.0131195 0.00575377 0.978422 0.557937 0.034931 7.47534e-06 3
-0.0553181 0.0132486 0.00681217 0.978422 0.557937 0.034931 1.7205e-05 3
-0.0494503 0.0107915 0.000205412 0.978422 0.557937 0.034931 1.58586e-06 3
-0.0561284 0.0152527 0.000453322 0.978422 0.557937 0.034931 4.15326e-06 3
-0.0548108 0.00583598 -0.000320966 0.978422 0.557937 0.034931 9.14783e-06 3
-0.0555624 0.0154046 0.00144725 0.978422 0.557937 0.034931 7.49455e-06 3
-0.0523912 0.00928129 0.000503919 0.978422 0.557937 0.034931 5.56693e-06 3
-0.052705 0.0108277 0.000720779 0.978422 0.557937 0.034931 4.6366e-07 3
-0.0521738 0.0108924 -0.00147711 0.978422 0.557937 0.034931 1.15219e-06 3
-0.0421724 0.00879882 0.00472567 0.978422 0.557937 0.034931 1.02011e-05 3
-0.0435169 0.00707679 0.00599604 0.978422 0.557937 0.034931 6.71309e-06 3
-0.0448502 0.00955928 0.00859949 0.978422 0.557937 0.034931 2.25734e-05 3
-0.0591577 0.0225511 0.00570727 0.978422 0.557937 0.034931 1.84266e-05 3
-0.0563986 0.0113329 0.0109209 0.978422 0.557937 0.034931 2.96907e-05 3
-0.0515734 0.00988236 0.0189119 0.978422 0.557937 0.034931 5.82068e-06 3
-0.0534359 0.0136973 0.0169691 0.978422 0.557937 0.034931 1.988e-05 3
-0.0461917 -0.00417049 0.0132073 0.978422 0.557937 0.034931 1.09699e-05 3
-0.0382916 -0.00249197 0.0133004 0.978422 0.557937 0.034931 6.55326e-06 3
-0.0489004 0.00614714 0.0128575 0.978422 0.557937 0.034931 4.57459e-06 3
-0.0475671 0.00366464 0.0102541 0.978422 0.557937 0.034931 6.75773e-06 3
-0.0457649 0.00575011 0.0124761 0.978422 0.557937 0.034931 2.1429e-05 3
-0.0405972 0.00892131 0.0126286 0.978422 0.557937 0.034931 8.47533e-06 3
-0.0322827 0.000545211 0.0163228 0.978422 0.557937 0.034931 2.06793e-05 3
-0.0502532 0.000955269 0.0136427 0.978422 0.557937 0.034931 1.00676e-05 3
-0.0517463 0.00299682 0.0160396 0.978422 0.557937 0.034931 1.13079e-05 3
-0.0387297 -0.00416559 0.0108368 0.978422 0.557937 0.034931 8.53346e-06 3
-0.041371 0.00815088 0.0151211 0.978422 0.557937 0.034931 4.60638e-06 3
-0.0369015 0.00265928 0.0132141 0.978422 0.557937 0.034931 2.20551e-05 3
-0.0443699 -0.00586896 0.0157677 0.978422 0.557937 0.034931 1.24752e-05 3
-0.0366461 0.0104038 0.0151807 0.978422 0.557937 0.034931 7.05061e-06 3
-0.0392729 0.00803921 0.0128252 0.978422 0.557937 0.034931 4.1491e-06 3
-0.0346571 -6.94718e-05 0.0108615 0.978422 0.557937 0.034931 1.11443e-05 3
-0.0323627 -0.00177274 0.0136358 0.978422 0.557937 0.034931 7.99139e-06 3
-0.032454 0.000852723 0.00776367 0.978422 0.557937 0.034931 1.46151e-06 3
-0.0415111 0.00476975 0.019226 0.978422 0.557937 0.034931 2.04809e-06 3
-0.0348666 0.00547351 0.0165538 0.978422 0.557937 0.034931 5.78108e-06 3
-0.0433324 0.00669551 0.0157461 0.978422 0.557937 0.034931 1.22423e-05 3
-0.0344734 0.00333917 0.0166928 0.978422 0.557937 0.034931 1.34914e-05 3
-0.0416148 0.00367906 0.0160817 0.978422 0.557937 0.034931 1.92253e-05 3
-0.0367978 0.00374997 0.0163584 0.978422 0.557937 0.034931 2.27069e-06 3
-0.0473172 0.00206486 0.0111344 0.978422 0.557937 0.034931 1.58136e-05 3
-0.0433754 -0.00381814 0.00851356 0.978422 0.557937 0.034931 1.10602e-06 3
-0.0433096 -0.00526847 0.0111745 0.978422 0.557937 0.034931 5.0611e-06 3
-0.0420617 -0.00298185 0.0107353 0.978422 0.557937 0.034931 1.56172e-05 3
-0.0416236 -0.00130824 0.0131989 0.978422 0.557937 0.034931 7.82862e-06 3
-0.0437975 0.00113388 0.013692 0.978422 0.557937 0.034931 2.32019e-05 3
-0.0470518 -0.000892083 0.0159222 0.978422 0.557937 0.034931 2.00949e-05 3
-0.0437316 -0.000316441 0.016353 0.978422 0.557937 0.034931 8.44543e-06 3
-0.0501437 0.00658891 0.0161347 0.978422 0.557937 0.034931 9.60975e-06 3
-0.0514235 0.00684647 0.0126662 0.978422 0.557937 0.034931 1.01336e-05 3
-0.0562737 0.0029274 0.0112572 0.978422 0.557937 0.034931 1.04981e-05 3
-0.0560755 -0.00469221 0.0084563 0.978422 0.557937 0.034931 5.65831e-07 3
-0.0512956 -0.00365876 0.0084154 0.978422 0.557937 0.034931 9.89319e-07 3
-0.0539089 -0.00472829 0.00843725 0.978422 0.557937 0.034931 4.50838e-07 3
-0.0605864 -0.00402345 0.0085138 0.978422 0.557937 0.034931 1.96919e-06 3
-0.0581228 -0.00511799 0.0084099 0.978422 0.557937 0.034931 1.34803e-06 3
-0.0506338 -0.0100466 0.0102177 0.978422 0.557937 0.034931 4.27355e-06 3
-0.0415209 -0.0135196 0.0173457 0.978422 0.557937 0.034931 6.38237e-06 3
-0.0606158 -0.00676461 0.0141636 0.978422 0.557937 0.034931 6.19177e-06 3
-0.0634509 -0.00693782 0.0166854 0.978422 0.557937 0.034931 1.03437e-05 3
-0.0454224 -0.0125191 0.018487 0.978422 0.557937 0.034931 6.19384e-06 3
-0.0541971 -0.00531364 0.0112231 0.978422 0.557937 0.034931 1.48308e-06 3
-0.054947 -0.00398295 0.0111883 0.978422 0.557937 0.034931 1.58817e-06 3
-0.0658491 -0.00349421 0.0140783 0.978422 0.557937 0.034931 6.44677e-06 3
-0.0375987 -0.0107934 0.0158421 0.978422 0.557937 0.034931 7.48675e-06 3
-0.0666805 -0.00919806 0.0123192 0.978422 0.557937 0.034931 1.55807e-05 3
-0.0613236 -0.0113148 0.00910294 0.978422 0.557937 0.034931 5.7062e-06 3
-0.0492382 -0.00491221 0.00840307 0.978422 0.557937 0.034931 2.16201e-06 3
-0.0589553 -0.0148789 0.0139437 0.978422 0.557937 0.034931 8.80416e-06 3
-0.0643257 -0.008081 0.0129327 0.978422 0.557937 0.034931 6.7893e-06 3
-0.0640538 -0.00502583 0.0141325 0.978422 0.557937 0.034931 6.44677e-06 3
-0.0637228 -0.00999299 0.0154856 0.978422 0.557937 0.034931 1.20196e-05 3
-0.0593311 -0.00438762 0.0115493 0.978422 0.557937 0.034931 3.50477e-06 3
-0.0694186 -0.009264 0.0148102 0.978422 0.557937 0.034931 5.52121e-06 3
-0.0594771 0.000123767 0.0154557 0.978422 0.557937 0.034931 2.14091e-05 3
-0.049633 -0.00488464 0.0110512 0.978422 0.557937 0.034931 7.82822e-06 3
-0.0423893 -0.0102336 0.0118069 0.978422 0.557937 0.034931 9.97545e-06 3
-0.0610986 -0.00357187 0.011549 0.978422 0.557937 0.034931 5.89448e-06 3
-0.0571516 -0.00343263 0.0134991 0.978422 0.557937 0.034931 1.15389e-05 3
-0.050393 -0.00632907 0.00806254 0.978422 0.557937 0.034931 1.72999e-06 3
-0.060917 -0.0013123 0.00836527 0.978422 0.557937 0.034931 3.60266e-06 3
-0.0550975 -0.00276862 0.00821973 0.978422 0.557937 0.034931 6.02823e-07 3
-0.0614291 -0.000860728 0.0114005 0.978422 0.557937 0.034931 1.07841e-05 3
-0.0604189 -0.0121388 0.0124601 0.978422 0.557937 0.034931 9.88921e-06 3
-0.0601241 -0.0109926 0.00993424 0.978422 0.557937 0.034931 3.98708e-06 3
-0.0608877 -0.00981978 0.0129639 0.978422 0.557937 0.034931 4.79924e-06 3
-0.0584363 -0.00580961 0.0161134 0.978422 0.557937 0.034931 2.08114e-05 3
-0.0580508 0.00238667 0.00834679 0.978422 0.557937 0.034931 2.21706e-06 3
-0.0532569 -0.00423228 0.011143 0.978422 0.557937 0.034931 1.36114e-06 3
-0.0540069 -0.00290159 0.0111081 0.978422 0.557937 0.034931 1.45952e-06 3
-0.0580885 -0.00917061 0.00861605 0.978422 0.557937 0.034931 6.17311e-07 3
-0.0561491 -0.00608713 0.00826896 0.978422 0.557937 0.034931 9.78349e-08 3
-0.0550859 -0.00669863 0.00844321 0.978422 0.557937 0.034931 2.73022e-07 3
-0.0537637 0.00117125 0.0133555 0.978422 0.557937 0.034931 9.77193e-06 3
-0.0554603 -0.00643274 0.00899745 0.978422 0.557937 0.034931 1.81382e-07 3
-0.0571991 0.00221608 0.0154624 0.978422 0.557937 0.034931 1.63183e-05 3
-0.0475238 -0.0114312 0.0157351 0.978422 0.557937 0.034931 1.96309e-05 3
-0.0476778 -0.00768608 0.0162281 0.978422 0.557937 0.034931 2.01175e-05 3
-0.0506834 -0.00720729 0.0137622 0.978422 0.557937 0.034931 1.48327e-05 3
-0.0505294 -0.0109524 0.0132692 0.978422 0.557937 0.034931 1.55578e-05 3
-0.0535269 -0.0107803 0.0133617 0.978422 0.557937 0.034931 6.36115e-06 3
-0.0536809 -0.00703521 0.0138547 0.978422 0.557937 0.034931 6.06472e-06 3
-0.0557156 -0.0080815 0.0164342 0.978422 0.557937 0.034931 1.46212e-05 3
-0.0559627 -0.0140957 0.0154642 0.978422 0.557937 0.034931 1.05228e-05 3
-0.054798 -0.0129994 0.0129116 0.978422 0.557937 0.034931 9.51076e-06 3
-0.0574262 -0.0113555 0.0139806 0.978422 0.557937 0.034931 1.91762e-05 3
-0.0516905 -0.0036312 0.0110635 0.978422 0.557937 0.034931 3.58213e-06 3
-0.0514504 -0.0010697 0.0109401 0.978422 0.557937 0.034931 4.5081e-06 3
-0.0533842 -0.000958687 0.0109998 0.978422 0.557937 0.034931 3.44835e-06 3
-0.0526918 -0.00431958 0.00780765 0.978422 0.557937 0.034931 1.04571e-06 3
-0.0797121 0.00299311 0.0116786 0.978422 0.557937 0.034931 3.30215e-05 3
-0.0648216 -0.00940241 0.00914827 0.978422 0.557937 0.034931 1.44686e-06 3
-0.064672 -0.0121067 0.00787451 0.978422 0.557937 0.034931 8.89146e-06 3
-0.0713942 -0.00098144 0.00574689 0.978422 0.557937 0.034931 3.51959e-06 3
-0.0770338 -0.000685242 0.00798016 0.978422 0.557937 0.034931 4.37188e-05 3
-0.0806672 0.00693777 0.00837898 0.978422 0.557937 0.034931 1.93865e-05 3
-0.0640319 -0.00778838 0.00724783 0.978422 0.557937 0.034931 2.35931e-06 3
-0.0782879 0.00389485 0.0158136 0.978422 0.557937 0.034931 2.0487e-05 3
-0.0665854 -0.00527817 0.00760153 0.978422 0.557937 0.034931 2.57543e-06 3
-0.079243 0.0078395 0.012514 0.978422 0.557937 0.034931 1.23741e-05 3
-0.0692013 -0.00868924 0.00319256 0.978422 0.557937 0.034931 8.91834e-06 3
-0.0633645 -0.00751954 0.00973474 0.978422 0.557937 0.034931 3.14939e-06 3
-0.0659624 -0.00879805 0.00457466 0.978422 0.557937 0.034931 5.18773e-06 3
-0.0809512 0.0106061 0.0151065 0.978422 0.557937 0.034931 2.14143e-05 3
-0.0641473 -0.0101128 0.0089932 0.978422 0.557937 0.034931 4.5979e-06 3
-0.0657193 -0.0086366 0.0091212 0.978422 0.557937 0.034931 3.82428e-06 3
-0.0701584 -0.00516173 0.00524161 0.978422 0.557937 0.034931 2.10949e-06 3
-0.0691445 -0.0061503 0.00486423 0.978422 0.557937 0.034931 6.77936e-06 3
-0.0675938 -0.00456013 0.00677878 0.978422 0.557937 0.034931 1.44282e-06 3
