ply
format ascii 1.0
comment Created by Open3D
element vertex 814
property float32 x
property float32 y
property float32 z
property float32 red
property float32 green
property float32 blue
property uint8 segmentation
end_header
0.00998851 0.0170305 0.106099 0.529412 0.54902 0.54902 0
0.00283042 0.0175807 0.0427176 0.909804 0.443137 0.0313726 2
0.00699662 0.0234386 0.00294051 0.909804 0.443137 0.0313726 2
0.00519324 0.0128698 0.0366932 0.909804 0.443137 0.0313726 2
0.0120897 0.0153344 0.135044 0.529412 0.54902 0.54902 0
0.00998178 0.0170359 0.0993028 0.529412 0.54902 0.54902 0
0.0140289 0.0240045 0.0326007 0.909804 0.443137 0.0313726 2
0.0123988 0.0170126 0.131082 0.529412 0.54902 0.54902 0
0.00357941 0.0148877 0.0398482 0.909804 0.443137 0.0313726 2
0.00861861 0.0236449 0.0586919 0.909804 0.443137 0.0313726 1
0.0121276 0.0172315 0.0764145 0.529412 0.54902 0.54902 0
0.0154293 0.015516 0.00429076 0.909804 0.443137 0.0313726 2
0.00241365 0.01912 0.0371123 0.909804 0.443137 0.0313726 2
0.00203835 0.0191947 0.00748975 0.909804 0.443137 0.0313726 2
0.00491245 0.0211278 0.10393 0.529412 0.54902 0.54902 0
0.00334507 0.0139987 0.0157023 0.909804 0.443137 0.0313726 2
0.00631013 0.0219273 0.143021 0.529412 0.54902 0.54902 0
0.0126827 0.0223339 0.0610166 0.909804 0.443137 0.0313726 1
0.0066113 0.012963 0.0476302 0.909804 0.443137 0.0313726 2
0.00456022 0.0156889 0.0538139 0.909804 0.443137 0.0313726 2
0.015504 0.0228537 0.020641 0.909804 0.443137 0.0313726 2
0.0045296 0.0231835 0.0409389 0.909804 0.443137 0.0313726 2
0.0147604 0.0210854 0.0497955 0.909804 0.443137 0.0313726 2
0.0140425 0.0237123 0.0366215 0.909804 0.443137 0.0313726 2
0.00541688 0.0207206 0.117739 0.529412 0.54902 0.54902 0
0.0100497 0.0117784 0.0406485 0.909804 0.443137 0.0313726 2
0.0128773 0.0166263 0.0895262 0.529412 0.54902 0.54902 0
0.0105714 0.0121725 0.0447813 0.909804 0.443137 0.0313726 2
0.0048875 0.0124634 0.0142163 0.909804 0.443137 0.0313726 2
0.00775787 0.0207587 0.0887892 0.529412 0.54902 0.54902 0
0.00496994 0.0210814 0.0749052 0.529412 0.54902 0.54902 0
0.0151308 0.0175478 0.0511124 0.909804 0.443137 0.0313726 2
0.0133413 0.0162519 0.165897 0.529412 0.54902 0.54902 0
0.00558339 0.0225139 0.151859 0.529412 0.54902 0.54902 0
0.0142071 0.0149501 0.146944 0.529412 0.54902 0.54902 0
0.00446896 0.0214858 0.166646 0.529412 0.54902 0.54902 0
0.0114486 0.0177796 0.156026 0.529412 0.54902 0.54902 0
0.0111428 0.0256629 0.0280497 0.909804 0.443137 0.0313726 2
0.0127434 0.0144309 0.0570518 0.909804 0.443137 0.0313726 1
0.00227376 0.0183197 0.00499589 0.909804 0.443137 0.0313726 2
0.00500183 0.0141382 0.0478745 0.909804 0.443137 0.0313726 2
0.0102376 0.0187571 0.0698199 0.529412 0.54902 0.54902 0
0.0128443 0.016653 0.147221 0.529412 0.54902 0.54902 0
0.0132398 0.0149319 0.0574547 0.909804 0.443137 0.0313726 1
0.0130881 0.012215 0.00616813 0.909804 0.443137 0.0313726 2
0.0139948 0.014687 0.0962296 0.529412 0.54902 0.54902 0
0.00918149 0.0112376 0.00570181 0.909804 0.443137 0.0313726 2
0.01052 0.0185292 0.0710597 0.529412 0.54902 0.54902 0
0.00576854 0.0204368 0.112879 0.529412 0.54902 0.54902 0
0.0157175 0.0162796 0.0408914 0.909804 0.443137 0.0313726 2
0.00491245 0.0129884 0.0352351 0.909804 0.443137 0.0313726 2
0.0088548 0.0255589 0.035322 0.909804 0.443137 0.0313726 2
0.00604533 0.0202134 0.125654 0.529412 0.54902 0.54902 0
0.00956678 0.0257854 0.0306267 0.909804 0.443137 0.0313726 2
0.0100812 0.0124315 0.0484711 0.909804 0.443137 0.0313726 2
0.0159446 0.0148749 0.0144879 0.909804 0.443137 0.0313726 2
0.00795163 0.0206023 0.0987693 0.529412 0.54902 0.54902 0
0.0126653 0.0167974 0.0780372 0.529412 0.54902 0.54902 0
0.00775854 0.0111514 0.0199725 0.909804 0.443137 0.0313726 2
0.00511746 0.0215102 0.0586112 0.909804 0.443137 0.0313726 1
0.00292879 0.0154793 0.0349552 0.909804 0.443137 0.0313726 2
0.0104235 0.0166793 0.0790627 0.529412 0.54902 0.54902 0
0.0163684 0.0210022 0.0258218 0.909804 0.443137 0.0313726 2
0.00742462 0.0210277 0.0794937 0.529412 0.54902 0.54902 0
0.00907037 0.0259894 0.023548 0.909804 0.443137 0.0313726 2
0.0113239 0.0178802 0.0795058 0.529412 0.54902 0.54902 0
0.0115824 0.0151186 0.00237033 0.909804 0.443137 0.0313726 2
0.0108079 0.0256629 0.00601591 0.909804 0.443137 0.0313726 2
0.0100464 0.0189114 0.0757977 0.529412 0.54902 0.54902 0
0.0151443 0.0230999 0.0275949 0.909804 0.443137 0.0313726 2
0.0105696 0.0257996 0.0272289 0.909804 0.443137 0.0313726 2
0.0104644 0.0166463 0.0826632 0.529412 0.54902 0.54902 0
0.0131799 0.0245704 0.0335284 0.909804 0.443137 0.0313726 2
0.00447292 0.021996 0.155438 0.529412 0.54902 0.54902 0
0.00693886 0.0194921 0.141386 0.529412 0.54902 0.54902 0
0.00789676 0.0233357 0.0613654 0.909804 0.443137 0.0313726 1
0.0160898 0.0215992 0.00954641 0.909804 0.443137 0.0313726 2
0.00190376 0.0175958 0.015896 0.909804 0.443137 0.0313726 2
0.014344 0.0154424 0.0793922 0.529412 0.54902 0.54902 0
0.0126176 0.0117044 0.0186183 0.909804 0.443137 0.0313726 2
0.0163728 0.0187151 0.0364367 0.909804 0.443137 0.0313726 2
0.0059803 0.0221935 0.0731513 0.529412 0.54902 0.54902 0
0.00938272 0.0175194 0.105833 0.529412 0.54902 0.54902 0
0.00245147 0.0181375 0.0381706 0.909804 0.443137 0.0313726 2
0.00611993 0.0220808 0.133348 0.529412 0.54902 0.54902 0
0.0103425 0.0167447 0.0642178 0.529412 0.54902 0.54902 0
0.00952375 0.0258877 0.0275809 0.909804 0.443137 0.0313726 2
0.013983 0.014445 0.0480779 0.909804 0.443137 0.0313726 2
0.00545012 0.0235584 0.0453599 0.909804 0.443137 0.0313726 2
0.0128166 0.0147476 0.0933992 0.529412 0.54902 0.54902 0
0.00986107 0.019061 0.0633239 0.529412 0.54902 0.54902 0
0.00611993 0.0220808 0.137428 0.529412 0.54902 0.54902 0
0.00683845 0.0215009 0.0838724 0.529412 0.54902 0.54902 0
0.00518795 0.0235308 0.043516 0.909804 0.443137 0.0313726 2
0.0111373 0.0160106 0.0625513 0.909804 0.443137 0.0313726 2
0.00406948 0.0238433 0.0155337 0.909804 0.443137 0.0313726 2
0.0151443 0.0232523 0.0131894 0.909804 0.443137 0.0313726 2
0.0137669 0.0144047 0.115876 0.529412 0.54902 0.54902 0
0.00604424 0.0202142 0.0725841 0.529412 0.54902 0.54902 0
0.0117725 0.0175181 0.0790627 0.529412 0.54902 0.54902 0
0.00664117 0.0197324 0.110054 0.529412 0.54902 0.54902 0
0.00585375 0.0222957 0.102632 0.529412 0.54902 0.54902 0
0.00946588 0.0174523 0.0873237 0.529412 0.54902 0.54902 0
0.00654108 0.0217409 0.112994 0.529412 0.54902 0.54902 0
0.0115366 0.0113857 0.0109986 0.909804 0.443137 0.0313726 2
0.00854469 0.0181959 0.167896 0.529412 0.54902 0.54902 0
0.0152534 0.0145602 0.00499589 0.909804 0.443137 0.0313726 2
0.0104309 0.0166734 0.148332 0.529412 0.54902 0.54902 0
0.00640834 0.0199203 0.157211 0.529412 0.54902 0.54902 0
0.0135869 0.0137777 0.0459714 0.909804 0.443137 0.0313726 2
0.00856953 0.0181758 0.07116 0.529412 0.54902 0.54902 0
0.00518001 0.0228395 0.108723 0.529412 0.54902 0.54902 0
0.0101066 0.0188628 0.0940805 0.529412 0.54902 0.54902 0
0.0058711 0.020354 0.149238 0.529412 0.54902 0.54902 0
0.00750682 0.0190337 0.0883244 0.529412 0.54902 0.54902 0
0.00668582 0.0253894 0.0086877 0.909804 0.443137 0.0313726 2
0.00582212 0.0223212 0.114276 0.529412 0.54902 0.54902 0
0.0119431 0.0173804 0.158292 0.529412 0.54902 0.54902 0
0.00965314 0.0113698 0.0342434 0.909804 0.443137 0.0313726 2
0.00338918 0.0140288 0.0119602 0.909804 0.443137 0.0313726 2
0.0139883 0.014679 0.122639 0.529412 0.54902 0.54902 0
0.0124355 0.0242836 0.0433881 0.909804 0.443137 0.0313726 2
0.0150903 0.0197041 0.0510523 0.909804 0.443137 0.0313726 2
0.00474047 0.0244031 0.0134384 0.909804 0.443137 0.0313726 2
0.00277912 0.022155 0.018864 0.909804 0.443137 0.0313726 2
0.0119102 0.0154793 0.163334 0.529412 0.54902 0.54902 0
0.00918149 0.0110618 0.0260516 0.909804 0.443137 0.0313726 2
0.016803 0.0187976 0.0254399 0.909804 0.443137 0.0313726 2
0.00438066 0.0218817 0.164859 0.529412 0.54902 0.54902 0
0.0111428 0.0117045 0.0362168 0.909804 0.443137 0.0313726 2
0.0160996 0.0159189 0.0326455 0.909804 0.443137 0.0313726 2
0.0149503 0.0143531 0.00463513 0.909804 0.443137 0.0313726 2
0.00240549 0.0175194 0.0362074 0.909804 0.443137 0.0313726 2
0.00187658 0.0192222 0.0203833 0.909804 0.443137 0.0313726 2
0.0145287 0.0173633 0.0570991 0.909804 0.443137 0.0313726 1
0.00681358 0.0215209 0.0838644 0.529412 0.54902 0.54902 0
0.00918451 0.0238519 0.0558624 0.909804 0.443137 0.0313726 1
0.0140425 0.0156858 0.0702105 0.529412 0.54902 0.54902 0
0.00208726 0.0173253 0.00784854 0.909804 0.443137 0.0313726 2
0.0110498 0.0161738 0.141486 0.529412 0.54902 0.54902 0
0.00714136 0.0256657 0.0223935 0.909804 0.443137 0.0313726 2
0.00607788 0.0221148 0.12519 0.529412 0.54902 0.54902 0
0.0155839 0.0224164 0.0290048 0.909804 0.443137 0.0313726 2
0.00332975 0.0143183 0.0294055 0.909804 0.443137 0.0313726 2
0.0115824 0.0236209 0.0536153 0.909804 0.443137 0.0313726 2
0.00411145 0.0133487 0.00741159 0.909804 0.443137 0.0313726 2
0.0043583 0.021854 0.121026 0.529412 0.54902 0.54902 0
0.00524324 0.0152034 0.0572841 0.909804 0.443137 0.0313726 1
0.0104876 0.0166276 0.0730985 0.529412 0.54902 0.54902 0
0.00472822 0.0223123 0.136413 0.529412 0.54902 0.54902 0
0.0127434 0.0148067 0.0826246 0.529412 0.54902 0.54902 0
0.00426072 0.0216473 0.0498125 0.909804 0.443137 0.0313726 2
0.00948745 0.0258812 0.0278706 0.909804 0.443137 0.0313726 2
0.0059803 0.0202658 0.127881 0.529412 0.54902 0.54902 0
0.00661013 0.0115137 0.0142286 0.909804 0.443137 0.0313726 2
0.00995038 0.0110453 0.0124866 0.909804 0.443137 0.0313726 2
0.00918149 0.0176819 0.0742609 0.529412 0.54902 0.54902 0
0.00226878 0.0201934 0.00581165 0.909804 0.443137 0.0313726 2
0.00582346 0.0234521 0.0487468 0.909804 0.443137 0.0313726 2
0.0149059 0.0235882 0.0157888 0.909804 0.443137 0.0313726 2
0.013183 0.0249596 0.0143865 0.909804 0.443137 0.0313726 2
0.00201719 0.0199203 0.0124778 0.909804 0.443137 0.0313726 2
0.0117709 0.0175194 0.143887 0.529412 0.54902 0.54902 0
0.0113494 0.0234823 0.0557637 0.909804 0.443137 0.0313726 1
0.0163842 0.0160149 0.0254428 0.909804 0.443137 0.0313726 2
0.011213 0.0256637 0.0272901 0.909804 0.443137 0.0313726 2
0.0107821 0.0119211 0.0410373 0.909804 0.443137 0.0313726 2
0.00530115 0.020814 0.104041 0.529412 0.54902 0.54902 0
0.00437896 0.0218796 0.113078 0.529412 0.54902 0.54902 0
0.00423377 0.0216756 0.115227 0.529412 0.54902 0.54902 0
0.0089494 0.0124315 0.0487648 0.909804 0.443137 0.0313726 2
0.0124111 0.0170027 0.139459 0.529412 0.54902 0.54902 0
0.0113692 0.015916 0.0699866 0.529412 0.54902 0.54902 0
0.00578914 0.0223478 0.122278 0.529412 0.54902 0.54902 0
0.0073581 0.0210814 0.0993076 0.529412 0.54902 0.54902 0
0.00992724 0.0170799 0.15429 0.529412 0.54902 0.54902 0
0.0118614 0.0168204 0.0642178 0.529412 0.54902 0.54902 0
0.0130336 0.0226848 0.0538139 0.909804 0.443137 0.0313726 2
0.00856291 0.0201089 0.0864207 0.529412 0.54902 0.54902 0
0.00474047 0.0241682 0.00615447 0.909804 0.443137 0.0313726 2
0.0102476 0.0168213 0.103698 0.529412 0.54902 0.54902 0
0.00805272 0.0256611 0.0309319 0.909804 0.443137 0.0313726 2
0.0142776 0.0235819 0.035412 0.909804 0.443137 0.0313726 2
0.00997312 0.0234631 0.06231 0.909804 0.443137 0.0313726 1
0.0154637 0.0141039 0.0153695 0.909804 0.443137 0.0313726 2
0.0136192 0.0244648 0.0297387 0.909804 0.443137 0.0313726 2
0.0129058 0.014134 0.00303453 0.909804 0.443137 0.0313726 2
0.0111767 0.0242826 0.0033953 0.909804 0.443137 0.0313726 2
0.0156644 0.0151801 0.0346692 0.909804 0.443137 0.0313726 2
0.00978795 0.01912 0.0974695 0.529412 0.54902 0.54902 0
0.00506917 0.0246492 0.0223205 0.909804 0.443137 0.0313726 2
0.00998178 0.0227428 0.00243112 0.909804 0.443137 0.0313726 2
0.00998178 0.0189636 0.0786448 0.529412 0.54902 0.54902 0
0.0142219 0.015541 0.122682 0.529412 0.54902 0.54902 0
0.00954225 0.0173907 0.0826474 0.529412 0.54902 0.54902 0
0.0154856 0.0146241 0.0316051 0.909804 0.443137 0.0313726 2
0.0129016 0.014679 0.12628 0.529412 0.54902 0.54902 0
0.00193643 0.0187876 0.0104032 0.909804 0.443137 0.0313726 2
0.00794166 0.025416 0.00490666 0.909804 0.443137 0.0313726 2
0.0119431 0.0173804 0.104617 0.529412 0.54902 0.54902 0
0.00346998 0.0203461 0.0478358 0.909804 0.443137 0.0313726 2
0.00578745 0.0126649 0.0394086 0.909804 0.443137 0.0313726 2
0.0151474 0.0191397 0.0514131 0.909804 0.443137 0.0313726 2
0.0059803 0.0241094 0.0434101 0.909804 0.443137 0.0313726 2
0.00457233 0.0243101 0.0188126 0.909804 0.443137 0.0313726 2
0.00561143 0.0205636 0.10534 0.529412 0.54902 0.54902 0
0.0123587 0.0151172 0.0820569 0.529412 0.54902 0.54902 0
0.00708527 0.0213016 0.157888 0.529412 0.54902 0.54902 0
0.00268452 0.0214212 0.0307813 0.909804 0.443137 0.0313726 2
0.0125999 0.0149226 0.099419 0.529412 0.54902 0.54902 0
0.0137317 0.0143611 0.0716474 0.529412 0.54902 0.54902 0
0.0123827 0.0252796 0.0101792 0.909804 0.443137 0.0313726 2
0.00314933 0.0202142 0.0447289 0.909804 0.443137 0.0313726 2
0.00861362 0.0133504 0.0586323 0.909804 0.443137 0.0313726 1
0.00297193 0.01912 0.0450107 0.909804 0.443137 0.0313726 2
0.00961137 0.0192626 0.107434 0.529412 0.54902 0.54902 0
0.00692093 0.0214343 0.110188 0.529412 0.54902 0.54902 0
0.0109187 0.0162796 0.115245 0.529412 0.54902 0.54902 0
0.00835501 0.0234879 0.0606919 0.909804 0.443137 0.0313726 1
0.00702575 0.0115252 0.00768099 0.909804 0.443137 0.0313726 2
0.00502666 0.022682 0.0713381 0.529412 0.54902 0.54902 0
0.0135518 0.0160819 0.117188 0.529412 0.54902 0.54902 0
0.00409145 0.0231581 0.0360561 0.909804 0.443137 0.0313726 2
0.00782687 0.020703 0.0984094 0.529412 0.54902 0.54902 0
0.0161796 0.0180153 0.0394703 0.909804 0.443137 0.0313726 2
0.00573344 0.0250789 0.014708 0.909804 0.443137 0.0313726 2
0.0109022 0.0162929 0.125599 0.529412 0.54902 0.54902 0
0.00571675 0.0131044 0.0438496 0.909804 0.443137 0.0313726 2
0.00446896 0.0214858 0.12343 0.529412 0.54902 0.54902 0
0.0048543 0.0221855 0.0514131 0.909804 0.443137 0.0313726 2
0.0137669 0.0144047 0.0806633 0.529412 0.54902 0.54902 0
0.00410457 0.0193128 0.0564414 0.909804 0.443137 0.0313726 1
0.0159856 0.0149598 0.0137991 0.909804 0.443137 0.0313726 2
0.00998178 0.0146708 0.00234429 0.909804 0.443137 0.0313726 2
0.00314959 0.0202155 0.0447279 0.909804 0.443137 0.0313726 2
0.0124729 0.0117898 0.0274607 0.909804 0.443137 0.0313726 2
0.0107944 0.0183077 0.0942607 0.529412 0.54902 0.54902 0
0.0139377 0.0235889 0.0394086 0.909804 0.443137 0.0313726 2
0.0149723 0.022682 0.0367508 0.909804 0.443137 0.0313726 2
0.00816769 0.0185002 0.0871523 0.529412 0.54902 0.54902 0
0.00211556 0.0167056 0.0122839 0.909804 0.443137 0.0313726 2
0.00477347 0.0223683 0.109794 0.529412 0.54902 0.54902 0
0.0166907 0.0170386 0.0126346 0.909804 0.443137 0.0313726 2
0.00934102 0.0194808 0.112236 0.529412 0.54902 0.54902 0
0.00554077 0.0221383 0.0573469 0.909804 0.443137 0.0313726 1
0.00801487 0.0205513 0.105472 0.529412 0.54902 0.54902 0
0.0071251 0.0113472 0.0230166 0.909804 0.443137 0.0313726 2
0.0145327 0.016953 0.0550414 0.909804 0.443137 0.0313726 1
0.0106597 0.0184164 0.0802777 0.529412 0.54902 0.54902 0
0.00711368 0.0212787 0.0996848 0.529412 0.54902 0.54902 0
0.0113886 0.0255669 0.0290048 0.909804 0.443137 0.0313726 2
0.0131658 0.0144658 0.112567 0.529412 0.54902 0.54902 0
0.0132109 0.0144294 0.108234 0.529412 0.54902 0.54902 0
0.0056337 0.0247221 0.0316287 0.909804 0.443137 0.0313726 2
0.00807624 0.0240245 0.00306961 0.909804 0.443137 0.0313726 2
0.013183 0.0144519 0.120678 0.529412 0.54902 0.54902 0
0.0052824 0.0153046 0.0590574 0.909804 0.443137 0.0313726 1
0.00851573 0.0110348 0.0209299 0.909804 0.443137 0.0313726 2
0.00836243 0.0135286 0.0610166 0.909804 0.443137 0.0313726 1
0.00934102 0.0194808 0.143447 0.529412 0.54902 0.54902 0
0.0142219 0.015541 0.0728392 0.529412 0.54902 0.54902 0
0.00743112 0.0242379 0.0490717 0.909804 0.443137 0.0313726 2
0.00554077 0.0206206 0.142647 0.529412 0.54902 0.54902 0
0.0069091 0.011523 0.00899737 0.909804 0.443137 0.0313726 2
0.00694666 0.0214135 0.0722894 0.529412 0.54902 0.54902 0
0.0139668 0.0146524 0.0889394 0.529412 0.54902 0.54902 0
0.0103467 0.0167414 0.0780933 0.529412 0.54902 0.54902 0
0.0125949 0.0119174 0.0298162 0.909804 0.443137 0.0313726 2
0.00545545 0.0206895 0.0898518 0.529412 0.54902 0.54902 0
0.00387259 0.0231516 0.0329507 0.909804 0.443137 0.0313726 2
0.00495441 0.0138787 0.0454632 0.909804 0.443137 0.0313726 2
0.00850793 0.0201533 0.12711 0.529412 0.54902 0.54902 0
0.0132053 0.0127027 0.00463513 0.909804 0.443137 0.0313726 2
0.00973451 0.0114632 0.0358467 0.909804 0.443137 0.0313726 2
0.0112114 0.0151434 0.0628017 0.909804 0.443137 0.0313726 1
0.0152243 0.0183197 0.0509544 0.909804 0.443137 0.0313726 2
0.013183 0.0163796 0.0755699 0.529412 0.54902 0.54902 0
0.0122026 0.0152433 0.0821378 0.529412 0.54902 0.54902 0
0.0168586 0.0181728 0.0140601 0.909804 0.443137 0.0313726 2
0.01052 0.0185292 0.111075 0.529412 0.54902 0.54902 0
0.00454911 0.0214211 0.0727116 0.529412 0.54902 0.54902 0
0.0135228 0.0122146 0.01975 0.909804 0.443137 0.0313726 2
0.0142528 0.015516 0.107683 0.529412 0.54902 0.54902 0
0.0123366 0.0170628 0.14452 0.529412 0.54902 0.54902 0
0.00325878 0.0227287 0.0103573 0.909804 0.443137 0.0313726 2
0.00830782 0.011118 0.0114675 0.909804 0.443137 0.0313726 2
0.00293773 0.0156241 0.0361194 0.909804 0.443137 0.0313726 2
0.0149869 0.0234823 0.0145994 0.909804 0.443137 0.0313726 2
0.0127434 0.0242772 0.0413772 0.909804 0.443137 0.0313726 2
0.0152143 0.0138787 0.0250033 0.909804 0.443137 0.0313726 2
0.0138167 0.0240045 0.0352925 0.909804 0.443137 0.0313726 2
0.0167426 0.0190929 0.0270434 0.909804 0.443137 0.0313726 2
0.0139668 0.0146524 0.112197 0.529412 0.54902 0.54902 0
0.0059803 0.0221935 0.089027 0.529412 0.54902 0.54902 0
0.0141591 0.0240984 0.00786625 0.909804 0.443137 0.0313726 2
0.015639 0.0164407 0.0425663 0.909804 0.443137 0.0313726 2
0.0132215 0.012354 0.00561665 0.909804 0.443137 0.0313726 2
0.0152708 0.0155631 0.0427083 0.909804 0.443137 0.0313726 2
0.00904397 0.0249735 0.0443401 0.909804 0.443137 0.0313726 2
0.0100304 0.0169967 0.105997 0.529412 0.54902 0.54902 0
0.00613606 0.0220678 0.171097 0.529412 0.54902 0.54902 0
0.00720823 0.0113484 0.0248433 0.909804 0.443137 0.0313726 2
0.012014 0.0173232 0.1217 0.529412 0.54902 0.54902 0
0.00248691 0.0188217 0.0387822 0.909804 0.443137 0.0313726 2
0.0100055 0.0170167 0.100823 0.529412 0.54902 0.54902 0
0.00672258 0.0196667 0.0711374 0.529412 0.54902 0.54902 0
0.0154904 0.022878 0.0202015 0.909804 0.443137 0.0313726 2
0.0114072 0.017813 0.154494 0.529412 0.54902 0.54902 0
0.00332379 0.0225237 0.0314619 0.909804 0.443137 0.0313726 2
0.0134776 0.0145777 0.0526715 0.909804 0.443137 0.0313726 2
0.00811829 0.0239589 0.0534532 0.909804 0.443137 0.0313726 2
0.00254035 0.0158274 0.0297187 0.909804 0.443137 0.0313726 2
0.00774192 0.0188439 0.0849781 0.529412 0.54902 0.54902 0
0.0142219 0.0242448 0.0207769 0.909804 0.443137 0.0313726 2
0.0135036 0.0122703 0.0123934 0.909804 0.443137 0.0313726 2
0.0137763 0.0135201 0.0419958 0.909804 0.443137 0.0313726 2
0.0143682 0.0197363 0.059472 0.909804 0.443137 0.0313726 1
0.0123616 0.0151149 0.133738 0.529412 0.54902 0.54902 0
0.00641366 0.019916 0.108865 0.529412 0.54902 0.54902 0
0.0119584 0.0154404 0.171457 0.529412 0.54902 0.54902 0
0.00629938 0.0249751 0.0336423 0.909804 0.443137 0.0313726 2
0.00814376 0.0130408 0.0534992 0.909804 0.443137 0.0313726 2
0.00823508 0.0203735 0.0741534 0.529412 0.54902 0.54902 0
0.0142776 0.0154961 0.149489 0.529412 0.54902 0.54902 0
0.00918149 0.0196096 0.159453 0.529412 0.54902 0.54902 0
0.00717603 0.0193007 0.0957301 0.529412 0.54902 0.54902 0
0.013583 0.0215948 0.0580734 0.909804 0.443137 0.0313726 1
0.00422667 0.0216814 0.140685 0.529412 0.54902 0.54902 0
0.0103325 0.0186805 0.0946291 0.529412 0.54902 0.54902 0
0.00192632 0.0183088 0.0108821 0.909804 0.443137 0.0313726 2
0.00732301 0.0256743 0.0112947 0.909804 0.443137 0.0313726 2
0.0139565 0.0135935 0.0410092 0.909804 0.443137 0.0313726 2
0.0135913 0.0246379 0.0253826 0.909804 0.443137 0.0313726 2
0.00800612 0.0258321 0.011676 0.909804 0.443137 0.0313726 2
0.0042224 0.0216856 0.117037 0.529412 0.54902 0.54902 0
0.00782742 0.0255224 0.0330063 0.909804 0.443137 0.0313726 2
0.0115486 0.0157711 0.0755353 0.529412 0.54902 0.54902 0
0.00225492 0.016337 0.0264074 0.909804 0.443137 0.0313726 2
0.0122336 0.0127281 0.0448198 0.909804 0.443137 0.0313726 2
0.00491706 0.0211241 0.113544 0.529412 0.54902 0.54902 0
0.0115824 0.0176716 0.0670833 0.529412 0.54902 0.54902 0
0.0124286 0.0150608 0.107263 0.529412 0.54902 0.54902 0
0.00357653 0.0149519 0.0402701 0.909804 0.443137 0.0313726 2
0.0059803 0.0221935 0.0834249 0.529412 0.54902 0.54902 0
0.0144189 0.0173076 0.0587968 0.909804 0.443137 0.0313726 1
0.0122627 0.0171224 0.0725635 0.529412 0.54902 0.54902 0
0.0161235 0.0151893 0.0184837 0.909804 0.443137 0.0313726 2
0.00551127 0.0135076 0.0463596 0.909804 0.443137 0.0313726 2
0.00864114 0.0200457 0.143887 0.529412 0.54902 0.54902 0
0.0163915 0.0211601 0.0144925 0.909804 0.443137 0.0313726 2
0.0141926 0.0145312 0.0468599 0.909804 0.443137 0.0313726 2
0.00918149 0.0236148 0.0602163 0.909804 0.443137 0.0313726 1
0.00315735 0.0178802 0.0470615 0.909804 0.443137 0.0313726 2
0.00919246 0.017673 0.0981532 0.529412 0.54902 0.54902 0
0.0136669 0.0127177 0.00543542 0.909804 0.443137 0.0313726 2
0.00537855 0.0226793 0.146617 0.529412 0.54902 0.54902 0
0.0034742 0.0143183 0.032206 0.909804 0.443137 0.0313726 2
0.0127434 0.0148067 0.0834249 0.529412 0.54902 0.54902 0
0.00190904 0.0187502 0.0251539 0.909804 0.443137 0.0313726 2
0.0168261 0.0180406 0.0241079 0.909804 0.443137 0.0313726 2
0.0119081 0.0174087 0.0935336 0.529412 0.54902 0.54902 0
0.00350848 0.0231835 0.0131494 0.909804 0.443137 0.0313726 2
0.00531987 0.0248255 0.0145392 0.909804 0.443137 0.0313726 2
0.014344 0.0158773 0.00304053 0.909804 0.443137 0.0313726 2
0.00186147 0.0180904 0.021999 0.909804 0.443137 0.0313726 2
0.00238519 0.0181952 0.0370269 0.909804 0.443137 0.0313726 2
0.00480546 0.0211026 0.0578154 0.909804 0.443137 0.0313726 1
0.0042023 0.0205739 0.0538139 0.909804 0.443137 0.0313726 2
0.00557573 0.0239656 0.00409344 0.909804 0.443137 0.0313726 2
0.00796067 0.0129603 0.0523846 0.909804 0.443137 0.0313726 2
0.0151443 0.0150968 0.00419559 0.909804 0.443137 0.0313726 2
0.0134766 0.024742 0.0247678 0.909804 0.443137 0.0313726 2
0.00828604 0.0249785 0.0432103 0.909804 0.443137 0.0313726 2
0.00398663 0.0234025 0.0309379 0.909804 0.443137 0.0313726 2
0.00208712 0.0176184 0.0296811 0.909804 0.443137 0.0313726 2
0.00714136 0.0212563 0.124509 0.529412 0.54902 0.54902 0
0.0113656 0.0159189 0.081024 0.529412 0.54902 0.54902 0
0.015464 0.0184515 0.0486227 0.909804 0.443137 0.0313726 2
0.015155 0.0137 0.0177544 0.909804 0.443137 0.0313726 2
0.00486852 0.0224861 0.0936275 0.529412 0.54902 0.54902 0
0.0123827 0.0170256 0.0946291 0.529412 0.54902 0.54902 0
0.00339081 0.0155566 0.041929 0.909804 0.443137 0.0313726 2
0.00954225 0.0193184 0.168323 0.529412 0.54902 0.54902 0
0.0150482 0.0218905 0.0423858 0.909804 0.443137 0.0313726 2
0.0111428 0.0160987 0.0882267 0.529412 0.54902 0.54902 0
0.0136558 0.0159979 0.142217 0.529412 0.54902 0.54902 0
0.0130702 0.0128906 0.0411293 0.909804 0.443137 0.0313726 2
0.00691067 0.0254686 0.00868817 0.909804 0.443137 0.0313726 2
0.00736245 0.0210779 0.104244 0.529412 0.54902 0.54902 0
0.015879 0.0207253 0.0386083 0.909804 0.443137 0.0313726 2
0.0138711 0.0145339 0.0950141 0.529412 0.54902 0.54902 0
0.00634107 0.0219023 0.104646 0.529412 0.54902 0.54902 0
0.00206231 0.0197324 0.00899346 0.909804 0.443137 0.0313726 2
0.012835 0.0135662 0.0493268 0.909804 0.443137 0.0313726 2
0.00547834 0.0139098 0.0495252 0.909804 0.443137 0.0313726 2
0.0142071 0.0149501 0.086121 0.529412 0.54902 0.54902 0
0.0166565 0.0202362 0.0230463 0.909804 0.443137 0.0313726 2
0.00954225 0.0193184 0.0941396 0.529412 0.54902 0.54902 0
0.013183 0.0163796 0.161054 0.529412 0.54902 0.54902 0
0.00694092 0.0194904 0.137599 0.529412 0.54902 0.54902 0
0.00487831 0.0125651 0.0103453 0.909804 0.443137 0.0313726 2
0.00380673 0.0202983 0.0512653 0.909804 0.443137 0.0313726 2
0.0118387 0.0174647 0.0738214 0.529412 0.54902 0.54902 0
0.00582212 0.0223212 0.079597 0.529412 0.54902 0.54902 0
0.00197591 0.0196291 0.0124522 0.909804 0.443137 0.0313726 2
0.00541688 0.0207206 0.124652 0.529412 0.54902 0.54902 0
0.0100795 0.016957 0.0962296 0.529412 0.54902 0.54902 0
0.0075809 0.025788 0.0220217 0.909804 0.443137 0.0313726 2
0.0139543 0.015757 0.0724696 0.529412 0.54902 0.54902 0
0.00478235 0.0223793 0.0905627 0.529412 0.54902 0.54902 0
0.0040347 0.0132708 0.0120305 0.909804 0.443137 0.0313726 2
0.00998178 0.0189636 0.0718541 0.529412 0.54902 0.54902 0
0.0163216 0.0157867 0.0250033 0.909804 0.443137 0.0313726 2
0.00258876 0.0152609 0.0220721 0.909804 0.443137 0.0313726 2
0.00311865 0.0227115 0.0189291 0.909804 0.443137 0.0313726 2
0.0111428 0.0160987 0.090564 0.529412 0.54902 0.54902 0
0.00554077 0.0225483 0.151089 0.529412 0.54902 0.54902 0
0.0164321 0.0207966 0.0258812 0.909804 0.443137 0.0313726 2
0.00596873 0.0222029 0.0946291 0.529412 0.54902 0.54902 0
0.00667168 0.0216355 0.145025 0.529412 0.54902 0.54902 0
0.0101644 0.0188162 0.168379 0.529412 0.54902 0.54902 0
0.00714136 0.0114411 0.00899737 0.909804 0.443137 0.0313726 2
0.011573 0.0176792 0.136519 0.529412 0.54902 0.54902 0
0.00774717 0.0207673 0.086517 0.529412 0.54902 0.54902 0
0.011776 0.0155876 0.153511 0.529412 0.54902 0.54902 0
0.00233959 0.0158119 0.0202015 0.909804 0.443137 0.0313726 2
0.00428614 0.017787 0.0600183 0.909804 0.443137 0.0313726 1
0.0120661 0.0114805 0.0202632 0.909804 0.443137 0.0313726 2
0.00944596 0.0110828 0.0265408 0.909804 0.443137 0.0313726 2
0.00340832 0.0138787 0.0190177 0.909804 0.443137 0.0313726 2
0.00782687 0.020703 0.0859597 0.529412 0.54902 0.54902 0
0.0123158 0.0170796 0.0884514 0.529412 0.54902 0.54902 0
0.0092045 0.0154392 0.00229948 0.909804 0.443137 0.0313726 2
0.0168501 0.0181123 0.0222416 0.909804 0.443137 0.0313726 2
0.00888187 0.0198514 0.0715267 0.529412 0.54902 0.54902 0
0.00364611 0.0222619 0.0394086 0.909804 0.443137 0.0313726 2
0.0075809 0.0251654 0.0384894 0.909804 0.443137 0.0313726 2
0.00989368 0.0190347 0.159893 0.529412 0.54902 0.54902 0
0.013824 0.0132159 0.0382476 0.909804 0.443137 0.0313726 2
0.00506938 0.0210011 0.0850255 0.529412 0.54902 0.54902 0
0.0073998 0.01912 0.116237 0.529412 0.54902 0.54902 0
0.0107821 0.013333 0.0558541 0.909804 0.443137 0.0313726 1
0.0139953 0.0157239 0.161054 0.529412 0.54902 0.54902 0
0.0130702 0.0120404 0.0114915 0.909804 0.443137 0.0313726 2
0.012314 0.017081 0.0800299 0.529412 0.54902 0.54902 0
0.0108822 0.0256011 0.0315289 0.909804 0.443137 0.0313726 2
0.00621336 0.0186404 0.00229948 0.909804 0.443137 0.0313726 2
0.0118671 0.015514 0.0841661 0.529412 0.54902 0.54902 0
0.00805272 0.024296 0.0502035 0.909804 0.443137 0.0313726 2
0.01487 0.0171237 0.052802 0.909804 0.443137 0.0313726 2
0.00506256 0.0227265 0.0817886 0.529412 0.54902 0.54902 0
0.0075809 0.0256223 0.00712663 0.909804 0.443137 0.0313726 2
0.0038093 0.0231215 0.0323213 0.909804 0.443137 0.0313726 2
0.00875573 0.025989 0.015926 0.909804 0.443137 0.0313726 2
0.0140489 0.0147541 0.0744413 0.529412 0.54902 0.54902 0
0.0115824 0.0255337 0.0282045 0.909804 0.443137 0.0313726 2
0.00794166 0.0206104 0.164767 0.529412 0.54902 0.54902 0
0.0113321 0.0159459 0.0882267 0.529412 0.54902 0.54902 0
0.0150746 0.021853 0.0423484 0.909804 0.443137 0.0313726 2
0.0155839 0.0218823 0.0354071 0.909804 0.443137 0.0313726 2
0.0059614 0.0202811 0.107587 0.529412 0.54902 0.54902 0
0.00662967 0.0197417 0.0764543 0.529412 0.54902 0.54902 0
0.0158353 0.0218817 0.0304814 0.909804 0.443137 0.0313726 2
0.00634107 0.0199746 0.0954175 0.529412 0.54902 0.54902 0
0.00457013 0.0221164 0.111233 0.529412 0.54902 0.54902 0
0.0134766 0.0161426 0.110603 0.529412 0.54902 0.54902 0
0.00379102 0.0203315 0.051013 0.909804 0.443137 0.0313726 2
0.00474047 0.0223274 0.112994 0.529412 0.54902 0.54902 0
0.0125999 0.0124686 0.0393437 0.909804 0.443137 0.0313726 2
0.00742557 0.0247867 0.0430184 0.909804 0.443137 0.0313726 2
0.00283453 0.0212501 0.0352448 0.909804 0.443137 0.0313726 2
0.00518001 0.0209118 0.0790627 0.529412 0.54902 0.54902 0
0.0123827 0.0170256 0.164335 0.529412 0.54902 0.54902 0
0.00197882 0.0170695 0.0211757 0.909804 0.443137 0.0313726 2
0.0067806 0.0122781 0.0409395 0.909804 0.443137 0.0313726 2
0.0140115 0.0125991 0.0156074 0.909804 0.443137 0.0313726 2
0.00224389 0.0164014 0.00990427 0.909804 0.443137 0.0313726 2
0.00756252 0.0114909 0.0319636 0.909804 0.443137 0.0313726 2
0.0136513 0.0160016 0.107873 0.529412 0.54902 0.54902 0
0.00933527 0.0194854 0.145425 0.529412 0.54902 0.54902 0
0.00991434 0.0257513 0.0311827 0.909804 0.443137 0.0313726 2
0.0102512 0.0116593 0.038414 0.909804 0.443137 0.0313726 2
0.011676 0.0156683 0.104672 0.529412 0.54902 0.54902 0
0.012938 0.0119495 0.0120926 0.909804 0.443137 0.0313726 2
0.00839126 0.0183197 0.128635 0.529412 0.54902 0.54902 0
0.0117888 0.0248354 0.0402089 0.909804 0.443137 0.0313726 2
0.0123154 0.0170799 0.0747457 0.529412 0.54902 0.54902 0
0.00452726 0.0220633 0.0953449 0.529412 0.54902 0.54902 0
0.0123023 0.0151628 0.0694591 0.529412 0.54902 0.54902 0
0.00421468 0.017642 0.0583049 0.909804 0.443137 0.0313726 1
0.0119584 0.0154404 0.0946291 0.529412 0.54902 0.54902 0
0.0127427 0.016735 0.15145 0.529412 0.54902 0.54902 0
0.00474047 0.0212666 0.0763372 0.529412 0.54902 0.54902 0
0.0168355 0.0185641 0.0121986 0.909804 0.443137 0.0313726 2
0.00398412 0.0207206 0.0513869 0.909804 0.443137 0.0313726 2
0.00555404 0.0225376 0.157013 0.529412 0.54902 0.54902 0
0.0111428 0.0241601 0.0503023 0.909804 0.443137 0.0313726 2
0.00835883 0.0202736 0.161054 0.529412 0.54902 0.54902 0
0.0145512 0.0130784 0.0215793 0.909804 0.443137 0.0313726 2
0.00442542 0.0215209 0.105271 0.529412 0.54902 0.54902 0
0.0135859 0.0122781 0.0210018 0.909804 0.443137 0.0313726 2
0.01052 0.0185292 0.0702594 0.529412 0.54902 0.54902 0
0.00282368 0.016971 0.0411091 0.909804 0.443137 0.0313726 2
0.0137777 0.0218817 0.0538139 0.909804 0.443137 0.0313726 2
0.0135697 0.0160674 0.125681 0.529412 0.54902 0.54902 0
0.00939546 0.0254229 0.0379957 0.909804 0.443137 0.0313726 2
0.0162172 0.0186805 0.0391538 0.909804 0.443137 0.0313726 2
0.00316429 0.0227115 0.0228346 0.909804 0.443137 0.0313726 2
0.00341689 0.015276 0.0404419 0.909804 0.443137 0.0313726 2
0.016306 0.020845 0.0296741 0.909804 0.443137 0.0313726 2
0.00437971 0.0215578 0.110626 0.529412 0.54902 0.54902 0
0.00505368 0.0210138 0.0896659 0.529412 0.54902 0.54902 0
0.00437971 0.0235948 0.00509913 0.909804 0.443137 0.0313726 2
0.00879649 0.0199203 0.0966692 0.529412 0.54902 0.54902 0
0.0123827 0.0138274 0.0538443 0.909804 0.443137 0.0313726 2
0.00554077 0.0227579 0.0523076 0.909804 0.443137 0.0313726 2
0.0059803 0.0252202 0.0178006 0.909804 0.443137 0.0313726 2
0.0075809 0.0244486 0.0474116 0.909804 0.443137 0.0313726 2
0.0103742 0.0167192 0.131443 0.529412 0.54902 0.54902 0
0.00243394 0.0204479 0.00534758 0.909804 0.443137 0.0313726 2
0.0089851 0.0197681 0.128241 0.529412 0.54902 0.54902 0
0.0113924 0.0236383 0.0541647 0.909804 0.443137 0.0313726 2
0.0168845 0.0184394 0.0157888 0.909804 0.443137 0.0313726 2
0.00195284 0.0175194 0.0126737 0.909804 0.443137 0.0313726 2
0.00822447 0.0203821 0.151726 0.529412 0.54902 0.54902 0
0.00447106 0.0170799 0.0606559 0.909804 0.443137 0.0313726 1
0.0125242 0.0169114 0.0997039 0.529412 0.54902 0.54902 0
0.00893578 0.0178802 0.141486 0.529412 0.54902 0.54902 0
0.00435419 0.0238433 0.00647937 0.909804 0.443137 0.0313726 2
0.0116693 0.0124513 0.0444127 0.909804 0.443137 0.0313726 2
0.0134009 0.014276 0.108746 0.529412 0.54902 0.54902 0
0.0107475 0.0183455 0.068773 0.529412 0.54902 0.54902 0
0.00490337 0.0225293 0.110786 0.529412 0.54902 0.54902 0
0.0165866 0.0183197 0.0321959 0.909804 0.443137 0.0313726 2
0.0164617 0.0173076 0.0327656 0.909804 0.443137 0.0313726 2
0.0137549 0.015918 0.120418 0.529412 0.54902 0.54902 0
0.0123154 0.0170799 0.0838 0.529412 0.54902 0.54902 0
0.00541688 0.0207206 0.119438 0.529412 0.54902 0.54902 0
0.00831817 0.0246874 0.0466864 0.909804 0.443137 0.0313726 2
0.0143936 0.0151812 0.116019 0.529412 0.54902 0.54902 0
0.00618825 0.0220257 0.0931812 0.529412 0.54902 0.54902 0
0.00878918 0.012087 0.044777 0.909804 0.443137 0.0313726 2
0.00393222 0.0158992 0.0495089 0.909804 0.443137 0.0313726 2
0.0157964 0.014679 0.0237295 0.909804 0.443137 0.0313726 2
0.013107 0.0224007 0.0548355 0.909804 0.443137 0.0313726 1
0.00687279 0.0195454 0.0938288 0.529412 0.54902 0.54902 0
0.0160842 0.0219026 0.019252 0.909804 0.443137 0.0313726 2
0.00316251 0.0220319 0.0343219 0.909804 0.443137 0.0313726 2
0.0102376 0.0187571 0.169857 0.529412 0.54902 0.54902 0
0.00514948 0.0226176 0.0507229 0.909804 0.443137 0.0313726 2
0.0067806 0.0215475 0.0954294 0.529412 0.54902 0.54902 0
0.0157414 0.0171983 0.0438658 0.909804 0.443137 0.0313726 2
0.0107821 0.0256914 0.00659648 0.909804 0.443137 0.0313726 2
0.0049297 0.0225619 0.106163 0.529412 0.54902 0.54902 0
0.00978272 0.0256317 0.0341174 0.909804 0.443137 0.0313726 2
0.00724215 0.021175 0.10101 0.529412 0.54902 0.54902 0
0.00775383 0.0111645 0.0210996 0.909804 0.443137 0.0313726 2
0.0108476 0.016337 0.0706343 0.529412 0.54902 0.54902 0
0.011546 0.0177009 0.0998532 0.529412 0.54902 0.54902 0
0.0139117 0.0244438 0.013225 0.909804 0.443137 0.0313726 2
0.0034447 0.0210814 0.0446499 0.909804 0.443137 0.0313726 2
0.0108265 0.0182817 0.114715 0.529412 0.54902 0.54902 0
0.00458015 0.022682 0.0457535 0.909804 0.443137 0.0313726 2
0.00838351 0.025481 0.0359106 0.909804 0.443137 0.0313726 2
0.014344 0.0134824 0.0354071 0.909804 0.443137 0.0313726 2
0.00695286 0.0194808 0.161493 0.529412 0.54902 0.54902 0
0.0100943 0.0252919 0.0396181 0.909804 0.443137 0.0313726 2
0.00821359 0.0184632 0.106461 0.529412 0.54902 0.54902 0
0.00856291 0.0201089 0.095475 0.529412 0.54902 0.54902 0
0.00491245 0.0211278 0.11446 0.529412 0.54902 0.54902 0
0.00874195 0.011014 0.0209506 0.909804 0.443137 0.0313726 2
0.0042224 0.0216856 0.138645 0.529412 0.54902 0.54902 0
0.0106364 0.0184352 0.0658206 0.529412 0.54902 0.54902 0
0.0100795 0.016957 0.132243 0.529412 0.54902 0.54902 0
0.0109187 0.0162796 0.120467 0.529412 0.54902 0.54902 0
0.0135437 0.022311 0.0529924 0.909804 0.443137 0.0313726 2
0.00446808 0.0170045 0.0602163 0.909804 0.443137 0.0313726 1
0.0108822 0.0182368 0.0695678 0.529412 0.54902 0.54902 0
0.00944789 0.0113114 0.0330063 0.909804 0.443137 0.0313726 2
0.00198296 0.0199203 0.0218021 0.909804 0.443137 0.0313726 2
0.0114796 0.0158268 0.138828 0.529412 0.54902 0.54902 0
0.00537518 0.022682 0.100231 0.529412 0.54902 0.54902 0
0.00893578 0.0178802 0.12468 0.529412 0.54902 0.54902 0
0.013656 0.0159978 0.10702 0.529412 0.54902 0.54902 0
0.00365437 0.0199901 0.0506128 0.909804 0.443137 0.0313726 2
0.00986063 0.0122632 0.0468867 0.909804 0.443137 0.0313726 2
0.0127434 0.0132267 0.0467933 0.909804 0.443137 0.0313726 2
0.00813267 0.0204562 0.100704 0.529412 0.54902 0.54902 0
0.0159446 0.0214262 0.0326455 0.909804 0.443137 0.0313726 2
0.00874195 0.0199644 0.0694591 0.529412 0.54902 0.54902 0
0.00250554 0.0162796 0.0328282 0.909804 0.443137 0.0313726 2
0.0089494 0.0214858 0.0625513 0.909804 0.443137 0.0313726 2
0.00352556 0.0219929 0.0400173 0.909804 0.443137 0.0313726 2
0.00879649 0.0199203 0.12548 0.529412 0.54902 0.54902 0
0.0071258 0.0212689 0.101239 0.529412 0.54902 0.54902 0
0.0019061 0.0193739 0.0214027 0.909804 0.443137 0.0313726 2
0.0113633 0.0159207 0.109982 0.529412 0.54902 0.54902 0
0.0116637 0.017606 0.141119 0.529412 0.54902 0.54902 0
0.00805272 0.0259186 0.0194703 0.909804 0.443137 0.0313726 2
0.00445028 0.0219679 0.164694 0.529412 0.54902 0.54902 0
0.00377095 0.0137797 0.00634683 0.909804 0.443137 0.0313726 2
0.00729215 0.0192069 0.143887 0.529412 0.54902 0.54902 0
0.0140023 0.0242751 0.0094369 0.909804 0.443137 0.0313726 2
0.0139833 0.0146728 0.149489 0.529412 0.54902 0.54902 0
0.00301001 0.0200735 0.0434101 0.909804 0.443137 0.0313726 2
0.00233959 0.0206477 0.00703602 0.909804 0.443137 0.0313726 2
0.0065782 0.0244943 0.0425598 0.909804 0.443137 0.0313726 2
0.00306375 0.0187502 0.00364989 0.909804 0.443137 0.0313726 2
0.0153809 0.0223068 0.0345286 0.909804 0.443137 0.0313726 2
0.00784931 0.01161 0.0356895 0.909804 0.443137 0.0313726 2
0.00368095 0.0197063 0.0515119 0.909804 0.443137 0.0313726 2
0.0127428 0.0148073 0.12344 0.529412 0.54902 0.54902 0
0.0136886 0.0123365 0.0184039 0.909804 0.443137 0.0313726 2
0.0104139 0.0234605 0.0610166 0.909804 0.443137 0.0313726 1
0.0030324 0.0199203 0.0442104 0.909804 0.443137 0.0313726 2
0.00580913 0.0128167 0.0412923 0.909804 0.443137 0.0313726 2
0.00480274 0.012812 0.00579619 0.909804 0.443137 0.0313726 2
0.00434288 0.0218349 0.0887336 0.529412 0.54902 0.54902 0
0.0129016 0.014679 0.119077 0.529412 0.54902 0.54902 0
0.0137538 0.0159189 0.131082 0.529412 0.54902 0.54902 0
0.00501868 0.0227018 0.0492161 0.909804 0.443137 0.0313726 2
0.00721684 0.0208507 0.0657352 0.529412 0.54902 0.54902 0
0.0128049 0.0147571 0.0911729 0.529412 0.54902 0.54902 0
0.0156744 0.0207206 0.0414487 0.909804 0.443137 0.0313726 2
0.00442225 0.0219332 0.117995 0.529412 0.54902 0.54902 0
0.00424596 0.0216658 0.114304 0.529412 0.54902 0.54902 0
0.0115824 0.01198 0.0387148 0.909804 0.443137 0.0313726 2
0.0114228 0.0158727 0.116311 0.529412 0.54902 0.54902 0
0.00580974 0.0221993 0.0599178 0.909804 0.443137 0.0313726 1
0.00815399 0.020439 0.105123 0.529412 0.54902 0.54902 0
0.00208858 0.0204241 0.0178006 0.909804 0.443137 0.0313726 2
0.00373302 0.0204916 0.0499539 0.909804 0.443137 0.0313726 2
0.0131891 0.014447 0.113434 0.529412 0.54902 0.54902 0
0.0139948 0.014687 0.0970299 0.529412 0.54902 0.54902 0
0.00585184 0.0222972 0.158408 0.529412 0.54902 0.54902 0
0.00559 0.0248452 0.0282045 0.909804 0.443137 0.0313726 2
0.00240867 0.0176184 0.0364718 0.909804 0.443137 0.0313726 2
0.00682633 0.0195829 0.156497 0.529412 0.54902 0.54902 0
0.0114486 0.0177796 0.0904014 0.529412 0.54902 0.54902 0
0.00493953 0.0129417 0.0349269 0.909804 0.443137 0.0313726 2
0.00954225 0.0193184 0.0737674 0.529412 0.54902 0.54902 0
0.0148061 0.0171563 0.0534532 0.909804 0.443137 0.0313726 2
0.00453796 0.0214301 0.130564 0.529412 0.54902 0.54902 0
0.0116871 0.0113358 0.0186009 0.909804 0.443137 0.0313726 2
0.00304412 0.0222423 0.00703602 0.909804 0.443137 0.0313726 2
0.00998178 0.0253229 0.0394086 0.909804 0.443137 0.0313726 2
0.0166955 0.0186811 0.0296119 0.909804 0.443137 0.0313726 2
0.00544883 0.0226225 0.126538 0.529412 0.54902 0.54902 0
0.00478707 0.021229 0.147088 0.529412 0.54902 0.54902 0
0.0129786 0.0230956 0.00321006 0.909804 0.443137 0.0313726 2
0.00402198 0.0237569 0.0232131 0.909804 0.443137 0.0313726 2
0.00937643 0.0175245 0.0857104 0.529412 0.54902 0.54902 0
0.00437971 0.0240965 0.0135271 0.909804 0.443137 0.0313726 2
0.00437971 0.0215578 0.114488 0.529412 0.54902 0.54902 0
0.00692093 0.0214343 0.109057 0.529412 0.54902 0.54902 0
0.00879649 0.0199203 0.0834134 0.529412 0.54902 0.54902 0
0.00954225 0.0173907 0.0655045 0.529412 0.54902 0.54902 0
0.00756252 0.0122425 0.0039045 0.909804 0.443137 0.0313726 2
0.0125551 0.0168864 0.090169 0.529412 0.54902 0.54902 0
0.00222069 0.020204 0.00702236 0.909804 0.443137 0.0313726 2
0.0115824 0.0120001 0.0390479 0.909804 0.443137 0.0313726 2
0.00550159 0.0239218 0.0419469 0.909804 0.443137 0.0313726 2
0.00569678 0.0143183 0.0538139 0.909804 0.443137 0.0313726 2
0.00887371 0.0179303 0.101445 0.529412 0.54902 0.54902 0
0.00554077 0.0225483 0.0813406 0.529412 0.54902 0.54902 0
0.00518001 0.0228395 0.0792961 0.529412 0.54902 0.54902 0
0.00982732 0.0111384 0.0282105 0.909804 0.443137 0.0313726 2
0.00754374 0.0190038 0.127788 0.529412 0.54902 0.54902 0
0.00554077 0.0206206 0.109645 0.529412 0.54902 0.54902 0
0.0144343 0.0153696 0.0998667 0.529412 0.54902 0.54902 0
0.00459368 0.0221456 0.074331 0.529412 0.54902 0.54902 0
0.012014 0.0254215 0.00956356 0.909804 0.443137 0.0313726 2
0.0160249 0.01912 0.0414487 0.909804 0.443137 0.0313726 2
0.00918149 0.0196096 0.0859214 0.529412 0.54902 0.54902 0
0.0107514 0.0164147 0.104817 0.529412 0.54902 0.54902 0
0.00996116 0.0170525 0.105455 0.529412 0.54902 0.54902 0
0.0095153 0.0193401 0.126684 0.529412 0.54902 0.54902 0
0.0119431 0.0154527 0.067128 0.529412 0.54902 0.54902 0
0.0121496 0.0172137 0.0657703 0.529412 0.54902 0.54902 0
0.0159446 0.0217998 0.0287137 0.909804 0.443137 0.0313726 2
0.00496994 0.0210814 0.160921 0.529412 0.54902 0.54902 0
0.00961137 0.0192626 0.0746216 0.529412 0.54902 0.54902 0
0.0159446 0.0149425 0.012495 0.909804 0.443137 0.0313726 2
0.00349868 0.0137715 0.0170003 0.909804 0.443137 0.0313726 2
0.0142528 0.015516 0.116408 0.529412 0.54902 0.54902 0
0.00505638 0.0210116 0.096969 0.529412 0.54902 0.54902 0
0.00277912 0.0159898 0.0358467 0.909804 0.443137 0.0313726 2
0.00926741 0.0195402 0.0910671 0.529412 0.54902 0.54902 0
0.00992724 0.0170799 0.0981277 0.529412 0.54902 0.54902 0
0.0119431 0.0154527 0.104233 0.529412 0.54902 0.54902 0
0.00233959 0.0212005 0.0179283 0.909804 0.443137 0.0313726 2
0.00775787 0.0207587 0.0661534 0.529412 0.54902 0.54902 0
0.0122318 0.0152197 0.152923 0.529412 0.54902 0.54902 0
0.0108639 0.0182515 0.0778228 0.529412 0.54902 0.54902 0
0.0158026 0.0167192 0.0415981 0.909804 0.443137 0.0313726 2
0.00985084 0.0246508 0.0478511 0.909804 0.443137 0.0313726 2
0.0107821 0.0163899 0.100671 0.529412 0.54902 0.54902 0
0.0105877 0.0122421 0.0455195 0.909804 0.443137 0.0313726 2
0.0075809 0.0113086 0.0269365 0.909804 0.443137 0.0313726 2
0.0112634 0.0179291 0.134005 0.529412 0.54902 0.54902 0
0.0145003 0.0153133 0.137045 0.529412 0.54902 0.54902 0
0.0123827 0.0170256 0.146648 0.529412 0.54902 0.54902 0
0.00554077 0.0150357 0.059416 0.909804 0.443137 0.0313726 1
0.0067806 0.0254076 0.0282045 0.909804 0.443137 0.0313726 2
0.00794166 0.0186827 0.15065 0.529412 0.54902 0.54902 0
0.011213 0.0179698 0.103706 0.529412 0.54902 0.54902 0
0.00629933 0.021936 0.135494 0.529412 0.54902 0.54902 0
0.0139953 0.0157239 0.117037 0.529412 0.54902 0.54902 0
0.0105262 0.0165965 0.0683825 0.529412 0.54902 0.54902 0
0.0080433 0.0186006 0.143865 0.529412 0.54902 0.54902 0
0.00616363 0.0123193 0.0373418 0.909804 0.443137 0.0313726 2
0.00554077 0.0206206 0.156252 0.529412 0.54902 0.54902 0
0.014344 0.0154424 0.169496 0.529412 0.54902 0.54902 0
0.00327341 0.0228779 0.022158 0.909804 0.443137 0.0313726 2
0.0115824 0.0176716 0.0648197 0.529412 0.54902 0.54902 0
0.0155839 0.0157384 0.0398482 0.909804 0.443137 0.0313726 2
0.00234747 0.016478 0.030446 0.909804 0.443137 0.0313726 2
0.00942284 0.0174871 0.120103 0.529412 0.54902 0.54902 0
0.00600756 0.0120015 0.0300497 0.909804 0.443137 0.0313726 2
0.0147836 0.0200779 0.0530137 0.909804 0.443137 0.0313726 2
0.00861484 0.020067 0.113475 0.529412 0.54902 0.54902 0
0.0040756 0.0154141 0.0483592 0.909804 0.443137 0.0313726 2
0.00645582 0.019882 0.110038 0.529412 0.54902 0.54902 0
0.013944 0.0127083 0.0278004 0.909804 0.443137 0.0313726 2
0.00888384 0.0198498 0.111202 0.529412 0.54902 0.54902 0
0.00554077 0.0225483 0.116426 0.529412 0.54902 0.54902 0
0.0164176 0.0185448 0.0358467 0.909804 0.443137 0.0313726 2
0.00471507 0.0234823 0.0398482 0.909804 0.443137 0.0313726 2
0.00554077 0.0206206 0.149849 0.529412 0.54902 0.54902 0
0.0101465 0.0169029 0.0849404 0.529412 0.54902 0.54902 0
0.01052 0.0185292 0.127881 0.529412 0.54902 0.54902 0
0.0145379 0.0157004 0.0508395 0.909804 0.443137 0.0313726 2
0.0140699 0.0156637 0.151291 0.529412 0.54902 0.54902 0
0.00321338 0.0221966 0.0335356 0.909804 0.443137 0.0313726 2
0.00584001 0.0223068 0.163235 0.529412 0.54902 0.54902 0
0.00804079 0.0205303 0.0657356 0.529412 0.54902 0.54902 0
0.00668582 0.021624 0.13297 0.529412 0.54902 0.54902 0
0.0100464 0.0189114 0.0741971 0.529412 0.54902 0.54902 0
0.0108588 0.016328 0.120893 0.529412 0.54902 0.54902 0
0.00573344 0.0247927 0.0315289 0.909804 0.443137 0.0313726 2
0.0123428 0.0170578 0.170558 0.529412 0.54902 0.54902 0
0.0137117 0.0246005 0.0230405 0.909804 0.443137 0.0313726 2
0.00818209 0.0110874 0.0226597 0.909804 0.443137 0.0313726 2
0.00794432 0.0186805 0.121615 0.529412 0.54902 0.54902 0
0.00491785 0.0124494 0.0221692 0.909804 0.443137 0.0313726 2
0.00529894 0.0208158 0.124519 0.529412 0.54902 0.54902 0
0.0104277 0.0112422 0.0295024 0.909804 0.443137 0.0313726 2
0.0134975 0.0238517 0.0404415 0.909804 0.443137 0.0313726 2
0.0125989 0.0168511 0.0830209 0.529412 0.54902 0.54902 0
0.0129966 0.0223486 0.0569007 0.909804 0.443137 0.0313726 1
0.00918149 0.0176819 0.0918674 0.529412 0.54902 0.54902 0
0.0139953 0.0157239 0.138645 0.529412 0.54902 0.54902 0
0.0121612 0.0115548 0.0232642 0.909804 0.443137 0.0313726 2
0.00555404 0.0225376 0.108995 0.529412 0.54902 0.54902 0
0.012014 0.0240829 0.0477158 0.909804 0.443137 0.0313726 2
0.0095153 0.0193401 0.117802 0.529412 0.54902 0.54902 0
0.0114822 0.0158248 0.0913139 0.529412 0.54902 0.54902 0
0.00681358 0.0215209 0.15189 0.529412 0.54902 0.54902 0
0.0144286 0.0152617 0.0495248 0.909804 0.443137 0.0313726 2
0.0148635 0.0160819 0.00335573 0.909804 0.443137 0.0313726 2
0.0100719 0.0257132 0.0318504 0.909804 0.443137 0.0313726 2
0.00554077 0.0225483 0.123879 0.529412 0.54902 0.54902 0
0.0162454 0.0215209 0.0205068 0.909804 0.443137 0.0313726 2
0.0099739 0.011301 0.032374 0.909804 0.443137 0.0313726 2
0.00945327 0.0174625 0.113036 0.529412 0.54902 0.54902 0
0.00457774 0.0242826 0.0142387 0.909804 0.443137 0.0313726 2
0.0130107 0.0119174 0.0182402 0.909804 0.443137 0.0313726 2
0.00838119 0.0202556 0.0968302 0.529412 0.54902 0.54902 0
0.0103325 0.0186805 0.118638 0.529412 0.54902 0.54902 0
0.00785795 0.0187502 0.0964566 0.529412 0.54902 0.54902 0
0.0123154 0.0170799 0.0786231 0.529412 0.54902 0.54902 0
0.014793 0.0148099 0.0431859 0.909804 0.443137 0.0313726 2
0.0019391 0.0176884 0.0246425 0.909804 0.443137 0.0313726 2
0.0116896 0.0122864 0.042249 0.909804 0.443137 0.0313726 2
0.00757446 0.0189791 0.0690196 0.529412 0.54902 0.54902 0
0.00464563 0.0213432 0.100136 0.529412 0.54902 0.54902 0
0.00943961 0.0174735 0.108801 0.529412 0.54902 0.54902 0
0.00632192 0.0199901 0.0978302 0.529412 0.54902 0.54902 0
0.00748682 0.0209775 0.124448 0.529412 0.54902 0.54902 0
0.00437971 0.0223212 0.00361681 0.909804 0.443137 0.0313726 2
0.00238263 0.0159189 0.0111122 0.909804 0.443137 0.0313726 2
0.0135437 0.0239218 0.0392691 0.909804 0.443137 0.0313726 2
0.0142983 0.0154793 0.11417 0.529412 0.54902 0.54902 0
0.00982609 0.0171616 0.109661 0.529412 0.54902 0.54902 0
0.00285052 0.0186805 0.0438496 0.909804 0.443137 0.0313726 2
0.00541334 0.0207235 0.143086 0.529412 0.54902 0.54902 0
0.00276189 0.0186156 0.042649 0.909804 0.443137 0.0313726 2
0.0117178 0.0156346 0.127867 0.529412 0.54902 0.54902 0
0.0153067 0.0143898 0.0322881 0.909804 0.443137 0.0313726 2
0.013183 0.0144519 0.0710597 0.529412 0.54902 0.54902 0
0.0151546 0.0221883 0.0389251 0.909804 0.443137 0.0313726 2
0.0142489 0.0155192 0.0911435 0.529412 0.54902 0.54902 0
0.00692093 0.0214343 0.139197 0.529412 0.54902 0.54902 0
0.00716925 0.0193061 0.141172 0.529412 0.54902 0.54902 0
0.0143431 0.0151186 0.0903165 0.529412 0.54902 0.54902 0
0.00992272 0.0111412 0.0282045 0.909804 0.443137 0.0313726 2
0.00489307 0.0216953 0.067243 0.529412 0.54902 0.54902 0
0.00518001 0.0192765 0.00242282 0.909804 0.443137 0.0313726 2
0.00487982 0.0243153 0.00697626 0.909804 0.443137 0.0313726 2
0.0150762 0.0212689 0.0457812 0.909804 0.443137 0.0313726 2
0.0135437 0.0141607 0.0839446 0.529412 0.54902 0.54902 0
0.00535474 0.0226985 0.0783053 0.529412 0.54902 0.54902 0
0.00596873 0.0222029 0.145848 0.529412 0.54902 0.54902 0
0.00474047 0.0212666 0.119438 0.529412 0.54902 0.54902 0
0.00305472 0.014695 0.0288088 0.909804 0.443137 0.0313726 2
0.0109187 0.0162796 0.112544 0.529412 0.54902 0.54902 0
0.0111428 0.0258217 0.0192142 0.909804 0.443137 0.0313726 2
0.00785795 0.0187502 0.0980986 0.529412 0.54902 0.54902 0
0.00233959 0.0207377 0.0288253 0.909804 0.443137 0.0313726 2
0.00881784 0.0199031 0.168248 0.529412 0.54902 0.54902 0
0.00239763 0.0197134 0.00495027 0.909804 0.443137 0.0313726 2
0.0135437 0.0141607 0.0680996 0.529412 0.54902 0.54902 0
0.00205306 0.0202811 0.0177223 0.909804 0.443137 0.0313726 2
0.00830782 0.0183871 0.0817827 0.529412 0.54902 0.54902 0
