ply
format ascii 1.0
comment Created by Open3D
element vertex 655
property float32 x
property float32 y
property float32 z
property float32 red
property float32 green
property float32 blue
property float32 volume
property uint8 segmentation
end_header
0.014009 0.00470911 0.135687 0.001462 0.000466 0.013866 1.23495e-06 0
0.00851373 0.00425979 0.133327 0.001462 0.000466 0.013866 3.21448e-05 0
0.00840747 0.00101239 0.137397 0.001462 0.000466 0.013866 1.42697e-06 0
0.0102395 0.00487073 0.136739 0.001462 0.000466 0.013866 4.98973e-06 0
0.00804682 -0.00152089 0.13711 0.001462 0.000466 0.013866 4.51846e-07 0
0.0125117 0.000380535 0.132787 0.001462 0.000466 0.013866 7.90058e-06 0
0.00874216 0.000542156 0.133839 0.001462 0.000466 0.013866 2.33531e-05 0
0.013161 -0.00200888 0.130438 0.001462 0.000466 0.013866 1.29575e-05 0
0.00714822 -0.00719377 0.13533 0.001462 0.000466 0.013866 6.71549e-06 0
0.013821 -0.00643849 0.134523 0.001462 0.000466 0.013866 2.72019e-06 0
0.0147247 -0.00148222 0.135676 0.001462 0.000466 0.013866 1.31629e-06 0
0.015374 -0.00387164 0.133327 0.001462 0.000466 0.013866 2.01916e-06 0
0.0154831 -0.00206599 0.134224 0.001462 0.000466 0.013866 1.12143e-06 0
0.00206391 0.00545278 0.0906911 0.001462 0.000466 0.013866 6.49073e-06 0
0.00701082 0.00168172 0.0883334 0.001462 0.000466 0.013866 8.55312e-06 0
0.00126594 0.00718205 0.0969441 0.001462 0.000466 0.013866 4.73281e-06 0
0.000962386 0.00511865 0.10047 0.001462 0.000466 0.013866 4.44922e-06 0
-0.00297858 0.00636319 0.0873363 0.001462 0.000466 0.013866 3.30504e-06 0
0.00814071 0.00693779 0.0910369 0.001462 0.000466 0.013866 1.65136e-05 0
-0.00118536 0.00478598 0.103829 0.001462 0.000466 0.013866 5.98646e-06 0
0.00369456 0.0083415 0.114444 0.001462 0.000466 0.013866 8.85986e-06 0
0.00670182 0.00710922 0.0856534 0.001462 0.000466 0.013866 1.2491e-05 0
0.00288707 0.0015615 0.0932663 0.001462 0.000466 0.013866 4.56576e-06 0
0.00291534 0.00716548 0.102972 0.001462 0.000466 0.013866 1.67442e-05 0
0.00682608 0.00489213 0.0818879 0.001462 0.000466 0.013866 8.1014e-06 0
-0.000812784 0.00259361 0.0825684 0.001462 0.000466 0.013866 1.28888e-06 0
0.00581148 0.00520973 0.102142 0.001462 0.000466 0.013866 1.64728e-05 0
0.000767222 0.00722636 0.0937709 0.001462 0.000466 0.013866 2.87365e-07 0
-0.00374798 0.00693141 0.0953193 0.001462 0.000466 0.013866 6.09863e-06 0
0.00774396 0.00916283 0.0964223 0.001462 0.000466 0.013866 1.99277e-05 0
-0.000220448 0.00509559 0.0932453 0.001462 0.000466 0.013866 2.44861e-06 0
-0.00331492 0.00836501 0.0892069 0.001462 0.000466 0.013866 3.9295e-06 0
0.00493288 0.00176081 0.112541 0.001462 0.000466 0.013866 7.41745e-06 0
0.00893626 0.00882098 0.0877323 0.001462 0.000466 0.013866 1.94372e-05 0
-0.000138277 0.00901187 0.0959393 0.001462 0.000466 0.013866 1.40919e-05 0
-0.00268765 0.00742768 0.0985721 0.001462 0.000466 0.013866 1.65482e-05 0
0.00321889 0.00922888 0.0994465 0.001462 0.000466 0.013866 2.00456e-05 0
-0.000344625 0.00172671 0.085611 0.001462 0.000466 0.013866 1.18585e-06 0
-0.00218627 0.00638483 0.0921608 0.001462 0.000466 0.013866 2.85431e-06 0
0.00442499 0.00183668 0.0898182 0.001462 0.000466 0.013866 8.73477e-06 0
-0.0034783 0.00904917 0.0799661 0.001462 0.000466 0.013866 4.76019e-06 0
0.00590627 0.00522604 0.088958 0.001462 0.000466 0.013866 1.09695e-05 0
0.00955965 0.00700868 0.0985998 0.001462 0.000466 0.013866 1.11052e-05 0
-0.00460239 0.00604755 0.0813385 0.001462 0.000466 0.013866 6.81269e-06 0
0.00413316 0.00552786 0.0918074 0.001462 0.000466 0.013866 9.37877e-06 0
-0.00339084 0.00914052 0.0779867 0.001462 0.000466 0.013866 2.21513e-06 0
-0.000884157 0.00515343 0.0857343 0.001462 0.000466 0.013866 5.4269e-06 0
-0.00557649 0.00811407 0.0794443 0.001462 0.000466 0.013866 7.89372e-06 0
0.00719363 0.00705893 0.0828896 0.001462 0.000466 0.013866 1.27026e-06 0
0.00538093 0.00737159 0.0970298 0.001462 0.000466 0.013866 1.29128e-05 0
0.000612478 0.00426265 0.102069 0.001462 0.000466 0.013866 2.24478e-06 0
0.00719661 0.00521744 0.0992074 0.001462 0.000466 0.013866 6.49434e-06 0
0.00552844 0.00705719 0.108021 0.001462 0.000466 0.013866 7.7694e-06 0
0.00305237 0.00897404 0.10626 0.001462 0.000466 0.013866 5.87066e-06 0
0.00229141 0.000842245 0.0885914 0.001462 0.000466 0.013866 3.95982e-06 0
0.00314549 0.00339708 0.0912818 0.001462 0.000466 0.013866 1.15857e-06 0
-5.59631e-05 0.00223065 0.0871795 0.001462 0.000466 0.013866 2.27691e-06 0
0.00403436 0.0103075 0.115446 0.001462 0.000466 0.013866 2.20087e-06 0
-0.000375867 0.00755396 0.106749 0.001462 0.000466 0.013866 6.43274e-06 0
0.00639097 0.00148732 0.0980167 0.001462 0.000466 0.013866 5.35658e-06 0
-0.0025042 0.00698265 0.0818603 0.001462 0.000466 0.013866 4.10216e-06 0
-0.00288732 0.00614511 0.105255 0.001462 0.000466 0.013866 6.11459e-06 0
-0.0012205 0.00715525 0.0876049 0.001462 0.000466 0.013866 6.58509e-06 0
0.00190729 0.0102605 0.113161 0.001462 0.000466 0.013866 2.11562e-06 0
-0.00067037 0.00520557 0.082094 0.001462 0.000466 0.013866 5.72389e-06 0
0.00473518 0.00505234 0.110869 0.001462 0.000466 0.013866 9.97855e-06 0
0.000659691 0.0072826 0.0896862 0.001462 0.000466 0.013866 6.63453e-06 0
0.00106426 0.00731119 0.0813668 0.001462 0.000466 0.013866 9.27181e-06 0
0.00559547 0.00934467 0.0849 0.001462 0.000466 0.013866 1.04581e-05 0
0.000531094 0.00720311 0.0923726 0.001462 0.000466 0.013866 5.79406e-06 0
-0.000232831 0.00928603 0.0881305 0.001462 0.000466 0.013866 8.28921e-06 0
0.00669597 6.0771e-05 0.0803817 0.001462 0.000466 0.013866 8.85389e-06 0
0.00363089 0.00126871 0.0790729 0.001462 0.000466 0.013866 1.16073e-05 0
0.000844966 0.000973302 0.0806944 0.001462 0.000466 0.013866 8.03125e-06 0
0.00591101 0.00710802 0.0800595 0.001462 0.000466 0.013866 3.73821e-06 0
0.00288127 0.00726411 0.0800964 0.001462 0.000466 0.013866 5.01836e-06 0
0.00258442 0.00949441 0.0850455 0.001462 0.000466 0.013866 1.17618e-05 0
0.000212424 0.00941736 0.0857281 0.001462 0.000466 0.013866 6.95217e-06 0
-0.00103041 0.00726145 0.0836915 0.001462 0.000466 0.013866 2.22669e-06 0
0.00179371 0.00914576 0.0793754 0.001462 0.000466 0.013866 5.23951e-06 0
0.00791164 0.00805329 0.109168 0.001462 0.000466 0.013866 3.79728e-06 0
0.00416657 1.09043e-06 0.0918027 0.001462 0.000466 0.013866 7.21042e-06 0
0.00392022 -7.31319e-05 0.0949526 0.001462 0.000466 0.013866 3.45885e-06 0
0.00151798 0.00247714 0.0999007 0.001462 0.000466 0.013866 1.65226e-06 0
0.00432778 -0.00252996 0.103988 0.001462 0.000466 0.013866 1.0116e-06 0
0.00514139 0.000706438 0.103898 0.001462 0.000466 0.013866 7.71364e-06 0
0.00909653 -0.000102532 0.105371 0.001462 0.000466 0.013866 3.80094e-06 0
0.00301432 -0.000908155 0.0988476 0.001462 0.000466 0.013866 2.45351e-06 0
0.00192151 -0.00234711 0.100877 0.001462 0.000466 0.013866 1.36008e-06 0
0.00809668 -0.00177809 0.102787 0.001462 0.000466 0.013866 3.19925e-06 0
0.00554894 -7.78903e-05 0.107659 0.001462 0.000466 0.013866 1.89726e-06 0
0.00297044 -0.00239382 0.103135 0.001462 0.000466 0.013866 1.26222e-06 0
0.00246742 -0.000634002 0.10544 0.001462 0.000466 0.013866 1.42292e-06 0
0.00478452 0.000703104 0.0998645 0.001462 0.000466 0.013866 6.73633e-06 0
0.00424493 0.000286902 0.10996 0.001462 0.000466 0.013866 6.58471e-06 0
0.00229487 -0.00214245 0.104592 0.001462 0.000466 0.013866 5.98933e-07 0
0.00706187 0.00143109 0.106227 0.001462 0.000466 0.013866 1.12346e-05 0
0.00187238 -0.000733769 0.0980148 0.001462 0.000466 0.013866 2.58521e-06 0
0.00824414 -6.73059e-05 0.0984153 0.001462 0.000466 0.013866 5.74473e-06 0
0.0040852 0.00243052 0.101206 0.001462 0.000466 0.013866 6.49992e-06 0
0.00584071 -0.00102097 0.102556 0.001462 0.000466 0.013866 5.73466e-06 0
0.00462076 -0.000123937 0.0969998 0.001462 0.000466 0.013866 3.45918e-06 0
0.0043879 9.06538e-05 0.107769 0.001462 0.000466 0.013866 1.66236e-06 0
0.00362846 -0.000802546 0.105329 0.001462 0.000466 0.013866 1.53901e-06 0
-0.00173168 -0.00118337 0.109844 0.001462 0.000466 0.013866 7.57727e-06 0
-0.00233261 0.00507479 0.112954 0.001462 0.000466 0.013866 3.07949e-06 0
-0.001545 -0.00316168 0.109675 0.001462 0.000466 0.013866 6.35196e-06 0
-0.00602698 0.00195357 0.0983853 0.001462 0.000466 0.013866 8.09217e-06 0
0.00107536 0.000924116 0.0977268 0.001462 0.000466 0.013866 1.65226e-06 0
0.0020871 -0.00012496 0.0952345 0.001462 0.000466 0.013866 1.54162e-06 0
-0.00321994 0.00402495 0.110375 0.001462 0.000466 0.013866 7.06978e-06 0
-0.00241632 -0.000556403 0.106483 0.001462 0.000466 0.013866 4.09444e-06 0
-0.00419633 0.00404526 0.106297 0.001462 0.000466 0.013866 3.14671e-06 0
-0.00500514 0.000129532 0.105239 0.001462 0.000466 0.013866 5.92434e-06 0
-0.00292417 -0.00389911 0.112587 0.001462 0.000466 0.013866 8.01479e-06 0
0.00106927 0.00311377 0.120005 0.001462 0.000466 0.013866 5.83316e-06 0
-0.000224798 0.000730876 0.10588 0.001462 0.000466 0.013866 5.2965e-06 0
-0.00218088 -0.00326664 0.106553 0.001462 0.000466 0.013866 2.83664e-06 0
-0.00174027 0.00681174 0.120905 0.001462 0.000466 0.013866 4.31142e-07 0
-0.0025282 -0.00119128 0.115488 0.001462 0.000466 0.013866 1.40705e-05 0
-0.000281749 0.0041102 0.122546 0.001462 0.000466 0.013866 7.24625e-06 0
-0.00175479 0.00594116 0.11282 0.001462 0.000466 0.013866 5.22206e-06 0
-0.00311084 -0.00192081 0.112756 0.001462 0.000466 0.013866 7.10918e-06 0
-0.00784408 -0.000549336 0.106437 0.001462 0.000466 0.013866 1.84439e-06 0
-0.00342151 0.00208675 0.100567 0.001462 0.000466 0.013866 7.17738e-06 0
-0.00805571 0.00255379 0.104981 0.001462 0.000466 0.013866 3.0113e-06 0
-0.000584968 0.0034402 0.112733 0.001462 0.000466 0.013866 5.84805e-06 0
-0.00161831 5.4517e-05 0.0992853 0.001462 0.000466 0.013866 6.70035e-06 0
0.0016457 -1.37875e-06 0.096449 0.001462 0.000466 0.013866 3.05086e-07 0
-0.00249437 0.00268612 0.104872 0.001462 0.000466 0.013866 5.74299e-06 0
-0.00422378 -7.86574e-05 0.097104 0.001462 0.000466 0.013866 1.06583e-05 0
-0.00163334 0.00474185 0.101177 0.001462 0.000466 0.013866 1.14043e-05 0
0.00280203 0.00125139 0.119094 0.001462 0.000466 0.013866 8.58153e-06 0
0.00114779 0.00157781 0.111823 0.001462 0.000466 0.013866 1.18643e-05 0
-0.000389248 0.0058153 0.118364 0.001462 0.000466 0.013866 1.87266e-07 0
0.00198653 0.00499679 0.119721 0.001462 0.000466 0.013866 5.30808e-06 0
0.000459842 0.000103904 0.109242 0.001462 0.000466 0.013866 9.98433e-06 0
0.000302365 0.00449003 0.115313 0.001462 0.000466 0.013866 3.05172e-06 0
-0.00106748 0.00887923 0.1098 0.001462 0.000466 0.013866 4.81411e-06 0
-0.00201512 -0.00540487 0.112348 0.001462 0.000466 0.013866 6.2553e-06 0
-0.000121639 0.00203671 0.115008 0.001462 0.000466 0.013866 1.05852e-05 0
-0.00505944 0.00189601 0.103744 0.001462 0.000466 0.013866 6.53633e-06 0
-0.00244222 0.0014811 0.115645 0.001462 0.000466 0.013866 1.04306e-05 0
-0.000290578 0.00701423 0.110318 0.001462 0.000466 0.013866 1.38208e-05 0
0.000880185 0.0053564 0.115179 0.001462 0.000466 0.013866 5.59658e-06 0
0.000355402 0.00171382 0.117818 0.001462 0.000466 0.013866 1.76805e-06 0
0.0023444 0.00642947 0.112677 0.001462 0.000466 0.013866 1.14116e-05 0
-0.00106488 -0.00218136 0.0855201 0.001462 0.000466 0.013866 1.26616e-06 0
-0.00606576 0.00355134 0.0956195 0.001462 0.000466 0.013866 1.50754e-05 0
-0.011041 -0.000265946 0.0858804 0.001462 0.000466 0.013866 2.63903e-07 0
-0.0066882 0.00760513 0.0774787 0.001462 0.000466 0.013866 2.81039e-06 0
-0.00744791 -0.00412917 0.087038 0.001462 0.000466 0.013866 1.07951e-05 0
-0.00578456 -0.00291396 0.098682 0.001462 0.000466 0.013866 9.70399e-06 0
-0.00598964 0.00697503 0.0846489 0.001462 0.000466 0.013866 1.19777e-05 0
-0.00657643 -0.00582212 0.0890037 0.001462 0.000466 0.013866 4.21378e-06 0
-0.00380188 -0.00155941 0.0845233 0.001462 0.000466 0.013866 6.73968e-06 0
-0.00506622 0.00194257 0.0888119 0.001462 0.000466 0.013866 3.38438e-06 0
-0.00340164 0.00104241 0.0871437 0.001462 0.000466 0.013866 4.20597e-06 0
-0.0064404 -0.00161065 0.0963939 0.001462 0.000466 0.013866 4.16602e-06 0
-0.00264865 0.00121037 0.0921933 0.001462 0.000466 0.013866 4.08235e-06 0
-0.00611424 0.00308223 0.0815364 0.001462 0.000466 0.013866 1.01725e-05 0
-0.0075847 0.00178944 0.0784656 0.001462 0.000466 0.013866 1.60517e-05 0
-0.0025443 -0.00247429 0.0923122 0.001462 0.000466 0.013866 3.68923e-06 0
-0.00507621 0.00582976 0.0951169 0.001462 0.000466 0.013866 7.23847e-06 0
-0.00726964 -0.0012835 0.0901255 0.001462 0.000466 0.013866 4.3984e-06 0
-0.00369031 0.000538467 0.0855752 0.001462 0.000466 0.013866 2.19054e-06 0
-0.00349834 -0.000945738 0.0868208 0.001462 0.000466 0.013866 2.85188e-06 0
-0.00750149 0.00400971 0.0848469 0.001462 0.000466 0.013866 1.57582e-05 0
-0.00480451 0.00206215 0.0909523 0.001462 0.000466 0.013866 2.15234e-06 0
0.000243171 0.000168015 0.0867611 0.001462 0.000466 0.013866 2.54761e-06 0
-0.00240715 -0.000275274 0.0940704 0.001462 0.000466 0.013866 8.68053e-06 0
0.000176907 0.000443454 0.0920732 0.001462 0.000466 0.013866 1.1917e-06 0
-0.00415846 0.00140537 0.0825326 0.001462 0.000466 0.013866 2.38085e-06 0
-0.00570814 -0.000916505 0.0786223 0.001462 0.000466 0.013866 1.23671e-05 0
-0.0075587 -0.00322244 0.0797185 0.001462 0.000466 0.013866 1.12706e-05 0
-0.0035145 0.00528318 0.0919584 0.001462 0.000466 0.013866 3.46573e-06 0
-0.00902294 0.00518491 0.07376 0.001462 0.000466 0.013866 3.96583e-06 0
-0.00704536 -0.00327952 0.089783 0.001462 0.000466 0.013866 4.6551e-06 0
-0.00720888 0.00110027 0.0895947 0.001462 0.000466 0.013866 1.17204e-05 0
-0.0115824 0.00363072 0.0739718 0.001462 0.000466 0.013866 2.66821e-05 0
-0.0134364 0.00686921 0.0751876 0.001462 0.000466 0.013866 1.5157e-05 0
-0.00519017 -0.00195053 0.0890774 0.001462 0.000466 0.013866 3.86952e-06 0
-0.00400579 0.00523479 0.0890492 0.001462 0.000466 0.013866 3.74504e-06 0
-0.00589627 -0.00341386 0.0840348 0.001462 0.000466 0.013866 9.06523e-06 0
-0.00427118 -0.000102524 0.0816355 0.001462 0.000466 0.013866 6.19929e-06 0
-0.00617387 -0.00497247 0.0917488 0.001462 0.000466 0.013866 4.84291e-07 0
-0.000761329 -0.00156768 0.0878176 0.001462 0.000466 0.013866 5.3577e-07 0
0.00105395 0.00150967 0.0935483 0.001462 0.000466 0.013866 2.02176e-06 0
-0.00489831 0.00723822 0.0874936 0.001462 0.000466 0.013866 5.14297e-06 0
-0.00525705 0.00283679 0.0874115 0.001462 0.000466 0.013866 8.02473e-06 0
-0.00462377 -0.00180726 0.0933603 0.001462 0.000466 0.013866 4.18702e-06 0
-0.00450405 0.00300476 0.092461 0.001462 0.000466 0.013866 7.2739e-06 0
-0.000464218 -0.00078608 0.0796083 0.001462 0.000466 0.013866 5.45888e-06 0
-0.00524882 0.008527 0.0765082 0.001462 0.000466 0.013866 5.92702e-07 0
0.000418402 -0.00104219 0.0939504 0.001462 0.000466 0.013866 2.53399e-06 0
0.0100289 0.00434119 0.0511744 0.001462 0.000466 0.013866 8.17056e-06 0
0.0139804 0.00319834 0.0636931 0.001462 0.000466 0.013866 7.41439e-06 0
0.0123622 -0.000166765 0.0654759 0.001462 0.000466 0.013866 3.6629e-06 0
0.0115732 0.00437584 0.0692777 0.001462 0.000466 0.013866 5.96718e-07 0
0.0106662 0.00818248 0.0757503 0.001462 0.000466 0.013866 3.38458e-06 0
0.0152374 -0.00260707 0.0846895 0.001462 0.000466 0.013866 1.75109e-05 0
0.0124314 0.00734595 0.0830561 0.001462 0.000466 0.013866 1.61205e-06 0
0.00790505 -0.00189274 0.0697986 0.001462 0.000466 0.013866 2.29623e-07 0
0.0122613 -0.00236462 0.0651483 0.001462 0.000466 0.013866 3.29646e-06 0
0.0144382 -0.000279796 0.0679215 0.001462 0.000466 0.013866 1.42959e-06 0
0.00702811 0.000915827 0.0667735 0.001462 0.000466 0.013866 1.98003e-06 0
0.010389 0.00578343 0.0715997 0.001462 0.000466 0.013866 8.09891e-06 0
0.0130637 -0.005437 0.0816599 0.001462 0.000466 0.013866 1.95669e-05 0
0.0149012 0.00657026 0.0668532 0.001462 0.000466 0.013866 5.40535e-07 0
0.0114083 -0.000665351 0.0785474 0.001462 0.000466 0.013866 5.59403e-06 0
0.0118796 0.00659002 0.0566794 0.001462 0.000466 0.013866 6.7507e-06 0
0.0128523 -0.00525113 0.0758336 0.001462 0.000466 0.013866 1.32523e-05 0
0.0115955 0.000440266 0.08061 0.001462 0.000466 0.013866 5.77603e-06 0
0.00910519 0.00872514 0.0781568 0.001462 0.000466 0.013866 3.65697e-06 0
0.0156341 0.0022364 0.0844206 0.001462 0.000466 0.013866 1.44356e-05 0
0.0108408 0.00828329 0.0792915 0.001462 0.000466 0.013866 1.9563e-06 0
0.0138491 -0.0035723 0.064124 0.001462 0.000466 0.013866 5.08519e-06 0
0.014759 0.00385018 0.0784772 0.001462 0.000466 0.013866 5.31046e-06 0
0.0167645 -0.000488617 0.0698293 0.001462 0.000466 0.013866 4.29109e-06 0
0.00787921 0.00155126 0.0822818 0.001462 0.000466 0.013866 4.42791e-06 0
0.011207 -8.07804e-05 0.0754901 0.001462 0.000466 0.013866 5.10057e-06 0
0.0114392 0.00707357 0.0650521 0.001462 0.000466 0.013866 9.64558e-06 0
0.00815294 0.00880308 0.0756731 0.001462 0.000466 0.013866 4.62248e-06 0
0.0142916 0.00216213 0.0610513 0.001462 0.000466 0.013866 1.18085e-05 0
0.0114967 -0.00400062 0.0640764 0.001462 0.000466 0.013866 1.44119e-06 0
0.0140461 0.00501862 0.0729757 0.001462 0.000466 0.013866 4.50003e-06 0
0.0104253 0.00150256 0.0690067 0.001462 0.000466 0.013866 6.80452e-07 0
0.0117448 0.00381587 0.0643226 0.001462 0.000466 0.013866 5.20109e-06 0
0.0137763 0.0034882 0.0531917 0.001462 0.000466 0.013866 3.9753e-06 0
0.0147483 0.00309921 0.0752395 0.001462 0.000466 0.013866 1.22418e-05 0
0.00691128 -0.000130017 0.0660963 0.001462 0.000466 0.013866 8.62825e-07 0
0.0115652 0.00749989 0.0737548 0.001462 0.000466 0.013866 6.66207e-06 0
0.0101247 -0.00232611 0.0674467 0.001462 0.000466 0.013866 8.00526e-07 0
0.0114673 0.00782646 0.0782189 0.001462 0.000466 0.013866 2.67763e-06 0
0.0149959 0.00387376 0.0822037 0.001462 0.000466 0.013866 5.34908e-06 0
0.0118648 -0.00283253 0.0596123 0.001462 0.000466 0.013866 6.10289e-06 0
0.0115535 -0.00393433 0.078699 0.001462 0.000466 0.013866 1.21106e-05 0
0.00863223 -0.000608425 0.0749984 0.001462 0.000466 0.013866 7.22955e-07 0
0.0135487 0.00407671 0.0578023 0.001462 0.000466 0.013866 1.14788e-05 0
0.0102248 -0.00232597 0.0687196 0.001462 0.000466 0.013866 8.00526e-07 0
0.0102116 -0.00058548 0.0590876 0.001462 0.000466 0.013866 4.12544e-06 0
0.010107 -8.31487e-05 0.0550827 0.001462 0.000466 0.013866 4.25543e-06 0
0.00908741 0.00871724 0.0743392 0.001462 0.000466 0.013866 2.96634e-06 0
0.0106764 0.00616263 0.0810811 0.001462 0.000466 0.013866 3.06865e-06 0
0.00798794 -0.00130777 0.0703538 0.001462 0.000466 0.013866 2.03596e-07 0
0.0126609 0.000885027 0.0683771 0.001462 0.000466 0.013866 1.35677e-06 0
0.0139144 1.22474e-06 0.0837913 0.001462 0.000466 0.013866 9.94921e-06 0
0.0103077 -0.001741 0.0692748 0.001462 0.000466 0.013866 7.0979e-07 0
0.0134093 0.00529047 0.068716 0.001462 0.000466 0.013866 2.16061e-07 0
0.0133701 0.00628124 0.075178 0.001462 0.000466 0.013866 4.43583e-06 0
0.0120915 0.00333155 0.0690844 0.001462 0.000466 0.013866 1.39845e-06 0
0.0123965 0.000366469 0.0565763 0.001462 0.000466 0.013866 5.99373e-06 0
0.0125279 0.000299984 0.0671855 0.001462 0.000466 0.013866 2.00279e-06 0
0.00614921 2.53428e-05 0.0605763 0.001462 0.000466 0.013866 1.04609e-06 0
0.00883355 -0.001193 0.0780557 0.001462 0.000466 0.013866 7.92897e-07 0
0.00809732 -0.00177413 0.0721416 0.001462 0.000466 0.013866 5.75742e-07 0
0.0142612 -0.00241066 0.0618099 0.001462 0.000466 0.013866 1.06674e-05 0
0.00666754 0.000190183 0.0696208 0.001462 0.000466 0.013866 1.12581e-06 0
0.0110082 -0.00113296 0.0738598 0.001462 0.000466 0.013866 2.32459e-06 0
0.00865241 0.00653653 0.0721976 0.001462 0.000466 0.013866 4.83884e-06 0
0.0129154 0.00655957 0.0731444 0.001462 0.000466 0.013866 2.21792e-06 0
0.00744397 0.00208665 0.071062 0.001462 0.000466 0.013866 1.98228e-06 0
0.0140501 0.00270292 0.0555251 0.001462 0.000466 0.013866 6.53911e-06 0
0.01256 -0.00131283 0.0680495 0.001462 0.000466 0.013866 1.67414e-06 0
0.0122736 0.00333802 0.0713104 0.001462 0.000466 0.013866 4.01694e-06 0
0.0101151 0.00313252 0.0713453 0.001462 0.000466 0.013866 1.8161e-06 0
0.0132609 0.00532047 0.0666948 0.001462 0.000466 0.013866 6.07826e-06 0
0.0102175 0.000917409 0.0668634 0.001462 0.000466 0.013866 2.68245e-06 0
0.0126081 -0.000163608 0.0612853 0.001462 0.000466 0.013866 7.18886e-06 0
0.0117553 0.00438231 0.0715038 0.001462 0.000466 0.013866 2.36396e-06 0
0.0122969 0.000872603 0.0639271 0.001462 0.000466 0.013866 5.02692e-06 0
0.00747417 0.000346253 0.0853728 0.001462 0.000466 0.013866 4.67727e-06 0
0.0129758 0.00141861 0.0735743 0.001462 0.000466 0.013866 8.94566e-06 0
0.013241 0.00269044 0.0802287 0.001462 0.000466 0.013866 8.80935e-06 0
0.00874957 0.00662404 0.0810215 0.001462 0.000466 0.013866 7.27222e-06 0
0.0137446 0.00637747 0.0830188 0.001462 0.000466 0.013866 2.76056e-06 0
0.012427 -0.00189787 0.0668579 0.001462 0.000466 0.013866 3.03187e-06 0
0.0107262 0.00397674 0.0541155 0.001462 0.000466 0.013866 8.15167e-06 0
0.0143625 -0.0067538 0.0787945 0.001462 0.000466 0.013866 8.84488e-06 0
0.0125083 -0.00303433 0.0740517 0.001462 0.000466 0.013866 6.33181e-06 0
0.011767 -0.00410895 0.0693452 0.001462 0.000466 0.013866 1.23741e-06 0
0.00705694 0.000405391 0.0560064 0.001462 0.000466 0.013866 1.79799e-06 0
0.00627836 1.06551e-05 0.0573622 0.001462 0.000466 0.013866 1.6427e-06 0
0.00763621 -0.000993295 0.075161 0.001462 0.000466 0.013866 1.64552e-06 0
0.00783753 -0.00157787 0.0782182 0.001462 0.000466 0.013866 1.75886e-06 0
0.0100613 0.00149013 0.0645566 0.001462 0.000466 0.013866 6.04839e-06 0
0.0119897 0.00519415 0.0810438 0.001462 0.000466 0.013866 4.6865e-06 0
0.0128952 0.00685055 0.0792677 0.001462 0.000466 0.013866 2.98743e-06 0
0.0135927 0.00623625 0.0782099 0.001462 0.000466 0.013866 2.21792e-06 0
0.0101006 -0.000128435 0.0661863 0.001462 0.000466 0.013866 1.15134e-06 0
0.0095974 -0.0036755 0.0723335 0.001462 0.000466 0.013866 2.07149e-06 0
0.0160451 -0.00223326 0.0711652 0.001462 0.000466 0.013866 3.70007e-06 0
0.0118498 -0.00352398 0.0699003 0.001462 0.000466 0.013866 1.32135e-06 0
0.0137188 -0.00202444 0.0692574 0.001462 0.000466 0.013866 6.14345e-06 0
0.012441 -0.00244957 0.0726975 0.001462 0.000466 0.013866 2.65809e-06 0
0.0143099 -0.000950039 0.0720546 0.001462 0.000466 0.013866 1.58304e-05 0
-0.00528181 0.00175156 0.0651842 0.001462 0.000466 0.013866 5.74554e-06 0
0.00278642 0.00133886 0.0740532 0.001462 0.000466 0.013866 1.68168e-05 0
0.0085008 0.00873698 0.0682816 0.001462 0.000466 0.013866 5.35431e-06 0
-0.00473555 -0.000892376 0.0723136 0.001462 0.000466 0.013866 1.84968e-06 0
-0.000264258 0.000857919 0.0716568 0.001462 0.000466 0.013866 1.01112e-05 0
0.00251327 0.00179316 0.0569222 0.001462 0.000466 0.013866 2.68111e-06 0
-0.00782447 0.00768621 0.0628868 0.001462 0.000466 0.013866 3.70608e-06 0
0.00571669 0.00190335 0.062331 0.001462 0.000466 0.013866 2.83462e-06 0
-0.00389934 -0.00167464 0.0681793 0.001462 0.000466 0.013866 7.8358e-07 0
0.0102374 0.00798389 0.0676838 0.001462 0.000466 0.013866 9.04867e-06 0
-0.00604242 0.00208916 0.0737507 0.001462 0.000466 0.013866 5.99388e-06 0
0.00723595 0.00150098 0.0689168 0.001462 0.000466 0.013866 5.02272e-07 0
0.000977547 -6.36618e-05 0.0599729 0.001462 0.000466 0.013866 4.50778e-06 0
0.00499426 0.000485505 0.0640346 0.001462 0.000466 0.013866 3.71191e-06 0
0.00590839 0.0029493 0.0639599 0.001462 0.000466 0.013866 3.62908e-07 0
-0.00858045 0.00969693 0.0649994 0.001462 0.000466 0.013866 1.98118e-06 0
-0.00400113 -0.00144166 0.0750216 0.001462 0.000466 0.013866 5.70042e-06 0
-0.00598058 0.00529421 0.0662056 0.001462 0.000466 0.013866 9.21118e-06 0
0.00687192 0.00148855 0.0644667 0.001462 0.000466 0.013866 4.46458e-06 0
0.00702525 0.00479867 0.0712915 0.001462 0.000466 0.013866 8.79663e-06 0
-3.64965e-05 0.000887656 0.0624245 0.001462 0.000466 0.013866 8.52214e-06 0
0.00727598 0.00470398 0.0624072 0.001462 0.000466 0.013866 7.10737e-06 0
0.00621909 0.00509852 0.0591908 0.001462 0.000466 0.013866 3.44427e-06 0
-0.00627161 0.0042417 0.0684637 0.001462 0.000466 0.013866 3.23367e-06 0
0.00783451 0.00883993 0.079193 0.001462 0.000466 0.013866 4.69351e-06 0
-0.00954667 7.63657e-05 0.0696165 0.001462 0.000466 0.013866 3.64442e-06 0
0.00101444 0.0054908 0.0634713 0.001462 0.000466 0.013866 1.03402e-05 0
-0.00557284 0.000699052 0.0674424 0.001462 0.000466 0.013866 2.71726e-06 0
-0.00697517 0.0080728 0.0645892 0.001462 0.000466 0.013866 6.94966e-06 0
0.00638086 0.00707461 0.0733943 0.001462 0.000466 0.013866 7.73227e-06 0
0.00449448 0.00736534 0.0587078 0.001462 0.000466 0.013866 5.71539e-06 0
0.00175283 0.00105613 0.0642454 0.001462 0.000466 0.013866 7.33313e-06 0
0.00320636 0.00315139 0.0769046 0.001462 0.000466 0.013866 6.584e-06 0
0.00992305 0.00556897 0.06268 0.001462 0.000466 0.013866 1.08521e-05 0
0.00687364 0.00699913 0.0673756 0.001462 0.000466 0.013866 1.01439e-05 0
0.00363735 0.00727238 0.053149 0.001462 0.000466 0.013866 4.26407e-06 0
0.00565019 0.000715488 0.0723048 0.001462 0.000466 0.013866 8.49681e-06 0
-5.01064e-05 0.00734168 0.0532921 0.001462 0.000466 0.013866 1.19258e-05 0
-0.00868953 -6.88707e-05 0.0679154 0.001462 0.000466 0.013866 1.0097e-05 0
-0.00588405 0.00548657 0.073071 0.001462 0.000466 0.013866 9.92592e-06 0
-0.00193968 -0.00086636 0.0722517 0.001462 0.000466 0.013866 4.20195e-06 0
-0.00443323 0.00330261 0.0710058 0.001462 0.000466 0.013866 6.61937e-06 0
-0.00356335 -0.000263925 0.071309 0.001462 0.000466 0.013866 1.62876e-06 0
0.00633843 0.00180277 0.0536667 0.001462 0.000466 0.013866 2.79547e-06 0
-0.00718456 0.00424582 0.0763021 0.001462 0.000466 0.013866 6.73542e-06 0
0.000443743 0.0016824 0.0581805 0.001462 0.000466 0.013866 7.52046e-06 0
0.0104174 0.0074999 0.0588681 0.001462 0.000466 0.013866 1.01333e-05 0
9.55109e-05 0.00276509 0.0640574 0.001462 0.000466 0.013866 4.57058e-06 0
-0.000698893 0.00460155 0.0654365 0.001462 0.000466 0.013866 7.2318e-06 0
-0.000490819 0.00916006 0.0780786 0.001462 0.000466 0.013866 1.08706e-05 0
0.000444818 0.00729889 0.0608995 0.001462 0.000466 0.013866 1.03674e-05 0
0.000391555 0.00536852 0.0580934 0.001462 0.000466 0.013866 8.07447e-06 0
0.00417136 0.00741395 0.0637395 0.001462 0.000466 0.013866 9.72446e-06 0
-0.00206489 -0.000775285 0.0636933 0.001462 0.000466 0.013866 5.3325e-06 0
0.00246108 0.00547928 0.0568352 0.001462 0.000466 0.013866 2.87862e-06 0
-0.00348778 0.00721223 0.0584935 0.001462 0.000466 0.013866 8.81178e-06 0
0.00883707 0.00837364 0.0504176 0.001462 0.000466 0.013866 2.87725e-06 0
0.0104862 0.00742623 0.0504102 0.001462 0.000466 0.013866 4.75408e-06 0
0.006121 0.00516271 0.064496 0.001462 0.000466 0.013866 8.44699e-06 0
0.004924 0.00925038 0.0666191 0.001462 0.000466 0.013866 1.1325e-05 0
-0.0032442 0.0064438 0.0657283 0.001462 0.000466 0.013866 1.41293e-05 0
-0.00145487 0.00661227 0.0675492 0.001462 0.000466 0.013866 6.11833e-06 0
-0.00226311 0.00918823 0.0612484 0.001462 0.000466 0.013866 1.07936e-05 0
-0.00423879 0.00922238 0.0641119 0.001462 0.000466 0.013866 1.06629e-05 0
0.00448717 0.00540658 0.0526416 0.001462 0.000466 0.013866 4.90472e-06 0
0.00786865 0.00661465 0.0575145 0.001462 0.000466 0.013866 7.60473e-06 0
0.00698439 0.00701663 0.0523923 0.001462 0.000466 0.013866 4.13356e-06 0
0.00345984 0.00730895 0.0550997 0.001462 0.000466 0.013866 4.52875e-06 0
0.00373903 0.00173403 0.0523936 0.001462 0.000466 0.013866 4.92132e-06 0
0.00561592 0.000381159 0.0517735 0.001462 0.000466 0.013866 3.95796e-06 0
0.00933085 0.00570477 0.0553259 0.001462 0.000466 0.013866 3.87131e-06 0
0.00863357 0.00606923 0.0523849 0.001462 0.000466 0.013866 6.90371e-06 0
-0.0042053 0.00924221 0.0567236 0.001462 0.000466 0.013866 1.08895e-05 0
-0.00162752 0.00522898 0.0567177 0.001462 0.000466 0.013866 5.01811e-06 0
0.0083541 0.00303766 0.052827 0.001462 0.000466 0.013866 2.82268e-06 0
0.00276391 -4.83661e-05 0.056231 0.001462 0.000466 0.013866 1.39972e-06 0
-0.0030797 0.00192239 0.0567495 0.001462 0.000466 0.013866 3.42286e-06 0
0.00371382 -5.06746e-05 0.0547338 0.001462 0.000466 0.013866 3.1952e-06 0
0.00789428 0.00886559 0.0558694 0.001462 0.000466 0.013866 4.6211e-06 0
0.00549324 0.009195 0.0569723 0.001462 0.000466 0.013866 1.06825e-05 0
0.00371687 0.000106269 0.0638933 0.001462 0.000466 0.013866 3.58564e-06 0
0.005284 0.00146485 0.0580539 0.001462 0.000466 0.013866 2.59683e-06 0
0.00361158 4.55491e-05 0.057658 0.001462 0.000466 0.013866 2.62433e-06 0
0.00360173 0.00922204 0.0611677 0.001462 0.000466 0.013866 9.94774e-06 0
-0.0078808 0.00302825 0.0712087 0.001462 0.000466 0.013866 6.24802e-06 0
-0.00772242 0.00642566 0.0705289 0.001462 0.000466 0.013866 8.48906e-06 0
0.00540961 0.00526477 0.0767445 0.001462 0.000466 0.013866 1.88794e-05 0
0.00237986 0.00542085 0.0767813 0.001462 0.000466 0.013866 1.52209e-05 0
-0.00558681 0.0085651 0.0746519 0.001462 0.000466 0.013866 6.53282e-06 0
0.00307854 0.00937794 0.0730492 0.001462 0.000466 0.013866 8.76704e-06 0
0.000633493 0.00728929 0.0745682 0.001462 0.000466 0.013866 1.87892e-05 0
-0.00170652 0.00939653 0.0696005 0.001462 0.000466 0.013866 1.034e-05 0
0.00177329 0.00935324 0.0701899 0.001462 0.000466 0.013866 1.49713e-05 0
-0.00262545 0.00667082 0.0701867 0.001462 0.000466 0.013866 1.29642e-05 0
-0.004136 0.00638114 0.0725867 0.001462 0.000466 0.013866 5.4174e-06 0
-0.00159069 0.00453889 0.072295 0.001462 0.000466 0.013866 1.27928e-05 0
-0.00628358 0.0106589 0.0743999 0.001462 0.000466 0.013866 5.49766e-07 0
-0.00525043 -0.0107845 0.0760623 0.001462 0.000466 0.013866 1.50062e-06 0
0.0070172 -0.00227136 0.0686804 0.001462 0.000466 0.013866 5.5746e-07 0
0.00111802 -0.0094407 0.0641171 0.001462 0.000466 0.013866 1.34595e-05 0
0.00805551 -0.00456752 0.0697476 0.001462 0.000466 0.013866 1.16708e-06 0
-0.000636383 -0.00938502 0.06273 0.001462 0.000466 0.013866 4.29509e-06 0
-0.00104786 -0.00728267 0.0757842 0.001462 0.000466 0.013866 1.00939e-05 0
-0.00725147 -0.00848017 0.0744728 0.001462 0.000466 0.013866 1.16824e-05 0
-0.00426763 -0.00487916 0.0734096 0.001462 0.000466 0.013866 7.90906e-06 0
0.0041718 -0.00555381 0.0617888 0.001462 0.000466 0.013866 2.13919e-06 0
0.00167884 -0.000728964 0.0688715 0.001462 0.000466 0.013866 7.82113e-06 0
-0.00117841 -0.00933129 0.0732726 0.001462 0.000466 0.013866 2.19131e-06 0
-0.00672991 -0.00662864 0.0680769 0.001462 0.000466 0.013866 3.55267e-06 0
0.00716767 -0.00494613 0.0686294 0.001462 0.000466 0.013866 2.83335e-06 0
-0.00804429 -0.00227344 0.0690289 0.001462 0.000466 0.013866 1.95672e-06 0
-0.00638186 -0.00641095 0.0608784 0.001462 0.000466 0.013866 5.66972e-06 0
0.00670772 -0.0050744 0.0585322 0.001462 0.000466 0.013866 2.3447e-06 0
0.00979619 -0.00552139 0.0599207 0.001462 0.000466 0.013866 5.77398e-06 0
0.00963849 -0.00588392 0.0704946 0.001462 0.000466 0.013866 1.60592e-06 0
0.00770605 -0.00690676 0.0639567 0.001462 0.000466 0.013866 5.93355e-06 0
0.00667694 -0.00507853 0.062035 0.001462 0.000466 0.013866 3.30803e-06 0
-0.0207087 -0.00872454 0.0775305 0.001462 0.000466 0.013866 9.06216e-06 0
0.0074206 -0.00469362 0.0597302 0.001462 0.000466 0.013866 2.91488e-06 0
-0.0191926 -0.00133875 0.0737993 0.001462 0.000466 0.013866 6.54687e-06 0
-0.00138642 -0.00233023 0.0673568 0.001462 0.000466 0.013866 3.3895e-06 0
-0.00673906 -0.00548848 0.0789126 0.001462 0.000466 0.013866 8.21278e-06 0
0.0119082 -0.00631722 0.0687792 0.001462 0.000466 0.013866 5.54884e-06 0
-0.00507663 -0.00567989 0.0832289 0.001462 0.000466 0.013866 7.53737e-06 0
0.000408 -0.00744864 0.0598242 0.001462 0.000466 0.013866 6.83442e-06 0
-0.0220885 -0.00201702 0.0757872 0.001462 0.000466 0.013866 8.77092e-07 0
-0.00883554 -0.00734861 0.077181 0.001462 0.000466 0.013866 7.30023e-06 0
0.00489968 -0.000601781 0.0707829 0.001462 0.000466 0.013866 1.90341e-06 0
-0.00563644 -0.0089613 0.0582981 0.001462 0.000466 0.013866 5.15117e-06 0
-0.00592451 -0.0089561 0.0637068 0.001462 0.000466 0.013866 1.65861e-06 0
0.00574687 -0.000773332 0.0685839 0.001462 0.000466 0.013866 3.03855e-06 0
-0.00736924 -0.00852884 0.059167 0.001462 0.000466 0.013866 1.43938e-06 0
0.00573576 -0.00740228 0.058874 0.001462 0.000466 0.013866 3.14672e-06 0
0.0074943 -0.00468136 0.0656601 0.001462 0.000466 0.013866 2.49162e-06 0
-0.0102059 -0.0101613 0.0636567 0.001462 0.000466 0.013866 5.65164e-07 0
0.00486225 -0.00139193 0.0624017 0.001462 0.000466 0.013866 3.64847e-06 0
0.00761925 -0.00468118 0.0672482 0.001462 0.000466 0.013866 1.66627e-06 0
0.000156991 -0.00248338 0.065129 0.001462 0.000466 0.013866 2.91988e-06 0
0.00603266 -0.000975133 0.0654931 0.001462 0.000466 0.013866 2.27398e-06 0
-0.00202063 -0.00514742 0.0738181 0.001462 0.000466 0.013866 8.16077e-06 0
-0.00268718 -0.00726589 0.0643486 0.001462 0.000466 0.013866 3.36014e-06 0
0.00115372 -0.00543816 0.0771645 0.001462 0.000466 0.013866 6.59134e-06 0
0.00397901 -0.0015653 0.069746 0.001462 0.000466 0.013866 4.52302e-06 0
-0.00315396 -0.00892441 0.0777939 0.001462 0.000466 0.013866 1.15841e-05 0
-0.00523594 -0.00676992 0.0701659 0.001462 0.000466 0.013866 3.21182e-06 0
0.00557204 -0.007291 0.0690513 0.001462 0.000466 0.013866 6.45241e-06 0
0.00788172 -0.00192569 0.0734765 0.001462 0.000466 0.013866 3.29487e-07 0
-0.00530543 -0.00474313 0.0686483 0.001462 0.000466 0.013866 4.14584e-06 0
-0.00439566 -0.00901333 0.0688644 0.001462 0.000466 0.013866 1.52838e-06 0
-0.0035579 -0.0091712 0.0695965 0.001462 0.000466 0.013866 1.01892e-06 0
0.00897877 -0.00446197 0.0782073 0.001462 0.000466 0.013866 1.80078e-06 0
0.00341399 -0.00751869 0.0640619 0.001462 0.000466 0.013866 6.33765e-06 0
0.00746878 -0.00200641 0.0672992 0.001462 0.000466 0.013866 3.27837e-07 0
-0.005155 -0.00662005 0.0762043 0.001462 0.000466 0.013866 1.46848e-05 0
0.0118129 -0.00620864 0.0657351 0.001462 0.000466 0.013866 8.31857e-06 0
-0.00446515 -0.00698654 0.0673467 0.001462 0.000466 0.013866 1.91636e-06 0
-0.00247838 -0.0089797 0.0816009 0.001462 0.000466 0.013866 9.6189e-06 0
0.00986986 -0.00551057 0.0644811 0.001462 0.000466 0.013866 4.6939e-06 0
-0.0047068 -0.00714885 0.0621466 0.001462 0.000466 0.013866 2.13103e-06 0
-0.0130081 0.00100041 0.0714231 0.001462 0.000466 0.013866 1.65763e-05 0
0.00105485 -0.0074519 0.0804144 0.001462 0.000466 0.013866 1.10968e-05 0
0.0100816 -0.00773596 0.0627777 0.001462 0.000466 0.013866 1.14622e-05 0
-0.00245752 -0.00525491 0.0621336 0.001462 0.000466 0.013866 8.7462e-06 0
0.00619845 -0.000508384 0.0672027 0.001462 0.000466 0.013866 1.67314e-06 0
-0.00507154 -0.00230309 0.0691839 0.001462 0.000466 0.013866 8.8986e-07 0
-0.00215118 -0.00719604 0.0713065 0.001462 0.000466 0.013866 1.24626e-06 0
-0.0106597 -0.00659224 0.0707584 0.001462 0.000466 0.013866 8.32437e-06 0
-0.00585747 -0.00884574 0.0652282 0.001462 0.000466 0.013866 1.89331e-06 0
-0.00486943 -0.00904947 0.0658831 0.001462 0.000466 0.013866 8.92127e-07 0
-0.00299227 -0.00732589 0.0612433 0.001462 0.000466 0.013866 2.47289e-06 0
-0.00115426 -0.00935783 0.0614401 0.001462 0.000466 0.013866 5.98895e-06 0
0.0102751 -0.00500089 0.0673957 0.001462 0.000466 0.013866 3.57742e-06 0
-0.00175414 -0.00170991 0.0754301 0.001462 0.000466 0.013866 5.93842e-06 0
0.00217437 -0.00751078 0.0745376 0.001462 0.000466 0.013866 6.06365e-06 0
3.42204e-06 -0.00245324 0.0694664 0.001462 0.000466 0.013866 3.26327e-06 0
-0.0010939 -0.00934207 0.058446 0.001462 0.000466 0.013866 8.37186e-06 0
-0.0211231 -0.00070553 0.0757462 0.001462 0.000466 0.013866 3.04931e-06 0
-0.000174934 -0.00535524 0.0648321 0.001462 0.000466 0.013866 7.98655e-06 0
-0.00721151 -0.0085073 0.0624335 0.001462 0.000466 0.013866 2.88951e-06 0
0.013446 -0.00752498 0.0671185 0.001462 0.000466 0.013866 1.88614e-06 0
0.00680391 -0.00912918 0.0719513 0.001462 0.000466 0.013866 1.21739e-05 0
0.00486222 -0.00139337 0.0610322 0.001462 0.000466 0.013866 7.08527e-07 0
-0.0222826 -0.00860915 0.0722924 0.001462 0.000466 0.013866 5.44735e-06 0
-0.00778859 -0.0086248 0.0711066 0.001462 0.000466 0.013866 6.32759e-06 0
-0.0046489 -0.00486014 0.0604754 0.001462 0.000466 0.013866 2.51151e-06 0
0.00643068 -0.00180964 0.0586867 0.001462 0.000466 0.013866 1.03418e-06 0
0.00322178 -0.00555625 0.0587544 0.001462 0.000466 0.013866 2.45751e-06 0
0.00714357 -0.00142885 0.0598847 0.001462 0.000466 0.013866 1.27766e-06 0
-0.000838051 -0.0018138 0.0594263 0.001462 0.000466 0.013866 2.0872e-06 0
-0.00143001 -0.0054167 0.0596273 0.001462 0.000466 0.013866 2.75212e-06 0
-0.00216715 -0.00163617 0.0611814 0.001462 0.000466 0.013866 6.5714e-06 0
-0.00616907 -0.00649814 0.0590629 0.001462 0.000466 0.013866 9.04692e-07 0
-0.00687768 -0.00866832 0.0661205 0.001462 0.000466 0.013866 2.14323e-06 0
0.00200353 -0.000782985 0.0658586 0.001462 0.000466 0.013866 6.06088e-06 0
0.00500763 -0.00934749 0.0658618 0.001462 0.000466 0.013866 1.34616e-05 0
0.00511292 -0.00323248 0.0626454 0.001462 0.000466 0.013866 4.18873e-07 0
0.00676493 -0.00922809 0.0631001 0.001462 0.000466 0.013866 8.0617e-06 0
0.000273353 -0.00944699 0.0730029 0.001462 0.000466 0.013866 6.6694e-06 0
-0.00293191 -0.00731013 0.0582492 0.001462 0.000466 0.013866 4.56337e-06 0
0.00573582 -0.00739986 0.0611784 0.001462 0.000466 0.013866 4.60916e-06 0
0.00417174 -0.00555623 0.0594844 0.001462 0.000466 0.013866 1.46045e-06 0
-0.00210614 -0.0092869 0.0693268 0.001462 0.000466 0.013866 3.43775e-06 0
0.00134631 -0.00749773 0.06608 0.001462 0.000466 0.013866 4.13109e-06 0
-0.00666042 -0.00865543 0.0695945 0.001462 0.000466 0.013866 2.29497e-06 0
0.00120961 -0.00536942 0.0700179 0.001462 0.000466 0.013866 8.19121e-06 0
-0.000699425 -0.00731174 0.0710368 0.001462 0.000466 0.013866 3.10503e-06 0
0.00384792 -0.00748556 0.05647 0.001462 0.000466 0.013866 3.9543e-06 0
-0.00247619 -0.00716841 0.0679635 0.001462 0.000466 0.013866 5.64344e-06 0
-0.000368217 -0.0073207 0.0669834 0.001462 0.000466 0.013866 4.29892e-06 0
-0.000180231 -0.0052464 0.0679083 0.001462 0.000466 0.013866 8.50807e-06 0
-0.0097016 -0.00634775 0.064824 0.001462 0.000466 0.013866 9.50397e-06 0
-0.00906383 -0.00466225 0.0686152 0.001462 0.000466 0.013866 1.03891e-05 0
-0.0092116 -0.00670194 0.0666588 0.001462 0.000466 0.013866 6.89393e-06 0
-0.023631 -0.00851599 0.0711088 0.001462 0.000466 0.013866 3.89511e-06 0
-0.01675 -0.00876647 0.0716717 0.001462 0.000466 0.013866 8.52119e-06 0
0.0099825 -0.00810072 0.0722765 0.001462 0.000466 0.013866 1.093e-05 0
0.0101401 -0.0056189 0.0697498 0.001462 0.000466 0.013866 2.83174e-06 0
-0.0253831 -0.00781156 0.0727187 0.001462 0.000466 0.013866 3.42193e-06 0
-0.0220201 -0.00662051 0.0760377 0.001462 0.000466 0.013866 1.12326e-06 0
-0.0197515 -0.00672719 0.0709771 0.001462 0.000466 0.013866 7.06983e-06 0
-0.0194256 -0.00472123 0.0731565 0.001462 0.000466 0.013866 9.7415e-06 0
-0.0226708 -0.00655781 0.0742701 0.001462 0.000466 0.013866 6.32247e-06 0
-0.0212847 -0.00463502 0.0750015 0.001462 0.000466 0.013866 3.28265e-06 0
-0.0164242 -0.00676051 0.0738511 0.001462 0.000466 0.013866 1.29771e-05 0
-0.0168817 -0.00870359 0.0684545 0.001462 0.000466 0.013866 1.48825e-05 0
-0.0198831 -0.00666431 0.0677598 0.001462 0.000466 0.013866 9.9707e-06 0
0.00453494 -0.00546745 0.0710526 0.001462 0.000466 0.013866 2.11075e-06 0
0.00440353 -0.00344798 0.0719143 0.001462 0.000466 0.013866 4.45648e-07 0
0.00319938 -0.00177417 0.0591042 0.001462 0.000466 0.013866 2.3303e-06 0
0.00543632 -0.000355439 0.0593783 0.001462 0.000466 0.013866 2.24673e-06 0
0.00414933 -0.00177415 0.0598342 0.001462 0.000466 0.013866 1.38485e-06 0
0.00330956 -0.00552782 0.0715914 0.001462 0.000466 0.013866 6.47606e-06 0
0.0057668 -0.00730563 0.0739527 0.001462 0.000466 0.013866 9.31734e-06 0
0.00719689 -0.00511226 0.0755022 0.001462 0.000466 0.013866 2.79243e-06 0
0.0068857 -0.00231056 0.073639 0.001462 0.000466 0.013866 8.03822e-07 0
0.0053242 -0.00248446 0.0729512 0.001462 0.000466 0.013866 1.69866e-06 0
0.00322217 -0.0030739 0.0821248 0.001462 0.000466 0.013866 2.84027e-06 0
0.00798275 -0.00484684 0.0783698 0.001462 0.000466 0.013866 3.73625e-06 0
0.000345815 -0.00186832 0.0770036 0.001462 0.000466 0.013866 4.72216e-06 0
0.00607472 -0.00116719 0.0744732 0.001462 0.000466 0.013866 3.43742e-06 0
0.00383084 -0.00126372 0.0811638 0.001462 0.000466 0.013866 7.97819e-06 0
0.00321095 -0.000543826 0.0762216 0.001462 0.000466 0.013866 5.16614e-06 0
0.00100958 -0.000507277 0.0814396 0.001462 0.000466 0.013866 6.12829e-07 0
0.00429547 -0.00940212 0.0756724 0.001462 0.000466 0.013866 1.3111e-05 0
0.0040652 -0.00939639 0.079784 0.001462 0.000466 0.013866 1.3354e-05 0
-0.0193474 -0.000282325 0.0677643 0.001462 0.000466 0.013866 5.21087e-06 0
-0.019088 -9.04626e-05 0.0714633 0.001462 0.000466 0.013866 6.79285e-06 0
0.0093818 -0.00382707 0.0736683 0.001462 0.000466 0.013866 1.18548e-06 0
0.0102775 -0.00577877 0.0753419 0.001462 0.000466 0.013866 1.42801e-06 0
0.00962567 -0.00604401 0.0741773 0.001462 0.000466 0.013866 6.8723e-06 0
-0.032424 -0.00434817 0.100006 0.3415 0.062325 0.429425 2.83698e-07 1
-0.0300046 0.00326917 0.0983051 0.3415 0.062325 0.429425 1.5942e-05 1
-0.0291097 0.000141017 0.0835237 0.3415 0.062325 0.429425 6.33438e-06 1
-0.0277729 0.000110726 0.0874378 0.3415 0.062325 0.429425 1.63904e-06 1
-0.0300088 0.00340997 0.0881054 0.3415 0.062325 0.429425 6.67818e-06 1
-0.0238841 0.0102693 0.113044 0.3415 0.062325 0.429425 6.08485e-07 1
-0.0298897 -0.00359304 0.0920674 0.3415 0.062325 0.429425 1.05831e-05 1
-0.0295581 0.00463974 0.0896219 0.3415 0.062325 0.429425 5.4755e-06 1
-0.0257711 0.00974829 0.101612 0.3415 0.062325 0.429425 4.85218e-06 1
-0.0300746 -0.00291226 0.0895153 0.3415 0.062325 0.429425 8.37038e-06 1
-0.0230388 0.00717727 0.115612 0.3415 0.062325 0.429425 1.19108e-05 1
-0.0264754 0.00124046 0.0828949 0.3415 0.062325 0.429425 4.65353e-06 1
-0.0325508 -0.00357849 0.0912558 0.3415 0.062325 0.429425 4.12113e-07 1
-0.03018 0.00129946 0.0928503 0.3415 0.062325 0.429425 9.1839e-06 1
-0.0303489 0.0018209 0.104564 0.3415 0.062325 0.429425 1.60278e-05 1
-0.0235741 0.00528398 0.109628 0.3415 0.062325 0.429425 6.14463e-06 1
-0.0250447 0.0073181 0.103795 0.3415 0.062325 0.429425 2.26869e-05 1
-0.0307616 -0.000513043 0.0929033 0.3415 0.062325 0.429425 3.14186e-06 1
-0.0304653 -0.00224318 0.0941491 0.3415 0.062325 0.429425 3.89317e-06 1
-0.030741 0.00205648 0.100189 0.3415 0.062325 0.429425 3.1154e-06 1
-0.0303973 -0.001511 0.107226 0.3415 0.062325 0.429425 3.06158e-06 1
-0.0306812 -0.000508473 0.0900966 0.3415 0.062325 0.429425 3.38785e-06 1
-0.0251746 -0.000581785 0.0868472 0.3415 0.062325 0.429425 5.66828e-06 1
-0.0305503 7.42524e-05 0.0885271 0.3415 0.062325 0.429425 5.98161e-06 1
-0.0299126 -0.00366955 0.0998718 0.3415 0.062325 0.429425 3.80046e-06 1
-0.0278233 0.000474718 0.0858675 0.3415 0.062325 0.429425 4.2856e-06 1
-0.0227562 0.0071875 0.113287 0.3415 0.062325 0.429425 7.98749e-06 1
-0.0261978 0.00400393 0.110308 0.3415 0.062325 0.429425 7.89057e-06 1
-0.0305449 -0.000365116 0.107278 0.3415 0.062325 0.429425 4.04508e-06 1
-0.0274337 0.00238986 0.0902606 0.3415 0.062325 0.429425 4.01616e-06 1
-0.0278844 0.00116009 0.0887441 0.3415 0.062325 0.429425 6.23254e-06 1
-0.0217594 -0.00487479 0.108573 0.3415 0.062325 0.429425 1.34179e-05 1
-0.0274713 0.00548185 0.114394 0.3415 0.062325 0.429425 6.08228e-06 1
-0.0247981 0.00492308 0.109838 0.3415 0.062325 0.429425 5.8306e-06 1
-0.0227491 0.00559317 0.118993 0.3415 0.062325 0.429425 1.14247e-05 1
-0.0243466 0.00742015 0.111575 0.3415 0.062325 0.429425 2.63249e-07 1
-0.030786 0.00205392 0.101761 0.3415 0.062325 0.429425 5.09399e-06 1
-0.0302229 -0.0029959 0.101699 0.3415 0.062325 0.429425 1.0497e-05 1
-0.0309241 0.00302208 0.0810467 0.3415 0.062325 0.429425 4.54604e-06 1
-0.0222937 0.0100367 0.114757 0.3415 0.062325 0.429425 2.43092e-06 1
-0.0331264 -0.00222863 0.0933374 0.3415 0.062325 0.429425 2.6414e-07 1
-0.0315289 0.000301471 0.0819936 0.3415 0.062325 0.429425 3.93998e-06 1
-0.0330082 0.00220845 0.103552 0.3415 0.062325 0.429425 2.15934e-06 1
-0.0336961 0.000560551 0.0953237 0.3415 0.062325 0.429425 2.51995e-07 1
-0.0331144 0.00237305 0.0952707 0.3415 0.062325 0.429425 2.21203e-06 1
-0.0326638 0.00365671 0.0972925 0.3415 0.062325 0.429425 2.42991e-06 1
-0.0304826 -0.00747902 0.0938596 0.3415 0.062325 0.429425 1.26808e-06 1
-0.0276826 0.00092159 0.0957886 0.3415 0.062325 0.429425 3.1628e-05 1
-0.0279608 -0.00203091 0.0969922 0.3415 0.062325 0.429425 8.36581e-06 1
-0.0256077 0.00728248 0.0998688 0.3415 0.062325 0.429425 1.19008e-05 1
-0.0259426 0.00402784 0.0950435 0.3415 0.062325 0.429425 2.06176e-05 1
-0.0206642 -0.0042844 0.0979433 0.3415 0.062325 0.429425 2.41394e-05 1
-0.0186747 -0.00223917 0.0971267 0.3415 0.062325 0.429425 9.60609e-06 1
-0.027244 -0.00357787 0.0968674 0.3415 0.062325 0.429425 1.25466e-05 1
-0.0312055 -0.000283671 0.10124 0.3415 0.062325 0.429425 6.25658e-06 1
-0.0294006 0.00404618 0.106644 0.3415 0.062325 0.429425 1.6279e-05 1
-0.027951 0.00602782 0.106799 0.3415 0.062325 0.429425 1.09697e-05 1
-0.0265513 0.00694697 0.106329 0.3415 0.062325 0.429425 7.60529e-06 1
-0.0192374 -0.00593261 0.102413 0.3415 0.062325 0.429425 1.76137e-05 1
-0.0282646 0.00637542 0.0975601 0.3415 0.062325 0.429425 1.07165e-05 1
-0.0291958 -0.0052165 0.099747 0.3415 0.062325 0.429425 3.53413e-06 1
-0.0242652 -0.00608838 0.126532 0.3415 0.062325 0.429425 6.97766e-06 1
-0.0217222 -0.0100993 0.12262 0.3415 0.062325 0.429425 8.43256e-07 1
-0.029099 -0.0040718 0.112436 0.3415 0.062325 0.429425 4.36713e-06 1
-0.0276474 0.00202229 0.110152 0.3415 0.062325 0.429425 1.18853e-05 1
-0.0304017 -0.00104021 0.111474 0.3415 0.062325 0.429425 2.59971e-07 1
-0.0226225 -0.00743639 0.127697 0.3415 0.062325 0.429425 1.1627e-06 1
-0.0188448 -0.00719243 0.121024 0.3415 0.062325 0.429425 1.27082e-05 1
-0.0255029 -0.0069836 0.12375 0.3415 0.062325 0.429425 2.58484e-06 1
-0.021827 -0.00631026 0.121901 0.3415 0.062325 0.429425 5.05883e-06 1
-0.0257393 0.00642203 0.116242 0.3415 0.062325 0.429425 1.20046e-05 1
-0.0295863 -0.0031504 0.106977 0.3415 0.062325 0.429425 8.08183e-06 1
-0.0242436 -0.000726771 0.125142 0.3415 0.062325 0.429425 2.48464e-05 1
-0.019861 -0.00170971 0.12364 0.3415 0.062325 0.429425 3.96625e-05 1
-0.0236101 -0.00427458 0.118753 0.3415 0.062325 0.429425 5.28298e-06 1
-0.0229966 -0.00919744 0.119027 0.3415 0.062325 0.429425 1.64428e-07 1
-0.0301081 -0.00067785 0.108882 0.3415 0.062325 0.429425 1.79692e-07 1
-0.0246504 -2.23428e-05 0.120766 0.3415 0.062325 0.429425 1.58881e-05 1
-0.0238602 -0.00833161 0.124916 0.3415 0.062325 0.429425 4.30406e-06 1
-0.0297856 4.35536e-05 0.116355 0.3415 0.062325 0.429425 8.49581e-07 1
-0.0287702 0.00341989 0.115205 0.3415 0.062325 0.429425 7.69308e-06 1
-0.0277034 -0.00630044 0.10601 0.3415 0.062325 0.429425 4.41147e-06 1
-0.0234032 -0.00808456 0.116621 0.3415 0.062325 0.429425 2.28329e-06 1
-0.0268829 -0.00630632 0.115925 0.3415 0.062325 0.429425 3.20206e-06 1
-0.0291884 -0.00448372 0.104685 0.3415 0.062325 0.429425 1.39527e-05 1
-0.0244877 -0.00503588 0.108995 0.3415 0.062325 0.429425 1.32116e-05 1
-0.0297542 -0.00234297 0.113649 0.3415 0.062325 0.429425 2.52478e-06 1
-0.0302428 0.000114775 0.113457 0.3415 0.062325 0.429425 1.27437e-06 1
-0.0299517 -0.000385381 0.115393 0.3415 0.062325 0.429425 1.27437e-06 1
-0.0296108 -0.00169725 0.115638 0.3415 0.062325 0.429425 2.10402e-06 1
-0.0297188 0.00209649 0.112909 0.3415 0.062325 0.429425 3.9142e-06 1
-0.0291006 -0.00151462 0.117862 0.3415 0.062325 0.429425 7.35928e-07 1
-0.0289103 -0.00274616 0.11714 0.3415 0.062325 0.429425 3.45179e-06 1
-0.0231573 -0.00921816 0.122899 0.3415 0.062325 0.429425 2.70978e-06 1
-0.0205893 -0.00541504 0.124682 0.3415 0.062325 0.429425 2.13157e-05 1
-0.0302665 -0.0016298 0.112445 0.3415 0.062325 0.429425 1.17701e-06 1
-0.0267849 -0.00683966 0.113198 0.3415 0.062325 0.429425 3.20206e-06 1
-0.0237212 -0.00799593 0.112837 0.3415 0.062325 0.429425 3.82635e-06 1
-0.0263204 -0.00433812 0.109155 0.3415 0.062325 0.429425 4.4411e-06 1
-0.0206279 -0.00515676 0.117877 0.3415 0.062325 0.429425 1.46872e-05 1
-0.0304141 -0.000483912 0.112498 0.3415 0.062325 0.429425 1.69916e-06 1
-0.0273741 -0.00385712 0.126448 0.3415 0.062325 0.429425 4.43873e-06 1
-0.0231029 -0.00922933 0.121378 0.3415 0.062325 0.429425 7.27766e-07 1
-0.0212972 -0.00888587 0.12078 0.3415 0.062325 0.429425 5.98208e-06 1
-0.0258148 -0.00695298 0.117044 0.3415 0.062325 0.429425 4.43694e-06 1
-0.0243321 -0.00784389 0.115435 0.3415 0.062325 0.429425 4.2822e-06 1
-0.0281036 -0.00436254 0.117601 0.3415 0.062325 0.429425 1.78047e-06 1
-0.0236009 -0.00671665 0.117709 0.3415 0.062325 0.429425 2.7521e-06 1
-0.0287889 -0.00133576 0.119792 0.3415 0.062325 0.429425 6.56204e-06 1
