ply
format ascii 1.0
comment Created by Open3D
element vertex 665
property float32 x
property float32 y
property float32 z
property float32 red
property float32 green
property float32 blue
property float32 volume
property uint8 segmentation
end_header
0.107842 -0.00213774 -0.0189843 0.3415 0.062325 0.429425 2.0585e-07 1
0.111155 -0.00140375 -0.0164356 0.3415 0.062325 0.429425 6.234e-06 1
0.108854 0.00293082 -0.020375 0.3415 0.062325 0.429425 8.42134e-07 1
0.110078 0.0027398 -0.0204845 0.3415 0.062325 0.429425 1.05276e-06 1
0.126667 0.00236022 -0.00389633 0.3415 0.062325 0.429425 2.99999e-06 1
0.124912 0.00179541 0.000411071 0.3415 0.062325 0.429425 1.45513e-06 1
0.125724 0.00057616 -0.00140898 0.3415 0.062325 0.429425 3.02859e-06 1
0.124973 0.000179866 0.000911263 0.3415 0.062325 0.429425 1.39387e-06 1
0.125939 0.00203644 6.91057e-05 0.3415 0.062325 0.429425 2.91604e-06 1
0.128263 0.000488465 -0.00397186 0.3415 0.062325 0.429425 1.13395e-06 1
0.122585 0.00138582 0.00202817 0.3415 0.062325 0.429425 7.18212e-07 1
0.13014 -0.00134993 -0.0041356 0.3415 0.062325 0.429425 1.06342e-05 1
0.128732 0.00238163 -0.00320899 0.3415 0.062325 0.429425 3.03623e-06 1
0.134296 0.00385632 -0.00342391 0.3415 0.062325 0.429425 7.615e-07 1
0.123301 -0.00127088 0.000156439 0.3415 0.062325 0.429425 2.06551e-06 1
0.132953 -0.00138161 -0.00346459 0.3415 0.062325 0.429425 1.34986e-05 1
0.129783 0.00242575 -0.00281212 0.3415 0.062325 0.429425 3.72693e-06 1
0.13121 0.00330961 -0.000923502 0.3415 0.062325 0.429425 2.77691e-06 1
0.125408 -0.00120902 0.00227821 0.3415 0.062325 0.429425 1.48697e-07 1
0.134744 0.00204623 -0.00166182 0.3415 0.062325 0.429425 2.95624e-06 1
0.130491 0.00145479 -0.000858576 0.3415 0.062325 0.429425 6.03644e-06 1
0.133075 0.000479211 -0.0016862 0.3415 0.062325 0.429425 6.82608e-06 1
0.127872 0.000492628 -0.00269052 0.3415 0.062325 0.429425 6.04118e-06 1
0.128024 0.000498253 0.00247304 0.3415 0.062325 0.429425 8.43332e-07 1
0.129911 0.00052658 -0.00541832 0.3415 0.062325 0.429425 5.33377e-06 1
0.124684 0.00131599 0.00177184 0.3415 0.062325 0.429425 1.15542e-06 1
0.127256 -0.00128757 -0.00137821 0.3415 0.062325 0.429425 4.41905e-06 1
0.125849 0.00244529 -0.00259338 0.3415 0.062325 0.429425 4.81927e-06 1
0.125395 0.000603155 0.00238913 0.3415 0.062325 0.429425 6.91749e-07 1
0.123417 0.000291656 0.00177713 0.3415 0.062325 0.429425 9.31598e-07 1
0.134129 0.00229008 -0.0112491 0.3415 0.062325 0.429425 6.76831e-06 1
0.137604 -0.00147068 -0.00798993 0.3415 0.062325 0.429425 4.69668e-06 1
0.13909 -0.00186272 -0.00154654 0.3415 0.062325 0.429425 3.80633e-06 1
0.134738 -0.00142736 -0.00467645 0.3415 0.062325 0.429425 5.88443e-06 1
0.135363 0.00195575 -0.00457084 0.3415 0.062325 0.429425 8.51249e-06 1
0.137837 -0.00166537 -0.00314576 0.3415 0.062325 0.429425 2.46395e-06 1
0.12568 -0.00108746 0.00129236 0.3415 0.062325 0.429425 7.57395e-07 1
0.129144 0.00217585 -0.00766147 0.3415 0.062325 0.429425 2.9197e-06 1
0.12249 -0.000845874 0.000896964 0.3415 0.062325 0.429425 2.10728e-06 1
0.123852 0.00241015 0.00202288 0.3415 0.062325 0.429425 2.26369e-07 1
0.126075 -0.000159116 0.00227164 0.3415 0.062325 0.429425 3.39582e-07 1
0.134918 0.000471656 0.000453013 0.3415 0.062325 0.429425 3.6635e-06 1
0.12454 0.000222682 0.00287357 0.3415 0.062325 0.429425 1.8184e-07 1
0.12928 0.00107981 0.000792108 0.3415 0.062325 0.429425 3.6574e-06 1
0.123523 -0.000950098 0.00215694 0.3415 0.062325 0.429425 2.36918e-07 1
0.137204 0.00198985 -0.0047153 0.3415 0.062325 0.429425 6.03044e-06 1
0.12896 -0.000428556 0.00151517 0.3415 0.062325 0.429425 2.4388e-06 1
0.136138 0.00389042 -0.00356836 0.3415 0.062325 0.429425 1.63306e-06 1
0.124728 -0.000446752 0.0023957 0.3415 0.062325 0.429425 2.75519e-07 1
0.136108 0.00113312 -0.00019343 0.3415 0.062325 0.429425 1.98532e-06 1
0.123239 0.000344663 -0.000343753 0.3415 0.062325 0.429425 1.99963e-06 1
0.133216 -0.000438005 -7.85223e-05 0.3415 0.062325 0.429425 5.42287e-06 1
0.134291 0.00038273 -0.00643854 0.3415 0.062325 0.429425 7.17719e-06 1
0.127861 0.00054656 0.000842965 0.3415 0.062325 0.429425 1.32229e-06 1
0.127405 -0.000902774 0.000107726 0.3415 0.062325 0.429425 4.35052e-06 1
0.123334 -0.000280664 0.00263481 0.3415 0.062325 0.429425 1.49751e-07 1
0.12886 0.000482463 -0.00581518 0.3415 0.062325 0.429425 2.7051e-06 1
0.126532 0.00054502 0.000821557 0.3415 0.062325 0.429425 1.0989e-06 1
0.133017 0.000458505 -0.0101791 0.3415 0.062325 0.429425 7.05235e-06 1
0.129314 0.000532581 -0.003575 0.3415 0.062325 0.429425 4.25001e-07 1
0.131829 0.00142893 -0.000922127 0.3415 0.062325 0.429425 6.44332e-07 1
0.138291 0.000235662 -0.00413382 0.3415 0.062325 0.429425 2.74178e-06 1
0.13581 0.000145662 -0.00280875 0.3415 0.062325 0.429425 5.86003e-06 1
0.135836 -0.00148842 -0.00855939 0.3415 0.062325 0.429425 9.57175e-06 1
0.139228 -0.000153356 0.00131559 0.3415 0.062325 0.429425 1.22102e-06 1
0.137379 0.000546317 0.000246992 0.3415 0.062325 0.429425 6.40302e-07 1
0.134721 -0.00146204 -0.0106157 0.3415 0.062325 0.429425 7.38497e-06 1
0.1379 0.00043457 -0.00601355 0.3415 0.062325 0.429425 2.22354e-06 1
0.132119 0.00235439 -0.00819359 0.3415 0.062325 0.429425 7.70255e-06 1
0.132277 0.002305 -0.0065094 0.3415 0.062325 0.429425 3.65353e-06 1
0.138041 -0.000351601 -0.0015584 0.3415 0.062325 0.429425 2.31e-06 1
0.122491 0.000229893 0.00285114 0.3415 0.062325 0.429425 1.72882e-07 1
0.128285 0.000286844 -0.007143 0.3415 0.062325 0.429425 9.65122e-06 1
0.140816 0.00035413 0.00149789 0.3415 0.062325 0.429425 2.70433e-06 1
0.140837 0.00296918 0.000539353 0.3415 0.062325 0.429425 4.56209e-07 1
0.138428 -0.000964805 0.000258854 0.3415 0.062325 0.429425 9.19758e-07 1
0.139726 0.0034089 -0.00125579 0.3415 0.062325 0.429425 1.42159e-06 1
0.139544 3.83108e-05 -0.0025346 0.3415 0.062325 0.429425 3.79041e-06 1
0.138496 0.00154943 -0.00254647 0.3415 0.062325 0.429425 2.33895e-06 1
0.140401 -0.00139427 -0.00975969 0.3415 0.062325 0.429425 7.63271e-06 1
0.137528 0.000400644 -0.00969138 0.3415 0.062325 0.429425 5.735e-06 1
0.138986 0.00229944 -0.0084292 0.3415 0.062325 0.429425 9.29004e-06 1
0.144384 0.000412186 -0.0178377 0.3415 0.062325 0.429425 8.33599e-06 1
0.149098 0.000497705 -0.0160661 0.3415 0.062325 0.429425 2.7007e-06 1
0.142014 -0.00137647 -0.013339 0.3415 0.062325 0.429425 1.25152e-05 1
0.150082 0.00151398 -0.0217915 0.3415 0.062325 0.429425 7.15582e-07 1
0.146538 -0.000242781 -0.0226873 0.3415 0.062325 0.429425 1.56404e-07 1
0.146461 -0.000946215 -0.0216491 0.3415 0.062325 0.429425 1.34127e-06 1
0.143095 -0.00237746 -0.0208081 0.3415 0.062325 0.429425 3.23096e-07 1
0.145573 0.00100545 -0.0224283 0.3415 0.062325 0.429425 2.79463e-07 1
0.143688 -0.00101005 -0.0199178 0.3415 0.062325 0.429425 5.28503e-06 1
0.142835 0.000361551 -0.0205855 0.3415 0.062325 0.429425 1.6234e-06 1
0.142242 -0.00100586 -0.0214758 0.3415 0.062325 0.429425 1.23349e-06 1
0.140945 0.00384307 -0.0186876 0.3415 0.062325 0.429425 2.82493e-07 1
0.139866 0.000224211 -0.0229092 0.3415 0.062325 0.429425 2.34554e-07 1
0.13966 0.000520743 -0.0163552 0.3415 0.062325 0.429425 5.06019e-06 1
0.140002 0.00237714 -0.0178779 0.3415 0.062325 0.429425 1.11885e-06 1
0.140207 0.00229853 -0.021998 0.3415 0.062325 0.429425 2.37405e-07 1
0.141203 0.00125277 -0.0220308 0.3415 0.062325 0.429425 7.72364e-07 1
0.141221 0.000133588 -0.0210802 0.3415 0.062325 0.429425 2.13069e-06 1
0.151063 0.000298165 -0.022557 0.3415 0.062325 0.429425 2.68068e-07 1
0.140227 0.00209443 -0.0187295 0.3415 0.062325 0.429425 1.3561e-06 1
0.141511 0.000502901 -0.0146942 0.3415 0.062325 0.429425 8.75234e-06 1
0.140198 0.000502849 -0.0152576 0.3415 0.062325 0.429425 1.88368e-06 1
0.154415 0.00239569 -0.0182755 0.3415 0.062325 0.429425 2.17032e-06 1
0.13889 0.000510663 -0.0185946 0.3415 0.062325 0.429425 1.52684e-06 1
0.154982 0.00243346 -0.0200099 0.3415 0.062325 0.429425 6.14785e-07 1
0.138911 0.000564148 -0.0197815 0.3415 0.062325 0.429425 2.24587e-06 1
0.151576 0.00233252 -0.0206127 0.3415 0.062325 0.429425 2.1439e-06 1
0.151852 0.00094748 -0.0197874 0.3415 0.062325 0.429425 2.97701e-06 1
0.155016 -0.000330559 -0.0218724 0.3415 0.062325 0.429425 3.88053e-07 1
0.154218 0.000654028 -0.0217624 0.3415 0.062325 0.429425 3.47284e-07 1
0.153561 0.0013436 -0.0210248 0.3415 0.062325 0.429425 6.34709e-07 1
0.15335 0.00230678 -0.0212276 0.3415 0.062325 0.429425 1.02462e-06 1
0.151731 0.000690097 -0.0227006 0.3415 0.062325 0.429425 1.95042e-07 1
0.153179 0.00138262 -0.0221242 0.3415 0.062325 0.429425 3.47508e-07 1
0.154859 0.00085918 -0.01952 0.3415 0.062325 0.429425 7.73046e-07 1
0.153991 0.00190626 -0.0221097 0.3415 0.062325 0.429425 1.92134e-07 1
0.151718 -0.000199379 -0.0221314 0.3415 0.062325 0.429425 3.02611e-07 1
0.154215 -0.000982133 -0.0194145 0.3415 0.062325 0.429425 9.43936e-07 1
0.141814 0.001501 -0.0201899 0.3415 0.062325 0.429425 3.39556e-06 1
0.154273 0.00101402 -0.020527 0.3415 0.062325 0.429425 1.40633e-06 1
0.155078 0.000575849 -0.0225974 0.3415 0.062325 0.429425 6.7817e-08 1
0.150737 0.00101643 -0.0213658 0.3415 0.062325 0.429425 1.48076e-06 1
0.149486 0.00233621 -0.0217622 0.3415 0.062325 0.429425 5.43447e-07 1
0.144582 0.00169667 -0.0214173 0.3415 0.062325 0.429425 1.84281e-06 1
0.143009 0.0023294 -0.0170112 0.3415 0.062325 0.429425 4.67699e-06 1
0.151013 -0.00036861 -0.0205405 0.3415 0.062325 0.429425 1.70472e-06 1
0.154288 0.00028808 -0.0225147 0.3415 0.062325 0.429425 1.17016e-07 1
0.153771 0.000554378 -0.01817 0.3415 0.062325 0.429425 2.58638e-06 1
0.156916 -4.45603e-05 -0.0218698 0.3415 0.062325 0.429425 5.34902e-07 1
0.151838 0.000473719 -0.014794 0.3415 0.062325 0.429425 8.82168e-07 1
0.150347 0.00048882 -0.0150894 0.3415 0.062325 0.429425 1.21899e-05 1
0.154177 -0.000658216 -0.0216444 0.3415 0.062325 0.429425 1.78923e-07 1
0.152557 0.00111671 -0.0213783 0.3415 0.062325 0.429425 3.73695e-07 1
0.153545 -0.000597916 -0.0200552 0.3415 0.062325 0.429425 1.87958e-06 1
0.15493 0.000324442 -0.0212646 0.3415 0.062325 0.429425 1.01275e-06 1
0.148716 0.000703396 -0.022664 0.3415 0.062325 0.429425 1.65385e-07 1
0.143026 -9.43375e-05 -0.022547 0.3415 0.062325 0.429425 3.32956e-07 1
0.15216 0.00236181 -0.0182741 0.3415 0.062325 0.429425 4.91026e-06 1
0.141293 0.00204662 -0.0186957 0.3415 0.062325 0.429425 3.32051e-06 1
0.138204 -0.00137571 -0.0163065 0.3415 0.062325 0.429425 6.34394e-06 1
0.14557 -0.00139326 -0.0161251 0.3415 0.062325 0.429425 1.37156e-05 1
0.14461 0.000581856 -0.0226678 0.3415 0.062325 0.429425 4.56722e-07 1
0.147904 0.000204697 -0.0205439 0.3415 0.062325 0.429425 1.29378e-06 1
0.147616 0.000438321 -0.0162197 0.3415 0.062325 0.429425 6.61451e-06 1
0.14643 0.00224376 -0.0179323 0.3415 0.062325 0.429425 7.44703e-06 1
0.148056 0.00024098 -0.0228917 0.3415 0.062325 0.429425 1.0824e-07 1
0.154242 0.00115049 -0.022136 0.3415 0.062325 0.429425 3.48357e-07 1
0.142229 0.000397825 -0.0227731 0.3415 0.062325 0.429425 3.94423e-07 1
0.150488 0.00237721 -0.0169384 0.3415 0.062325 0.429425 9.43704e-06 1
0.149053 0.00147756 -0.0217894 0.3415 0.062325 0.429425 6.51498e-07 1
0.142397 0.00240718 -0.0155606 0.3415 0.062325 0.429425 5.00185e-06 1
0.141428 0.000605487 -0.0226524 0.3415 0.062325 0.429425 2.0871e-07 1
0.146666 0.00173451 -0.0199918 0.3415 0.062325 0.429425 4.34812e-06 1
0.145435 0.000325073 -0.0207496 0.3415 0.062325 0.429425 4.55526e-06 1
0.145813 0.00310611 -0.0206594 0.3415 0.062325 0.429425 2.22847e-07 1
0.148714 -0.000154382 -0.0226899 0.3415 0.062325 0.429425 9.91429e-08 1
0.148677 0.000790478 -0.0212428 0.3415 0.062325 0.429425 1.30425e-06 1
0.145578 0.0001914 -0.0229008 0.3415 0.062325 0.429425 1.66969e-07 1
0.1466 0.000184088 -0.0224562 0.3415 0.062325 0.429425 2.43992e-07 1
0.149543 -0.00112785 -0.017804 0.3415 0.062325 0.429425 9.96555e-06 1
0.148061 -0.00118724 -0.0179576 0.3415 0.062325 0.429425 3.22515e-06 1
0.147603 -0.00114954 -0.021307 0.3415 0.062325 0.429425 4.3013e-07 1
0.14834 1.63116e-05 -0.0221174 0.3415 0.062325 0.429425 3.17173e-07 1
0.147741 -1.92354e-05 -0.022114 0.3415 0.062325 0.429425 2.88856e-08 1
0.148337 -0.000841466 -0.0221433 0.3415 0.062325 0.429425 2.44674e-07 1
0.149068 -0.00303232 -0.0178716 0.3415 0.062325 0.429425 1.826e-06 1
0.149982 -0.00055815 -0.0204196 0.3415 0.062325 0.429425 2.60206e-06 1
0.133569 0.00041966 -0.022143 0.3415 0.062325 0.429425 1.71137e-07 1
0.136021 0.00100352 -0.0226201 0.3415 0.062325 0.429425 2.11857e-07 1
0.134475 0.000703708 -0.0206636 0.3415 0.062325 0.429425 6.57316e-07 1
0.133765 0.000345363 -0.0203806 0.3415 0.062325 0.429425 1.69859e-07 1
0.1315 -0.000923839 -0.0212331 0.3415 0.062325 0.429425 7.72943e-07 1
0.132884 0.000255193 -0.0206239 0.3415 0.062325 0.429425 4.48659e-07 1
0.137325 0.000654086 -0.0213194 0.3415 0.062325 0.429425 4.81917e-07 1
0.12919 -0.000242458 -0.0210126 0.3415 0.062325 0.429425 2.50523e-06 1
0.136616 0.0023425 -0.0161877 0.3415 0.062325 0.429425 6.39919e-06 1
0.135438 0.000438978 -0.022829 0.3415 0.062325 0.429425 7.51258e-08 1
0.136479 0.000409238 -0.022419 0.3415 0.062325 0.429425 2.70822e-07 1
0.135833 0.000369534 -0.0116857 0.3415 0.062325 0.429425 6.11621e-06 1
0.125011 0.00208628 -0.0187791 0.3415 0.062325 0.429425 6.90496e-07 1
0.126558 0.00217978 -0.017507 0.3415 0.062325 0.429425 2.20034e-06 1
0.131293 -0.0024832 -0.0204722 0.3415 0.062325 0.429425 4.90708e-07 1
0.131578 -0.00141837 -0.0168664 0.3415 0.062325 0.429425 6.81778e-06 1
0.133023 0.000543405 -0.0219343 0.3415 0.062325 0.429425 1.43997e-07 1
0.130583 -1.66402e-05 -0.0207145 0.3415 0.062325 0.429425 7.93059e-07 1
0.138788 -0.000230682 -0.0225449 0.3415 0.062325 0.429425 5.5375e-07 1
0.128168 0.000208476 -0.0144336 0.3415 0.062325 0.429425 4.63208e-06 1
0.132651 0.00147694 -0.0212258 0.3415 0.062325 0.429425 2.32677e-07 1
0.126366 0.000400139 -0.0189302 0.3415 0.062325 0.429425 9.74747e-07 1
0.138457 0.000949693 -0.0221532 0.3415 0.062325 0.429425 8.05149e-07 1
0.131118 0.000892077 -0.0215954 0.3415 0.062325 0.429425 5.19806e-07 1
0.131473 -0.00026889 -0.02013 0.3415 0.062325 0.429425 2.28435e-06 1
0.126562 0.00027833 -0.0175797 0.3415 0.062325 0.429425 3.37836e-06 1
0.13542 0.00162141 -0.0208507 0.3415 0.062325 0.429425 2.01526e-06 1
0.131931 0.000296167 -0.0224629 0.3415 0.062325 0.429425 1.44405e-07 1
0.12862 -0.00150903 -0.0165164 0.3415 0.062325 0.429425 4.40433e-06 1
0.124985 0.00190916 -0.0166847 0.3415 0.062325 0.429425 3.76613e-06 1
0.129353 0.000398168 -0.0152886 0.3415 0.062325 0.429425 4.72334e-06 1
0.127587 0.00227975 -0.0166411 0.3415 0.062325 0.429425 3.72741e-06 1
0.137978 -0.00133791 -0.0178896 0.3415 0.062325 0.429425 3.17197e-06 1
0.124213 -0.000435608 -0.0211674 0.3415 0.062325 0.429425 2.53212e-06 1
0.130597 -0.00122517 -0.0212936 0.3415 0.062325 0.429425 2.70487e-07 1
0.129725 0.000666259 -0.0218936 0.3415 0.062325 0.429425 1.91757e-06 1
0.138202 -0.0010196 -0.019377 0.3415 0.062325 0.429425 1.28492e-06 1
0.133233 0.00164908 -0.0187842 0.3415 0.062325 0.429425 3.4388e-06 1
0.131188 0.000366662 -0.0184556 0.3415 0.062325 0.429425 5.78639e-06 1
0.139765 0.00234715 -0.0148627 0.3415 0.062325 0.429425 2.42173e-06 1
0.132352 0.00155891 -0.0190275 0.3415 0.062325 0.429425 1.90642e-06 1
0.131007 0.0023911 -0.0135667 0.3415 0.062325 0.429425 2.49696e-06 1
0.135097 0.00235143 -0.0155138 0.3415 0.062325 0.429425 6.7636e-06 1
0.1289 0.00211567 -0.0132059 0.3415 0.062325 0.429425 1.83134e-06 1
0.132581 0.000288566 -0.0206538 0.3415 0.062325 0.429425 1.62066e-07 1
0.135459 -0.00291248 -0.0187766 0.3415 0.062325 0.429425 5.6467e-07 1
0.123207 0.000491838 -0.0220409 0.3415 0.062325 0.429425 1.1284e-06 1
0.128766 0.00230501 -0.0182282 0.3415 0.062325 0.429425 7.71171e-06 1
0.136833 0.00227379 -0.0201659 0.3415 0.062325 0.429425 2.71783e-06 1
0.138039 0.00199112 -0.0205971 0.3415 0.062325 0.429425 1.13747e-06 1
0.137272 0.00269112 -0.0189555 0.3415 0.062325 0.429425 1.44733e-06 1
0.135257 -0.00111185 -0.021533 0.3415 0.062325 0.429425 8.86505e-08 1
0.130086 0.00226736 -0.0172281 0.3415 0.062325 0.429425 3.11832e-06 1
0.124748 0.000792992 -0.0205605 0.3415 0.062325 0.429425 2.32998e-06 1
0.127819 -0.00204736 -0.0208486 0.3415 0.062325 0.429425 6.22424e-07 1
0.139383 -0.000851081 -0.020638 0.3415 0.062325 0.429425 3.12757e-06 1
0.122347 -0.00165487 -0.0173762 0.3415 0.062325 0.429425 3.26254e-06 1
0.133473 0.00238895 -0.0129135 0.3415 0.062325 0.429425 5.53955e-06 1
0.135869 -0.00143695 -0.0137058 0.3415 0.062325 0.429425 3.85574e-06 1
0.130476 0.000482325 -0.0156389 0.3415 0.062325 0.429425 4.29984e-06 1
0.134405 -0.000484662 -0.0200916 0.3415 0.062325 0.429425 1.68663e-06 1
0.133195 0.000461854 -0.0163001 0.3415 0.062325 0.429425 1.28294e-06 1
0.129979 0.00224743 -0.0125566 0.3415 0.062325 0.429425 4.07986e-06 1
0.131988 0.00238794 -0.0136209 0.3415 0.062325 0.429425 1.80774e-06 1
0.135104 0.00123015 -0.0222102 0.3415 0.062325 0.429425 1.99417e-07 1
0.13416 0.000312451 -0.0220231 0.3415 0.062325 0.429425 9.23002e-08 1
0.134557 -0.000427201 -0.0214955 0.3415 0.062325 0.429425 3.87904e-07 1
0.133042 0.00235824 -0.0170389 0.3415 0.062325 0.429425 2.13891e-06 1
0.138322 -0.000391667 -0.0213522 0.3415 0.062325 0.429425 1.18729e-06 1
0.125515 0.00128148 -0.0200407 0.3415 0.062325 0.429425 2.49604e-06 1
0.13195 -0.00151371 -0.0204897 0.3415 0.062325 0.429425 7.95496e-07 1
0.133122 0.00047522 -0.0148752 0.3415 0.062325 0.429425 1.38799e-06 1
0.133243 -0.00142231 -0.0160485 0.3415 0.062325 0.429425 3.78795e-06 1
0.131132 -0.00031645 -0.0221745 0.3415 0.062325 0.429425 1.77289e-07 1
0.13636 0.000842543 -0.0182505 0.3415 0.062325 0.429425 4.53279e-06 1
0.134131 0.000493127 -0.0172936 0.3415 0.062325 0.429425 4.77213e-06 1
0.138645 0.00191725 -0.0222547 0.3415 0.062325 0.429425 2.66803e-07 1
0.133874 0.000138027 -0.0224909 0.3415 0.062325 0.429425 1.14378e-07 1
0.138705 0.00231682 -0.0138519 0.3415 0.062325 0.429425 5.16685e-06 1
0.128242 0.00140024 -0.0203558 0.3415 0.062325 0.429425 5.78297e-06 1
0.13777 0.000824703 -0.0189822 0.3415 0.062325 0.429425 6.62139e-07 1
0.136202 -0.000194155 -0.0217201 0.3415 0.062325 0.429425 2.35532e-07 1
0.137339 0.000438289 -0.0146313 0.3415 0.062325 0.429425 4.81764e-06 1
0.134465 3.08177e-05 -0.022371 0.3415 0.062325 0.429425 7.51258e-08 1
0.135502 0.000490497 -0.0216826 0.3415 0.062325 0.429425 7.11236e-07 1
0.132769 0.00344748 -0.0189485 0.3415 0.062325 0.429425 1.65895e-06 1
0.12687 -0.000404662 -0.0201918 0.3415 0.062325 0.429425 3.12323e-06 1
0.134962 -0.00104606 -0.0187499 0.3415 0.062325 0.429425 3.06728e-06 1
0.130936 0.00037347 -0.0109343 0.3415 0.062325 0.429425 6.54024e-06 1
0.137602 0.00125748 -0.0220183 0.3415 0.062325 0.429425 5.83429e-07 1
0.139425 0.000413478 -0.0219152 0.3415 0.062325 0.429425 1.10777e-06 1
0.124179 0.00181829 -0.0179566 0.3415 0.062325 0.429425 1.27347e-06 1
0.123173 1.77415e-05 -0.0181097 0.3415 0.062325 0.429425 3.68993e-06 1
0.130844 -0.00189333 -0.0212156 0.3415 0.062325 0.429425 1.68128e-07 1
0.136858 -0.00102387 -0.0182772 0.3415 0.062325 0.429425 1.61461e-06 1
0.132504 -5.50942e-05 -0.0221057 0.3415 0.062325 0.429425 2.25722e-07 1
0.134607 0.000476229 -0.0141679 0.3415 0.062325 0.429425 4.67483e-06 1
0.126463 -0.00154164 -0.0135472 0.3415 0.062325 0.429425 2.24266e-05 1
0.121252 0.00131125 -0.0211373 0.3415 0.062325 0.429425 1.12388e-06 1
0.12339 0.000250733 -0.0201164 0.3415 0.062325 0.429425 1.73968e-06 1
0.121643 0.00207258 -0.0201127 0.3415 0.062325 0.429425 1.576e-06 1
0.121578 0.00229308 -0.0187704 0.3415 0.062325 0.429425 2.79127e-06 1
0.122023 0.00047791 -0.0185654 0.3415 0.062325 0.429425 6.08836e-07 1
0.122859 -0.00115555 -0.0194605 0.3415 0.062325 0.429425 3.39805e-06 1
0.12089 0.000610984 -0.0187128 0.3415 0.062325 0.429425 3.26521e-06 1
0.123842 0.000118094 -0.0161619 0.3415 0.062325 0.429425 6.21115e-06 1
0.124966 0.000204765 -0.0149742 0.3415 0.062325 0.429425 4.67025e-06 1
0.129665 -0.00153793 -0.0130067 0.3415 0.062325 0.429425 1.05051e-05 1
0.138928 0.000472694 -0.0109321 0.3415 0.062325 0.429425 8.0542e-06 1
0.140387 0.00237149 -0.00966992 0.3415 0.062325 0.429425 5.97553e-06 1
0.161902 -0.00290386 -0.00347493 0.3415 0.062325 0.429425 7.32881e-07 1
0.163492 -0.000282755 -0.00509246 0.3415 0.062325 0.429425 7.48702e-06 1
0.164423 0.000674879 -0.0177239 0.3415 0.062325 0.429425 2.16199e-06 1
0.161426 0.00215276 -0.00742712 0.3415 0.062325 0.429425 7.82002e-06 1
0.161512 -0.000345065 -0.015234 0.3415 0.062325 0.429425 6.71455e-07 1
0.155332 0.00238709 -0.0131354 0.3415 0.062325 0.429425 4.41458e-06 1
0.157873 0.00104474 -0.0211376 0.3415 0.062325 0.429425 2.74933e-06 1
0.156726 0.0017414 -0.0207604 0.3415 0.062325 0.429425 1.3428e-06 1
0.164339 -0.000935243 -0.0161185 0.3415 0.062325 0.429425 1.13905e-06 1
0.156583 0.0024298 -0.0200288 0.3415 0.062325 0.429425 1.30301e-06 1
0.160079 0.00021298 -0.0143616 0.3415 0.062325 0.429425 1.90559e-06 1
0.158164 -0.00114165 -0.0063771 0.3415 0.062325 0.429425 4.9387e-06 1
0.161577 -0.00187446 -0.0152871 0.3415 0.062325 0.429425 1.81482e-06 1
0.155994 -0.00125104 -0.0153489 0.3415 0.062325 0.429425 4.13057e-06 1
0.161462 0.00248254 -0.00467459 0.3415 0.062325 0.429425 9.72403e-06 1
0.158916 5.79377e-06 -0.0202458 0.3415 0.062325 0.429425 3.94998e-06 1
0.162907 0.000279925 -0.00772049 0.3415 0.062325 0.429425 5.26332e-06 1
0.157612 0.00227332 -0.00394872 0.3415 0.062325 0.429425 2.01787e-06 1
0.163324 -0.001987 -0.00356639 0.3415 0.062325 0.429425 2.73924e-06 1
0.161363 -0.00150566 -0.00841405 0.3415 0.062325 0.429425 5.94688e-06 1
0.162637 0.00138022 0.000761511 0.3415 0.062325 0.429425 2.86662e-06 1
0.163231 -0.000166058 -0.00194871 0.3415 0.062325 0.429425 2.33436e-06 1
0.16515 0.000490283 -0.00582514 0.3415 0.062325 0.429425 4.68924e-06 1
0.164056 0.000816196 -0.0001145 0.3415 0.062325 0.429425 1.94454e-06 1
0.161035 0.00384937 -0.00915827 0.3415 0.062325 0.429425 1.69955e-06 1
0.160759 0.000795185 0.00260575 0.3415 0.062325 0.429425 5.56836e-07 1
0.157685 0.000931832 -0.0195022 0.3415 0.062325 0.429425 1.791e-06 1
0.159883 0.000367171 -0.00812069 0.3415 0.062325 0.429425 1.01365e-05 1
0.159588 0.00233181 -0.00320105 0.3415 0.062325 0.429425 8.70515e-06 1
0.16165 1.42186e-05 0.00151224 0.3415 0.062325 0.429425 1.97008e-06 1
0.16082 -0.00110047 0.000646094 0.3415 0.062325 0.429425 1.54686e-06 1
0.159114 0.000453046 0.000593558 0.3415 0.062325 0.429425 2.09547e-06 1
0.157655 0.00233543 -0.0152526 0.3415 0.062325 0.429425 1.13089e-05 1
0.15787 -0.00123717 -0.0121721 0.3415 0.062325 0.429425 2.27651e-06 1
0.161807 0.000265532 -0.000104638 0.3415 0.062325 0.429425 2.31647e-06 1
0.161809 -0.00108291 -0.00185725 0.3415 0.062325 0.429425 3.17842e-06 1
0.159491 0.00206378 -0.00985183 0.3415 0.062325 0.429425 7.36229e-06 1
0.163399 0.00153819 -0.00347478 0.3415 0.062325 0.429425 6.70971e-06 1
0.156307 0.000591133 -0.00707684 0.3415 0.062325 0.429425 8.17677e-06 1
0.164136 0.00106434 -0.00947192 0.3415 0.062325 0.429425 2.0554e-06 1
0.158341 0.000521823 -0.0174534 0.3415 0.062325 0.429425 2.33237e-06 1
0.156994 0.000572795 -0.0224504 0.3415 0.062325 0.429425 9.34808e-08 1
0.156571 -0.00312067 -0.0172114 0.3415 0.062325 0.429425 7.47394e-08 1
0.159138 0.000508191 -0.0155207 0.3415 0.062325 0.429425 1.71048e-06 1
0.161713 0.00195823 -0.0178995 0.3415 0.062325 0.429425 3.58848e-06 1
0.155732 0.000547883 -0.0170488 0.3415 0.062325 0.429425 5.47303e-06 1
0.162855 0.00138904 -0.0168265 0.3415 0.062325 0.429425 1.20483e-06 1
0.16228 -0.000428682 -0.0131401 0.3415 0.062325 0.429425 3.9188e-06 1
0.15683 0.00053899 -0.0135399 0.3415 0.062325 0.429425 4.53544e-06 1
0.163981 0.000267473 -0.0193915 0.3415 0.062325 0.429425 1.9261e-06 1
0.160915 0.00132989 -0.0197894 0.3415 0.062325 0.429425 3.23816e-06 1
0.157214 -0.00127935 -0.0173169 0.3415 0.062325 0.429425 3.12459e-06 1
0.162441 -0.000535338 -0.0194977 0.3415 0.062325 0.429425 2.58812e-06 1
0.163814 -0.000790497 -0.0104735 0.3415 0.062325 0.429425 1.65597e-06 1
0.155441 0.0024324 -0.0105035 0.3415 0.062325 0.429425 8.28377e-06 1
0.16069 -0.00163827 -0.0118363 0.3415 0.062325 0.429425 4.72567e-06 1
0.159627 0.000198616 -0.0119596 0.3415 0.062325 0.429425 5.93782e-06 1
0.162035 -0.00164594 -0.0100218 0.3415 0.062325 0.429425 4.60077e-06 1
0.161616 0.00035329 -0.020384 0.3415 0.062325 0.429425 1.74751e-06 1
0.164964 0.000490283 -0.00845317 0.3415 0.062325 0.429425 3.27881e-06 1
0.16397 -0.00097182 -0.0132796 0.3415 0.062325 0.429425 1.22601e-06 1
0.161017 0.00168219 -0.0131773 0.3415 0.062325 0.429425 4.19306e-06 1
0.162355 -0.00189263 -0.0139592 0.3415 0.062325 0.429425 3.58502e-06 1
0.164702 -4.63998e-05 -0.0143489 0.3415 0.062325 0.429425 1.05756e-06 1
0.163895 0.000492129 -0.0124605 0.3415 0.062325 0.429425 1.36467e-06 1
0.162882 -0.000127932 -0.0178301 0.3415 0.062325 0.429425 2.85438e-06 1
0.164836 -0.00128811 -0.0169122 0.3415 0.062325 0.429425 3.41555e-07 1
0.164973 -3.26908e-05 -0.0169453 0.3415 0.062325 0.429425 9.4609e-07 1
0.162934 -0.00173749 -0.0169449 0.3415 0.062325 0.429425 2.48279e-06 1
0.161324 0.00367195 -0.0161272 0.3415 0.062325 0.429425 2.13982e-07 1
0.158082 -0.00101711 0.00033921 0.3415 0.062325 0.429425 2.38003e-06 1
0.158134 0.000549228 3.88967e-05 0.3415 0.062325 0.429425 6.78659e-07 1
0.160101 0.00181905 -0.000157175 0.3415 0.062325 0.429425 5.88742e-06 1
0.159077 0.000127645 0.00250539 0.3415 0.062325 0.429425 4.72562e-07 1
0.155747 0.00228055 -0.00552366 0.3415 0.062325 0.429425 4.29192e-06 1
0.160103 0.000470606 -0.00190979 0.3415 0.062325 0.429425 6.99625e-06 1
0.157604 0.000547765 -0.00482393 0.3415 0.062325 0.429425 2.2257e-06 1
0.157679 -0.00089803 -0.0187612 0.3415 0.062325 0.429425 2.59838e-06 1
0.156454 -0.000974343 -0.018798 0.3415 0.062325 0.429425 1.88957e-06 1
0.155751 -0.00308724 -0.0162396 0.3415 0.062325 0.429425 1.92154e-07 1
0.16196 -0.00175517 -0.0163595 0.3415 0.062325 0.429425 1.79789e-06 1
0.161895 -0.000225781 -0.0163064 0.3415 0.062325 0.429425 7.9893e-07 1
0.160753 0.000343409 -0.0173795 0.3415 0.062325 0.429425 2.61213e-06 1
0.160364 0.00205713 -0.0156072 0.3415 0.062325 0.429425 9.22795e-06 1
0.154547 -0.00124572 -0.0164762 0.3415 0.062325 0.429425 4.09893e-06 1
0.158724 0.000641107 -0.0185258 0.3415 0.062325 0.429425 2.46697e-06 1
0.15764 -0.00270169 -0.0186376 0.3415 0.062325 0.429425 3.18285e-07 1
0.156372 0.000610938 -0.0117676 0.3415 0.062325 0.429425 3.7132e-06 1
0.153892 0.000559413 -0.0149626 0.3415 0.062325 0.429425 4.50626e-06 1
0.152501 -0.00132009 -0.0140903 0.3415 0.062325 0.429425 1.49203e-05 1
0.16245 0.00112414 -0.0140497 0.3415 0.062325 0.429425 1.18155e-06 1
0.156858 0.00234906 -0.0171852 0.3415 0.062325 0.429425 4.68725e-06 1
0.153872 -0.00132277 -0.00113034 0.3415 0.062325 0.429425 7.44805e-07 1
0.157228 -0.0013214 -0.00388142 0.3415 0.062325 0.429425 2.38473e-06 1
0.144608 -0.00137333 -0.0131154 0.3415 0.062325 0.429425 1.94453e-05 1
0.149738 0.00228747 -0.00624259 0.3415 0.062325 0.429425 6.88294e-06 1
0.153749 0.000206792 -0.00242827 0.3415 0.062325 0.429425 1.61486e-06 1
0.145377 0.000465519 -0.0103224 0.3415 0.062325 0.429425 5.4592e-06 1
0.143223 0.000516529 0.00276676 0.3415 0.062325 0.429425 3.95389e-07 1
0.152011 0.000419268 0.00064882 0.3415 0.062325 0.429425 1.88103e-06 1
0.156005 0.000260785 -0.0025175 0.3415 0.062325 0.429425 7.16722e-07 1
0.151443 -0.000241376 0.00179755 0.3415 0.062325 0.429425 6.30179e-07 1
0.156803 0.00244946 -0.00880014 0.3415 0.062325 0.429425 8.12294e-06 1
0.155756 -0.000562287 0.00106901 0.3415 0.062325 0.429425 1.40547e-06 1
0.15834 -0.00134667 -0.00229159 0.3415 0.062325 0.429425 3.55453e-06 1
0.154305 -0.00148374 -0.00513969 0.3415 0.062325 0.429425 3.45025e-06 1
0.154967 -0.000779532 0.00065643 0.3415 0.062325 0.429425 9.79512e-07 1
0.154498 0.00217881 -0.00517712 0.3415 0.062325 0.429425 1.97638e-06 1
0.157322 0.000235841 -0.000545274 0.3415 0.062325 0.429425 9.81119e-07 1
0.149145 0.0021924 -0.00465428 0.3415 0.062325 0.429425 1.09959e-05 1
0.148293 0.00285497 0.000897225 0.3415 0.062325 0.429425 1.18125e-06 1
0.14733 0.00194779 0.000802317 0.3415 0.062325 0.429425 2.50374e-06 1
0.144292 0.00162045 0.00182009 0.3415 0.062325 0.429425 3.2737e-07 1
0.147685 0.000904877 -0.000107263 0.3415 0.062325 0.429425 3.80523e-06 1
0.15255 -0.00147798 -0.005195 0.3415 0.062325 0.429425 6.61332e-06 1
0.145333 -0.000521132 0.000465297 0.3415 0.062325 0.429425 1.09216e-06 1
0.152781 -0.00133939 -0.0107655 0.3415 0.062325 0.429425 7.12852e-06 1
0.146366 -0.000852639 5.13447e-05 0.3415 0.062325 0.429425 2.62317e-06 1
0.142119 0.000449939 -0.0118466 0.3415 0.062325 0.429425 9.73637e-06 1
0.150296 0.0023316 -0.0135577 0.3415 0.062325 0.429425 4.68452e-06 1
0.147795 0.00236883 -0.01032 0.3415 0.062325 0.429425 1.60935e-05 1
0.14237 -0.00033902 0.00188292 0.3415 0.062325 0.429425 1.8584e-06 1
0.157325 -0.00305633 -0.00100552 0.3415 0.062325 0.429425 1.171e-07 1
0.150028 0.00235925 -0.0115898 0.3415 0.062325 0.429425 8.87935e-06 1
0.152338 0.000194206 -0.00298014 0.3415 0.062325 0.429425 2.45022e-06 1
0.143578 0.00234874 -0.0105844 0.3415 0.062325 0.429425 8.95164e-06 1
0.148527 0.000486059 -0.0080612 0.3415 0.062325 0.429425 1.74063e-05 1
0.156181 -0.00136011 -0.00160327 0.3415 0.062325 0.429425 7.30631e-07 1
0.151207 0.00195951 0.000216131 0.3415 0.062325 0.429425 1.91915e-06 1
0.148725 0.000418137 0.00124459 0.3415 0.062325 0.429425 1.4294e-06 1
0.148735 -0.000896608 0.00205117 0.3415 0.062325 0.429425 1.61134e-07 1
0.147397 0.00046635 -0.0018181 0.3415 0.062325 0.429425 6.05319e-06 1
0.145015 0.00205302 0.00195075 0.3415 0.062325 0.429425 4.6524e-07 1
0.152316 -0.000135246 0.00201553 0.3415 0.062325 0.429425 2.8694e-07 1
0.155265 0.00124007 0.00191272 0.3415 0.062325 0.429425 3.12569e-07 1
0.154226 0.000735466 0.000295371 0.3415 0.062325 0.429425 1.0273e-06 1
0.143474 -0.00125917 -0.0022706 0.3415 0.062325 0.429425 7.51702e-06 1
0.143484 0.000486071 0.000571282 0.3415 0.062325 0.429425 2.37295e-06 1
0.14431 0.00100504 0.00129556 0.3415 0.062325 0.429425 3.85764e-07 1
0.148424 -0.00144033 -0.00185331 0.3415 0.062325 0.429425 4.32883e-06 1
0.154613 -0.00283777 -0.000769281 0.3415 0.062325 0.429425 2.19149e-07 1
0.143881 -0.000921746 -0.000134147 0.3415 0.062325 0.429425 1.63426e-06 1
0.155997 -0.00146477 -0.0033927 0.3415 0.062325 0.429425 8.82022e-07 1
0.146598 -0.00324857 -0.00344399 0.3415 0.062325 0.429425 2.48567e-07 1
0.152884 0.000525398 0.000866801 0.3415 0.062325 0.429425 1.2074e-06 1
0.157941 0.00223977 0.00197842 0.3415 0.062325 0.429425 7.30733e-07 1
0.158137 0.00203011 0.000823451 0.3415 0.062325 0.429425 9.24596e-07 1
0.155297 -0.00307856 -0.00110479 0.3415 0.062325 0.429425 1.23848e-07 1
0.154898 -0.00130566 -0.00765123 0.3415 0.062325 0.429425 7.43195e-06 1
0.14908 -0.000624773 0.000335007 0.3415 0.062325 0.429425 2.04748e-06 1
0.157407 -0.00134918 -0.00112392 0.3415 0.062325 0.429425 1.95123e-06 1
0.151924 0.000398169 -0.00638345 0.3415 0.062325 0.429425 2.70085e-06 1
0.152636 -0.000966982 -0.000121184 0.3415 0.062325 0.429425 1.17224e-06 1
0.153678 0.000392405 -0.00632814 0.3415 0.062325 0.429425 3.06715e-06 1
0.14993 0.00408114 -0.00529086 0.3415 0.062325 0.429425 5.54871e-07 1
0.140774 0.00189778 -0.00124392 0.3415 0.062325 0.429425 8.32662e-06 1
0.141885 0.00145805 0.000551215 0.3415 0.062325 0.429425 3.77757e-06 1
0.154638 -0.00117359 -0.00096205 0.3415 0.062325 0.429425 1.93121e-06 1
0.151379 -0.000931888 0.00211791 0.3415 0.062325 0.429425 1.52182e-07 1
0.157236 0.000404154 -0.00300622 0.3415 0.062325 0.429425 2.83637e-06 1
0.149925 0.000649996 0.00260355 0.3415 0.062325 0.429425 4.38619e-07 1
0.151473 0.000464422 -0.0101655 0.3415 0.062325 0.429425 6.15697e-06 1
0.154006 0.000647283 0.0026701 0.3415 0.062325 0.429425 6.11001e-07 1
0.15278 -0.00146165 -0.00329803 0.3415 0.062325 0.429425 4.10827e-06 1
0.149689 0.00132532 0.0013395 0.3415 0.062325 0.429425 2.06451e-06 1
0.158332 -0.00307222 -0.00316679 0.3415 0.062325 0.429425 2.19974e-07 1
0.151656 0.00020488 -0.0021149 0.3415 0.062325 0.429425 3.61761e-06 1
0.149698 1.05747e-05 0.00214608 0.3415 0.062325 0.429425 3.38529e-07 1
0.150649 -1.5881e-05 0.00217144 0.3415 0.062325 0.429425 4.79411e-08 1
0.152174 -0.00115738 0.00174402 0.3415 0.062325 0.429425 3.04365e-07 1
0.155539 0.000261692 0.0018858 0.3415 0.062325 0.429425 9.7639e-07 1
0.152832 0.00106037 0.00245503 0.3415 0.062325 0.429425 5.53965e-07 1
0.154742 0.00193108 0.000734869 0.3415 0.062325 0.429425 1.02036e-06 1
0.1534 0.00172102 0.0013063 0.3415 0.062325 0.429425 2.60786e-06 1
0.158215 0.00126139 0.0019515 0.3415 0.062325 0.429425 1.61254e-07 1
0.15816 0.000780993 0.00168994 0.3415 0.062325 0.429425 9.5985e-07 1
0.157086 0.00120604 0.00195965 0.3415 0.062325 0.429425 1.33144e-06 1
0.156002 0.00123623 0.00193071 0.3415 0.062325 0.429425 9.35735e-08 1
0.156918 0.00058288 0.00274616 0.3415 0.062325 0.429425 5.99736e-07 1
0.15723 -0.000569961 0.001105 0.3415 0.062325 0.429425 1.40547e-06 1
0.154887 0.000414404 -0.000252812 0.3415 0.062325 0.429425 1.31245e-06 1
0.150713 -0.00140324 -0.00820206 0.3415 0.062325 0.429425 6.81261e-06 1
0.156096 0.000224909 -0.00102462 0.3415 0.062325 0.429425 5.91002e-07 1
0.150477 -0.00289751 -0.00129182 0.3415 0.062325 0.429425 1.0912e-06 1
0.150863 -0.00109519 -0.00142364 0.3415 0.062325 0.429425 4.85013e-06 1
0.153903 0.000567772 -0.00966994 0.3415 0.062325 0.429425 8.24309e-06 1
0.155303 0.000173565 -0.00108536 0.3415 0.062325 0.429425 1.1871e-06 1
0.155125 0.00030266 -0.00398867 0.3415 0.062325 0.429425 1.70249e-06 1
0.156099 -0.00306726 -0.00148486 0.3415 0.062325 0.429425 4.38475e-08 1
0.146109 -0.00141725 -0.00806358 0.3415 0.062325 0.429425 1.16987e-05 1
0.154339 0.00197687 -0.00317421 0.3415 0.062325 0.429425 2.0157e-06 1
0.155228 0.00191366 -0.0023302 0.3415 0.062325 0.429425 1.9312e-06 1
0.155355 0.00173991 -0.00138568 0.3415 0.062325 0.429425 1.14416e-06 1
0.149726 -0.00110811 -0.00140262 0.3415 0.062325 0.429425 1.74461e-06 1
0.151587 0.00198361 -0.00309094 0.3415 0.062325 0.429425 2.83757e-06 1
0.147052 0.00230744 -0.00362202 0.3415 0.062325 0.429425 1.09958e-05 1
0.151832 0.000573258 -0.000553873 0.3415 0.062325 0.429425 1.36409e-06 1
0.145319 -0.00136268 -0.00522112 0.3415 0.062325 0.429425 1.13547e-05 1
0.153784 -0.00126005 -0.0118317 0.3415 0.062325 0.429425 6.21465e-06 1
0.147203 0.000457695 -0.000734552 0.3415 0.062325 0.429425 5.18262e-07 1
0.145733 0.000549924 -0.00346341 0.3415 0.062325 0.429425 1.02225e-05 1
0.144099 0.000535351 -0.00410237 0.3415 0.062325 0.429425 2.11183e-06 1
0.143433 -0.000810273 0.00131499 0.3415 0.062325 0.429425 6.85174e-07 1
0.144589 0.000499338 0.00150182 0.3415 0.062325 0.429425 8.20235e-08 1
0.145215 0.000380985 0.00137698 0.3415 0.062325 0.429425 1.47658e-06 1
0.145893 0.00109239 0.00187261 0.3415 0.062325 0.429425 1.20673e-06 1
0.145164 -0.000915359 0.00212069 0.3415 0.062325 0.429425 1.14137e-07 1
0.14115 0.000641504 -0.00289328 0.3415 0.062325 0.429425 6.35956e-06 1
0.142775 0.000537764 -0.00538463 0.3415 0.062325 0.429425 7.1862e-06 1
0.142151 -0.00125676 -0.00355287 0.3415 0.062325 0.429425 5.40532e-06 1
0.141859 0.000504532 -0.00849751 0.3415 0.062325 0.429425 6.1685e-06 1
0.141774 0.00243603 -0.00472505 0.3415 0.062325 0.429425 9.97215e-06 1
0.139457 0.00233074 -0.0065972 0.3415 0.062325 0.429425 6.71455e-06 1
0.0109163 -0.00019414 8.88066e-05 0.735683 0.215906 0.330245 2.72062e-06 2
0.0113253 0.00304681 0.00105122 0.735683 0.215906 0.330245 3.4816e-07 2
0.0178531 0.000364969 0.00289877 0.735683 0.215906 0.330245 2.52436e-07 2
0.014035 0.000305192 0.000799937 0.735683 0.215906 0.330245 2.59856e-06 2
0.0150675 -0.00209537 0.00168597 0.735683 0.215906 0.330245 1.31007e-07 2
0.0106232 -0.000850884 0.0015514 0.735683 0.215906 0.330245 8.17198e-07 2
0.0105657 0.00179661 0.000980949 0.735683 0.215906 0.330245 2.91719e-06 2
0.0160679 0.000490089 -0.00362975 0.735683 0.215906 0.330245 7.93376e-06 2
0.00949954 0.00300038 -0.000389418 0.735683 0.215906 0.330245 9.13835e-07 2
0.0150026 0.00230471 -0.00231375 0.735683 0.215906 0.330245 4.75022e-06 2
0.0116155 0.00074469 0.000971918 0.735683 0.215906 0.330245 2.71594e-06 2
0.012675 -0.00111566 0.000162391 0.735683 0.215906 0.330245 3.77531e-06 2
0.0130297 0.00040369 -0.00176213 0.735683 0.215906 0.330245 6.21061e-06 2
0.015605 0.000534977 0.00279397 0.735683 0.215906 0.330245 1.37304e-07 2
0.0161695 0.00141776 0.00182103 0.735683 0.215906 0.330245 4.4961e-07 2
0.0172847 0.00124423 0.00191936 0.735683 0.215906 0.330245 1.18821e-06 2
0.0157635 0.00227903 -0.00112237 0.735683 0.215906 0.330245 1.92692e-06 2
0.0169965 0.00218331 0.00184706 0.735683 0.215906 0.330245 6.0401e-07 2
0.0181735 -0.000327649 0.0010481 0.735683 0.215906 0.330245 3.01418e-06 2
0.01588 0.000471767 0.000948105 0.735683 0.215906 0.330245 1.78766e-06 2
0.0151506 0.00179885 6.6791e-05 0.735683 0.215906 0.330245 3.037e-06 2
0.0138155 0.000380256 0.00272579 0.735683 0.215906 0.330245 3.84795e-07 2
0.0161831 -0.000601707 0.000952819 0.735683 0.215906 0.330245 2.36421e-07 2
0.0173592 -0.000604029 0.000921619 0.735683 0.215906 0.330245 3.09806e-07 2
0.0170231 -0.00109016 0.000227122 0.735683 0.215906 0.330245 3.32232e-06 2
0.0174405 -0.00136579 -0.0023679 0.735683 0.215906 0.330245 7.87719e-06 2
0.0179889 -0.00206379 0.00164594 0.735683 0.215906 0.330245 1.25835e-07 2
0.0188032 -0.00178741 0.00177242 0.735683 0.215906 0.330245 2.43443e-07 2
0.0147165 -0.00150201 0.00193032 0.735683 0.215906 0.330245 5.46481e-07 2
0.0144283 -0.000562933 0.00185802 0.735683 0.215906 0.330245 8.17563e-07 2
0.0153155 -0.000411014 0.00192104 0.735683 0.215906 0.330245 5.46109e-07 2
0.0123724 0.0023003 0.00167673 0.735683 0.215906 0.330245 1.11026e-06 2
0.0134222 0.00124838 0.0016677 0.735683 0.215906 0.330245 1.23116e-06 2
0.00951865 0.00254312 0.000355433 0.735683 0.215906 0.330245 1.27404e-06 2
0.0109564 -0.0013895 0.00225696 0.735683 0.215906 0.330245 2.20031e-07 2
0.011271 0.00132521 -0.00183572 0.735683 0.215906 0.330245 4.28289e-06 2
0.0102424 0.001396 -0.00286719 0.735683 0.215906 0.330245 2.71181e-06 2
0.0097375 0.00319469 -0.00184995 0.735683 0.215906 0.330245 2.95241e-06 2
0.0142588 -0.00141315 -0.00525946 0.735683 0.215906 0.330245 1.40367e-05 2
0.0122747 -0.00140738 -0.00377199 0.735683 0.215906 0.330245 1.25619e-05 2
0.00929054 -0.000455415 -0.00377081 0.735683 0.215906 0.330245 3.43098e-06 2
0.00799644 0.00326025 -0.00228321 0.735683 0.215906 0.330245 1.4762e-06 2
0.0111612 0.00320486 -0.00303866 0.735683 0.215906 0.330245 2.93196e-06 2
0.014262 0.000481315 -0.00767416 0.735683 0.215906 0.330245 9.65436e-06 2
0.00823014 -0.000452379 -0.00441896 0.735683 0.215906 0.330245 5.71041e-06 2
0.0108529 0.000476627 -0.00499027 0.735683 0.215906 0.330245 1.18068e-05 2
0.00724408 0.00142426 -0.00284236 0.735683 0.215906 0.330245 3.1094e-06 2
0.0222553 -0.00101364 6.35684e-06 0.735683 0.215906 0.330245 4.93807e-06 2
0.0213903 -0.0014 -0.0064966 0.735683 0.215906 0.330245 4.5676e-06 2
0.0243735 0.00277906 0.00188309 0.735683 0.215906 0.330245 3.5005e-07 2
0.0242476 0.00236792 -0.00645569 0.735683 0.215906 0.330245 6.03486e-06 2
0.0240701 0.00159361 0.00187495 0.735683 0.215906 0.330245 7.5388e-07 2
0.0168864 0.00236159 -0.00767581 0.735683 0.215906 0.330245 7.45996e-06 2
0.023454 0.00053206 0.00314966 0.735683 0.215906 0.330245 2.04347e-08 2
0.0205908 0.00248389 0.00183683 0.735683 0.215906 0.330245 1.59534e-07 2
0.0236933 0.00273332 -0.000653699 0.735683 0.215906 0.330245 2.6509e-06 2
0.0187289 4.70945e-05 0.00277924 0.735683 0.215906 0.330245 1.75932e-07 2
0.0173329 0.000463488 -0.000966758 0.735683 0.215906 0.330245 2.33583e-06 2
0.0233613 -0.00140611 -0.00513869 0.735683 0.215906 0.330245 1.09889e-05 2
0.0247958 0.00163586 0.00187575 0.735683 0.215906 0.330245 3.84457e-07 2
0.0248269 0.000536323 0.00315751 0.735683 0.215906 0.330245 2.9094e-08 2
0.0201148 0.000482793 -0.00684356 0.735683 0.215906 0.330245 2.83901e-06 2
0.0211096 0.000835436 6.91992e-05 0.735683 0.215906 0.330245 6.1743e-07 2
0.0217858 -0.00140805 -0.00331852 0.735683 0.215906 0.330245 1.23179e-05 2
0.0168751 0.00426838 -0.00673996 0.735683 0.215906 0.330245 3.24883e-07 2
0.0212066 0.000519937 0.00305446 0.735683 0.215906 0.330245 5.9221e-08 2
0.022909 0.000744855 0.00303512 0.735683 0.215906 0.330245 3.47874e-08 2
0.0213292 -0.00063181 0.00253815 0.735683 0.215906 0.330245 1.13063e-07 2
0.0211725 0.00137194 0.00183316 0.735683 0.215906 0.330245 9.23834e-07 2
0.020659 -0.000678871 0.000934403 0.735683 0.215906 0.330245 1.59839e-06 2
0.0218381 0.00237107 0.000724652 0.735683 0.215906 0.330245 2.95492e-07 2
0.02077 -0.000103608 0.00246572 0.735683 0.215906 0.330245 7.43473e-08 2
0.0224142 -0.000181073 0.00274802 0.735683 0.215906 0.330245 1.13063e-07 2
0.0201135 0.000725886 0.00285443 0.735683 0.215906 0.330245 1.18169e-07 2
0.023406 -0.000621204 0.000654477 0.735683 0.215906 0.330245 1.85331e-06 2
0.0206726 0.000197685 0.00292687 0.735683 0.215906 0.330245 8.36546e-08 2
0.022353 0.000390179 0.00300923 0.735683 0.215906 0.330245 5.9221e-08 2
0.0194346 0.00314684 0.000965475 0.735683 0.215906 0.330245 3.08238e-07 2
0.0227064 0.00385142 0.000186723 0.735683 0.215906 0.330245 1.25932e-07 2
0.0238561 -0.00141206 -0.00188846 0.735683 0.215906 0.330245 4.15755e-06 2
0.0231619 0.000899069 0.00256278 0.735683 0.215906 0.330245 2.53065e-07 2
0.021914 0.00165357 0.00173689 0.735683 0.215906 0.330245 3.78226e-07 2
0.0181605 0.000926357 0.00179983 0.735683 0.215906 0.330245 9.10641e-07 2
0.0178859 0.00272838 0.00159758 0.735683 0.215906 0.330245 3.65371e-07 2
0.0256165 0.000479853 -0.00493196 0.735683 0.215906 0.330245 4.20826e-06 2
0.0221943 0.000483827 -0.00719211 0.735683 0.215906 0.330245 1.07642e-05 2
0.022656 0.000476013 -0.00145642 0.735683 0.215906 0.330245 4.1083e-06 2
0.0213323 0.00276552 0.00174056 0.735683 0.215906 0.330245 3.07104e-07 2
0.0205857 0.000480016 -0.00288649 0.735683 0.215906 0.330245 4.76375e-06 2
0.0230188 -0.00051444 0.00257198 0.735683 0.215906 0.330245 1.40762e-07 2
0.0235366 0.000184604 0.00277105 0.735683 0.215906 0.330245 8.26862e-08 2
0.020734 -0.00038281 0.00267176 0.735683 0.215906 0.330245 8.53638e-08 2
0.0247984 -0.000577465 0.00261496 0.735683 0.215906 0.330245 9.57305e-08 2
0.0201748 0.000145392 0.00259933 0.735683 0.215906 0.330245 1.20583e-07 2
0.0238068 0.000868451 -0.000808303 0.735683 0.215906 0.330245 1.14841e-06 2
0.0196302 -0.00102185 0.00179845 0.735683 0.215906 0.330245 3.19166e-08 2
0.0190005 0.000437905 0.00107413 0.735683 0.215906 0.330245 7.29723e-07 2
0.0200616 0.000193698 0.00103514 0.735683 0.215906 0.330245 6.33738e-07 2
0.0194319 0.00165346 0.000310825 0.735683 0.215906 0.330245 3.43077e-06 2
0.0234366 0.00239787 0.000813549 0.735683 0.215906 0.330245 2.17775e-06 2
0.0225683 0.000917524 0.00135148 0.735683 0.215906 0.330245 1.3415e-06 2
0.0226442 0.000200025 0.00236372 0.735683 0.215906 0.330245 2.2543e-07 2
0.017544 0.00237251 -0.00582807 0.735683 0.215906 0.330245 8.8422e-06 2
0.0190853 0.000516629 -0.00261046 0.735683 0.215906 0.330245 5.76945e-06 2
0.020646 0.000575136 0.00168613 0.735683 0.215906 0.330245 9.38965e-07 2
0.0189777 0.00234591 -0.00120931 0.735683 0.215906 0.330245 2.12531e-06 2
0.0199136 0.00228419 -0.000652254 0.735683 0.215906 0.330245 1.06265e-06 2
0.0247908 0.000845489 -0.000483893 0.735683 0.215906 0.330245 2.9514e-06 2
0.0199017 0.00238772 -0.00537802 0.735683 0.215906 0.330245 1.0014e-05 2
0.0200704 0.00238772 -0.00342225 0.735683 0.215906 0.330245 3.41668e-06 2
0.000922877 -0.000224123 -0.000849539 0.735683 0.215906 0.330245 3.76736e-06 2
0.00174745 0.000700875 -0.00145107 0.735683 0.215906 0.330245 2.31033e-06 2
0.0065317 0.00309611 -0.000740204 0.735683 0.215906 0.330245 1.76025e-06 2
0.00840564 -0.00211705 1.26115e-05 0.735683 0.215906 0.330245 6.90974e-07 2
0.00741883 -0.0023273 -0.00104355 0.735683 0.215906 0.330245 1.04294e-06 2
-0.00062359 -0.00113843 -0.00095922 0.735683 0.215906 0.330245 1.41272e-06 2
0.00408958 -0.00134563 -0.00303074 0.735683 0.215906 0.330245 2.31479e-06 2
0.00662353 -0.00221483 -0.00084206 0.735683 0.215906 0.330245 2.46008e-07 2
0.00520543 0.00141158 -0.00197281 0.735683 0.215906 0.330245 3.58011e-06 2
0.00784628 -0.000591308 0.00178603 0.735683 0.215906 0.330245 1.04665e-06 2
0.000775371 0.000290854 -0.00623413 0.735683 0.215906 0.330245 3.93585e-06 2
0.00529688 -9.27271e-05 0.00157773 0.735683 0.215906 0.330245 8.42203e-07 2
0.00300026 0.000439473 0.00245443 0.735683 0.215906 0.330245 3.87047e-07 2
0.00472154 -0.00051477 0.00091164 0.735683 0.215906 0.330245 1.3778e-06 2
0.000897724 -0.00207074 -0.000749608 0.735683 0.215906 0.330245 1.74689e-06 2
0.00833993 -0.00233203 -0.00321602 0.735683 0.215906 0.330245 5.24024e-06 2
-0.000598437 0.000708186 -0.00105915 0.735683 0.215906 0.330245 3.05239e-06 2
0.00226392 0.000735512 -0.00431518 0.735683 0.215906 0.330245 1.1654e-06 2
1.25021e-05 0.00369272 -0.00390804 0.735683 0.215906 0.330245 4.54471e-07 2
0.00268888 2.638e-05 0.000890004 0.735683 0.215906 0.330245 2.42332e-06 2
0.00674569 0.000427156 0.00272408 0.735683 0.215906 0.330245 5.45333e-07 2
0.000727599 0.00371642 -0.00547849 0.735683 0.215906 0.330245 3.82335e-07 2
0.00363345 0.000437267 0.000963358 0.735683 0.215906 0.330245 3.1577e-07 2
0.00992392 -0.00178971 0.000668294 0.735683 0.215906 0.330245 7.98973e-07 2
0.00761034 -0.00200458 0.000214101 0.735683 0.215906 0.330245 3.56223e-07 2
0.00283734 0.00137627 0.00157665 0.735683 0.215906 0.330245 1.269e-06 2
-0.00135889 0.00100882 -0.00702283 0.735683 0.215906 0.330245 2.56001e-06 2
0.00183424 0.00140856 7.94256e-06 0.735683 0.215906 0.330245 3.10511e-06 2
-0.00104733 0.00116288 -0.00274504 0.735683 0.215906 0.330245 2.26688e-06 2
0.00172302 -0.00299098 -0.00244902 0.735683 0.215906 0.330245 5.09028e-07 2
0.00974874 -0.000802192 0.0015519 0.735683 0.215906 0.330245 5.96288e-07 2
0.00593917 0.00257677 0.000532885 0.735683 0.215906 0.330245 1.83488e-06 2
0.00514841 -0.00144262 0.000891088 0.735683 0.215906 0.330245 8.66131e-07 2
0.00472362 0.000896624 0.000257005 0.735683 0.215906 0.330245 3.32266e-06 2
0.0061567 0.000531058 -0.00388853 0.735683 0.215906 0.330245 2.701e-06 2
0.00718507 0.00208935 0.00119526 0.735683 0.215906 0.330245 1.07105e-06 2
0.00767087 0.000411918 0.00179457 0.735683 0.215906 0.330245 6.16782e-07 2
0.00825417 -0.00162855 0.000870274 0.735683 0.215906 0.330245 4.28434e-07 2
3.41203e-05 0.00207823 -0.003604 0.735683 0.215906 0.330245 2.31318e-06 2
0.00581758 -0.00221215 -0.000851486 0.735683 0.215906 0.330245 1.10999e-06 2
0.0043717 -7.74889e-05 0.00250723 0.735683 0.215906 0.330245 2.49309e-07 2
0.0022632 0.00258075 -0.0032173 0.735683 0.215906 0.330245 2.04588e-06 2
0.00303367 0.00236268 -0.00525558 0.735683 0.215906 0.330245 1.99755e-06 2
0.00202341 0.000726997 -0.00518798 0.735683 0.215906 0.330245 2.32267e-06 2
0.00270307 0.000733091 -0.00214872 0.735683 0.215906 0.330245 3.98496e-06 2
0.00270378 -0.00111215 -0.0032466 0.735683 0.215906 0.330245 4.3645e-06 2
0.000749218 0.00210193 -0.00517446 0.735683 0.215906 0.330245 1.94602e-06 2
0.00130759 0.00254854 -0.00251964 0.735683 0.215906 0.330245 3.10246e-06 2
0.00561967 0.000846479 0.00251498 0.735683 0.215906 0.330245 5.25905e-07 2
-0.00194853 0.000257975 -0.00409312 0.735683 0.215906 0.330245 2.00841e-06 2
-0.0012731 -0.000614943 -0.00593297 0.735683 0.215906 0.330245 2.11314e-06 2
0.000198789 0.00372384 -0.0063455 0.735683 0.215906 0.330245 7.03984e-07 2
0.0095334 0.000366294 0.00179973 0.735683 0.215906 0.330245 1.40378e-06 2
0.00667039 0.00401798 -0.000770961 0.735683 0.215906 0.330245 2.24282e-07 2
0.00550695 -0.00312679 -0.000802106 0.735683 0.215906 0.330245 1.32917e-07 2
0.00507805 -0.000455424 -0.0010595 0.735683 0.215906 0.330245 2.96082e-06 2
0.00204956 -0.00108408 -0.00624766 0.735683 0.215906 0.330245 4.65275e-06 2
0.00969131 0.000384896 0.00273543 0.735683 0.215906 0.330245 5.29849e-07 2
0.00408886 0.000499615 -0.00193286 0.735683 0.215906 0.330245 1.77692e-06 2
0.00591795 0.00141681 -0.00257102 0.735683 0.215906 0.330245 8.24482e-07 2
0.00775849 0.00306594 -0.000822678 0.735683 0.215906 0.330245 4.05504e-07 2
4.26212e-05 -0.00150825 -0.00649747 0.735683 0.215906 0.330245 1.44989e-06 2
0.00589001 -0.00178795 0.000444464 0.735683 0.215906 0.330245 9.11831e-07 2
