ply
format ascii 1.0
comment Created by Open3D
element vertex 645
property float32 x
property float32 y
property float32 z
property float32 red
property float32 green
property float32 blue
property float32 volume
property uint8 segmentation
end_header
0.00664526 0.00229972 -0.133892 0.3415 0.062325 0.429425 6.8241e-06 1
-0.00551406 0.00635879 -0.129023 0.3415 0.062325 0.429425 1.79184e-05 1
-0.00121507 0.0042047 -0.128881 0.3415 0.062325 0.429425 2.39509e-06 1
0.00184066 0.00449327 -0.122904 0.3415 0.062325 0.429425 3.28693e-06 1
0.00495328 0.00477322 -0.138284 0.3415 0.062325 0.429425 4.94779e-06 1
0.00493265 0.00482119 -0.12873 0.3415 0.062325 0.429425 6.56887e-06 1
0.00654271 0.00908096 -0.135218 0.3415 0.062325 0.429425 6.76347e-07 1
0.000684103 0.00110821 -0.135347 0.3415 0.062325 0.429425 2.1017e-06 1
-0.00199005 0.00448275 -0.121772 0.3415 0.062325 0.429425 3.39466e-06 1
0.00368427 0.0100257 -0.131163 0.3415 0.062325 0.429425 4.00837e-06 1
0.00427114 0.00530688 -0.130309 0.3415 0.062325 0.429425 3.03692e-06 1
0.0067066 0.00612515 -0.12633 0.3415 0.062325 0.429425 9.90856e-06 1
-0.00059652 0.00160112 -0.123096 0.3415 0.062325 0.429425 9.80227e-07 1
-0.00624171 0.00874667 -0.126646 0.3415 0.062325 0.429425 4.05397e-06 1
0.00250234 0.0040046 -0.12449 0.3415 0.062325 0.429425 2.18077e-06 1
0.00366336 0.00790181 -0.128921 0.3415 0.062325 0.429425 3.15711e-06 1
0.000699582 0.000119027 -0.128712 0.3415 0.062325 0.429425 2.33357e-06 1
0.00377179 0.00289837 -0.135784 0.3415 0.062325 0.429425 3.74556e-06 1
0.00358284 0.00788956 -0.136514 0.3415 0.062325 0.429425 4.51965e-06 1
0.00493072 0.00482298 -0.123676 0.3415 0.062325 0.429425 4.31074e-06 1
-0.00499697 0.00978662 -0.130507 0.3415 0.062325 0.429425 5.77039e-06 1
-0.00444281 0.0053697 -0.118906 0.3415 0.062325 0.429425 5.16786e-06 1
-0.00122563 0.00917438 -0.120041 0.3415 0.062325 0.429425 1.17708e-05 1
0.00472779 0.00981412 -0.134956 0.3415 0.062325 0.429425 3.94877e-06 1
0.00122093 0.00709088 -0.124155 0.3415 0.062325 0.429425 4.15062e-06 1
0.00253933 0.00810117 -0.132721 0.3415 0.062325 0.429425 2.10086e-05 1
0.00841474 0.00367823 -0.126907 0.3415 0.062325 0.429425 7.93993e-06 1
3.86371e-05 0.000633491 -0.133392 0.3415 0.062325 0.429425 1.08049e-06 1
0.000711446 0.00159947 -0.124466 0.3415 0.062325 0.429425 7.54954e-07 1
0.0012211 0.00708789 -0.12732 0.3415 0.062325 0.429425 4.15062e-06 1
4.51506e-05 0.00208623 -0.127102 0.3415 0.062325 0.429425 1.1307e-06 1
0.00885285 0.00225947 -0.13095 0.3415 0.062325 0.429425 3.63939e-06 1
-0.000607293 0.00160977 -0.130269 0.3415 0.062325 0.429425 1.11406e-06 1
0.000699584 0.00160065 -0.128688 0.3415 0.062325 0.429425 1.12354e-06 1
-0.00445437 0.00533967 -0.124167 0.3415 0.062325 0.429425 3.58551e-07 1
-0.00263583 0.0039992 -0.123356 0.3415 0.062325 0.429425 2.9273e-06 1
-0.000569791 0.00468276 -0.127297 0.3415 0.062325 0.429425 2.39138e-06 1
-0.00303479 0.0055392 -0.125157 0.3415 0.062325 0.429425 1.23934e-06 1
-0.00368007 0.00506114 -0.126741 0.3415 0.062325 0.429425 1.00638e-05 1
0.00634945 -0.00213711 -0.135112 0.3415 0.062325 0.429425 6.26163e-06 1
0.00399315 -0.00503403 -0.128513 0.3415 0.062325 0.429425 7.02376e-06 1
-0.00528765 -0.00365308 -0.132094 0.3415 0.062325 0.429425 3.74042e-06 1
0.00698598 -2.41743e-05 -0.125234 0.3415 0.062325 0.429425 2.76865e-06 1
0.00844976 -0.00326479 -0.121731 0.3415 0.062325 0.429425 6.99467e-06 1
0.00110905 -0.00708011 -0.126119 0.3415 0.062325 0.429425 7.12671e-06 1
0.00480477 -0.00610709 -0.141439 0.3415 0.062325 0.429425 5.67363e-06 1
0.00787939 -0.0043616 -0.118218 0.3415 0.062325 0.429425 4.90524e-06 1
0.00614055 -0.0067526 -0.137833 0.3415 0.062325 0.429425 1.92021e-06 1
0.0088865 -0.0069144 -0.13345 0.3415 0.062325 0.429425 9.30758e-07 1
0.00700151 -2.9459e-05 -0.118572 0.3415 0.062325 0.429425 2.3868e-06 1
0.00555413 -0.00341426 -0.139791 0.3415 0.062325 0.429425 7.04896e-07 1
0.00664613 -0.00575617 -0.132276 0.3415 0.062325 0.429425 7.47802e-06 1
0.00356626 -0.00211774 -0.122438 0.3415 0.062325 0.429425 3.6442e-06 1
0.010952 0.00124012 -0.123511 0.3415 0.062325 0.429425 1.62716e-06 1
0.00910649 -0.00112214 -0.12071 0.3415 0.062325 0.429425 5.55813e-06 1
0.00273369 -0.00641771 -0.1354 0.3415 0.062325 0.429425 2.49876e-06 1
-0.00568425 -0.00664051 -0.131901 0.3415 0.062325 0.429425 4.21041e-06 1
0.000164317 -0.00901953 -0.141967 0.3415 0.062325 0.429425 7.12649e-06 1
0.000711555 7.23649e-05 -0.123377 0.3415 0.062325 0.429425 1.62245e-06 1
0.000253078 -0.000290039 -0.147228 0.3415 0.062325 0.429425 2.55386e-06 1
0.00110506 -0.00701293 -0.135683 0.3415 0.062325 0.429425 4.1474e-06 1
0.00356986 -0.00201189 -0.136549 0.3415 0.062325 0.429425 6.50319e-06 1
0.00211214 -0.00194537 -0.141602 0.3415 0.062325 0.429425 2.59724e-06 1
0.00436389 -0.0031408 -0.140733 0.3415 0.062325 0.429425 3.77528e-06 1
0.00634166 -0.0021725 -0.123695 0.3415 0.062325 0.429425 3.49023e-06 1
0.00876518 0.00127572 -0.121857 0.3415 0.062325 0.429425 9.46972e-06 1
-0.00425089 -0.00799068 -0.129171 0.3415 0.062325 0.429425 6.58786e-06 1
-0.00103353 -0.00923506 -0.127236 0.3415 0.062325 0.429425 3.98117e-06 1
0.00381762 -0.00841449 -0.132836 0.3415 0.062325 0.429425 3.20265e-06 1
0.00357519 -0.00211975 -0.120464 0.3415 0.062325 0.429425 3.16196e-06 1
0.00856413 -0.00290625 -0.137362 0.3415 0.062325 0.429425 7.71625e-06 1
0.000911774 -0.00892208 -0.145992 0.3415 0.062325 0.429425 1.24056e-05 1
0.00329069 -0.00703195 -0.146132 0.3415 0.062325 0.429425 8.41812e-06 1
0.00110619 -0.00696093 -0.140455 0.3415 0.062325 0.429425 4.15231e-06 1
0.00919734 -0.000866899 -0.136229 0.3415 0.062325 0.429425 5.47962e-06 1
-0.00207095 -0.00902881 -0.129101 0.3415 0.062325 0.429425 4.78206e-06 1
0.00495046 -0.00762772 -0.131149 0.3415 0.062325 0.429425 6.80703e-06 1
0.00513142 -0.00850444 -0.148299 0.3415 0.062325 0.429425 5.25526e-06 1
-0.00202431 -0.00905368 -0.134116 0.3415 0.062325 0.429425 3.12529e-06 1
0.007149 -0.00557201 -0.139028 0.3415 0.062325 0.429425 2.32642e-06 1
0.00919025 -0.000138013 -0.131037 0.3415 0.062325 0.429425 2.57321e-06 1
0.00255302 -0.00491166 -0.142308 0.3415 0.062325 0.429425 4.5812e-06 1
0.00633902 -0.00216323 -0.1281 0.3415 0.062325 0.429425 5.17541e-06 1
0.00841183 -0.00322297 -0.139508 0.3415 0.062325 0.429425 1.90033e-06 1
0.00219187 -0.00900732 -0.13126 0.3415 0.062325 0.429425 5.25995e-06 1
-0.00102904 -0.00924145 -0.132499 0.3415 0.062325 0.429425 4.75686e-06 1
0.00663885 0.00237607 -0.124253 0.3415 0.062325 0.429425 3.49396e-06 1
0.00398388 -0.00508461 -0.124052 0.3415 0.062325 0.429425 8.9912e-06 1
0.00382008 -0.00838448 -0.138042 0.3415 0.062325 0.429425 2.87005e-06 1
0.000719982 6.69017e-05 -0.120035 0.3415 0.062325 0.429425 1.41351e-06 1
0.00109815 -0.0092283 -0.133622 0.3415 0.062325 0.429425 5.02487e-06 1
0.0011021 -0.00922672 -0.128272 0.3415 0.062325 0.429425 4.13842e-06 1
3.86353e-05 -0.000848133 -0.133416 0.3415 0.062325 0.429425 2.22877e-06 1
0.00219144 -0.0089797 -0.138326 0.3415 0.062325 0.429425 4.74917e-06 1
0.00219197 -0.00905423 -0.123583 0.3415 0.062325 0.429425 3.92007e-06 1
0.00440528 -0.00805466 -0.123119 0.3415 0.062325 0.429425 5.0806e-06 1
0.00634478 -0.00217211 -0.119593 0.3415 0.062325 0.429425 3.00074e-06 1
0.00789343 -0.00434983 -0.125575 0.3415 0.062325 0.429425 5.79294e-06 1
0.00177512 -0.00389555 -0.126597 0.3415 0.062325 0.429425 7.29888e-06 1
0.00568165 -0.00316087 -0.131223 0.3415 0.062325 0.429425 2.84051e-06 1
0.00875277 0.00128139 -0.124417 0.3415 0.062325 0.429425 4.08721e-06 1
0.0090921 -0.00111788 -0.129558 0.3415 0.062325 0.429425 3.99908e-06 1
0.00697404 -2.14982e-05 -0.127873 0.3415 0.062325 0.429425 4.14661e-06 1
0.00356359 -0.00206449 -0.129538 0.3415 0.062325 0.429425 5.32207e-06 1
0.00845708 -0.00325962 -0.129784 0.3415 0.062325 0.429425 4.99654e-06 1
0.00620191 -0.00622309 -0.125968 0.3415 0.062325 0.429425 7.35715e-06 1
0.00665499 -0.00754449 -0.145956 0.3415 0.062325 0.429425 4.86007e-06 1
0.00292436 -0.00301141 -0.134612 0.3415 0.062325 0.429425 5.14618e-06 1
0.00388884 -0.00560671 -0.135666 0.3415 0.062325 0.429425 2.92975e-06 1
0.00666843 -0.00573193 -0.134229 0.3415 0.062325 0.429425 2.01868e-06 1
0.00570396 -0.00313663 -0.133176 0.3415 0.062325 0.429425 3.41169e-06 1
0.0105459 -0.00432294 -0.137653 0.3415 0.062325 0.429425 1.96771e-07 1
-0.000982358 -0.00704653 -0.13585 0.3415 0.062325 0.429425 3.76545e-06 1
0.00699118 -0.00358274 -0.141442 0.3415 0.062325 0.429425 2.4956e-06 1
0.0089242 -0.00511024 -0.143386 0.3415 0.062325 0.429425 7.47371e-07 1
0.00860689 -0.00571783 -0.142505 0.3415 0.062325 0.429425 9.1185e-07 1
0.007066 -0.00726743 -0.14292 0.3415 0.062325 0.429425 1.72703e-06 1
0.00554278 -0.0034266 -0.138797 0.3415 0.062325 0.429425 2.46503e-06 1
0.00498657 -0.00756114 -0.139303 0.3415 0.062325 0.429425 5.05873e-06 1
-0.00631038 -0.0381299 0.0020399 0.735683 0.215906 0.330245 7.7382e-07 2
-0.00426794 -0.0400097 -0.00379519 0.735683 0.215906 0.330245 1.49084e-06 2
-0.00242147 -0.032777 -0.00835323 0.735683 0.215906 0.330245 2.64933e-06 2
-0.00176379 -0.0164546 -0.00699635 0.735683 0.215906 0.330245 2.06856e-06 2
-0.00346297 -0.0209291 -0.00610222 0.735683 0.215906 0.330245 7.69193e-07 2
-0.00605107 -0.0330982 0.00242407 0.735683 0.215906 0.330245 5.67364e-06 2
-0.00213923 -0.0395436 -0.00862351 0.735683 0.215906 0.330245 2.76676e-06 2
-0.00023173 -0.0361868 -0.0113797 0.735683 0.215906 0.330245 6.46521e-06 2
-0.00246856 -0.0342415 -0.00194409 0.735683 0.215906 0.330245 1.08698e-06 2
-0.000770682 -0.0386317 -0.0100312 0.735683 0.215906 0.330245 3.20529e-06 2
-0.00465416 -0.0162969 -0.0107261 0.735683 0.215906 0.330245 1.37857e-06 2
-0.0108751 -0.0293249 -0.00453795 0.735683 0.215906 0.330245 5.32609e-06 2
-0.00341395 -0.022351 -0.00861881 0.735683 0.215906 0.330245 1.80173e-06 2
-0.00508479 -0.0362105 0.0060762 0.735683 0.215906 0.330245 5.82162e-06 2
-0.00377076 -0.0329003 -0.00447792 0.735683 0.215906 0.330245 7.1858e-06 2
-0.00408776 -0.0187239 -0.0108666 0.735683 0.215906 0.330245 8.4848e-06 2
-0.00324141 -0.0271381 -0.0107742 0.735683 0.215906 0.330245 4.84241e-06 2
-0.00526981 -0.0226262 -0.00765608 0.735683 0.215906 0.330245 1.53782e-06 2
-0.00323306 -0.0156542 -0.00912752 0.735683 0.215906 0.330245 2.36545e-06 2
-0.00288028 -0.0316032 0.00247629 0.735683 0.215906 0.330245 1.23816e-06 2
-0.0060701 -0.0297626 -0.00613368 0.735683 0.215906 0.330245 6.19053e-06 2
-0.000145929 -0.0304023 -0.00860583 0.735683 0.215906 0.330245 3.78245e-06 2
-0.00497541 -0.0344533 -0.0100731 0.735683 0.215906 0.330245 5.73409e-06 2
-0.00418753 -0.016683 -0.00607748 0.735683 0.215906 0.330245 1.28566e-06 2
-0.000403122 -0.0328621 -0.00871534 0.735683 0.215906 0.330245 8.12703e-06 2
-0.00151051 -0.0344525 -0.011291 0.735683 0.215906 0.330245 7.32024e-06 2
-0.00352886 -0.0343674 -0.0109288 0.735683 0.215906 0.330245 2.42017e-06 2
-0.00383977 -0.0288354 -0.0105211 0.735683 0.215906 0.330245 2.25608e-06 2
-0.00216428 -0.0303172 -0.00824372 0.735683 0.215906 0.330245 1.17073e-06 2
-0.00287985 -0.0289141 -0.00789856 0.735683 0.215906 0.330245 2.01786e-06 2
-0.00543638 -0.0282363 -0.00966384 0.735683 0.215906 0.330245 3.34104e-06 2
-0.00375889 -0.0275184 -0.00735882 0.735683 0.215906 0.330245 1.8265e-06 2
-0.0046817 -0.0276792 -0.0042578 0.735683 0.215906 0.330245 8.20591e-06 2
-0.00461239 -0.0220317 -0.00526964 0.735683 0.215906 0.330245 1.90403e-06 2
-0.006058 -0.0372907 -0.00801533 0.735683 0.215906 0.330245 3.10569e-06 2
-0.00461429 -0.0370712 -0.0089603 0.735683 0.215906 0.330245 6.46618e-06 2
-0.011971 -0.0354115 -0.00410067 0.735683 0.215906 0.330245 2.35574e-06 2
-0.00894954 -0.0298433 -0.00732737 0.735683 0.215906 0.330245 2.83065e-06 2
-0.00717487 -0.0371895 -0.0103701 0.735683 0.215906 0.330245 3.73066e-06 2
-0.00979656 -0.0279468 -0.00625652 0.735683 0.215906 0.330245 7.22392e-06 2
-0.0111537 -0.0372895 -0.0055733 0.735683 0.215906 0.330245 4.13595e-06 2
-0.006989 -0.0213291 -0.00945381 0.735683 0.215906 0.330245 4.35023e-06 2
-0.00324472 -0.038899 0.00359342 0.735683 0.215906 0.330245 3.76901e-06 2
-0.00107818 -0.0190467 -0.00929504 0.735683 0.215906 0.330245 3.46663e-06 2
-0.00375092 -0.0252014 -0.00511681 0.735683 0.215906 0.330245 5.26469e-06 2
-0.00246617 -0.0265093 -0.0053372 0.735683 0.215906 0.330245 2.05585e-06 2
-0.00414166 -0.0250275 -0.00761456 0.735683 0.215906 0.330245 3.86148e-06 2
-0.00266426 -0.0247259 -0.0084074 0.735683 0.215906 0.330245 5.14313e-06 2
-0.00518216 -0.019632 -0.00789995 0.735683 0.215906 0.330245 2.39495e-06 2
-0.00513315 -0.0210539 -0.0104165 0.735683 0.215906 0.330245 5.88443e-06 2
-0.00434262 -0.0330757 0.00490159 0.735683 0.215906 0.330245 6.23017e-06 2
-0.00698262 -0.0392037 0.00422735 0.735683 0.215906 0.330245 2.25576e-06 2
-0.0101958 -0.0366793 -0.00213994 0.735683 0.215906 0.330245 4.37676e-06 2
-0.00932989 -0.0342347 -0.00150137 0.735683 0.215906 0.330245 1.4594e-06 2
-0.00959188 -0.035007 -0.00371355 0.735683 0.215906 0.330245 5.68424e-06 2
-0.00872593 -0.0325624 -0.00307498 0.735683 0.215906 0.330245 3.85019e-06 2
-0.0047558 -0.0386319 -0.0054815 0.735683 0.215906 0.330245 3.25417e-06 2
-0.0043842 -0.0392535 -0.00388616 0.735683 0.215906 0.330245 9.405e-07 2
-0.00877453 -0.0368849 -0.00518618 0.735683 0.215906 0.330245 4.11569e-06 2
-0.00487503 -0.0342487 -0.00371088 0.735683 0.215906 0.330245 5.59632e-06 2
-0.00611257 -0.0360716 -0.0059448 0.735683 0.215906 0.330245 8.54866e-06 2
-0.00776395 -0.0326378 -0.00468376 0.735683 0.215906 0.330245 2.71341e-06 2
-0.00778267 -0.0382364 0.00578027 0.735683 0.215906 0.330245 4.53047e-06 2
-0.00694478 -0.0393718 -0.00529598 0.735683 0.215906 0.330245 4.58578e-06 2
-0.0090015 -0.0344607 -0.00691768 0.735683 0.215906 0.330245 3.93617e-06 2
0.00145952 -0.0392374 -0.00903285 0.735683 0.215906 0.330245 2.27132e-06 2
-0.00538826 -0.0392021 0.00334638 0.735683 0.215906 0.330245 1.71578e-06 2
-0.00738981 -0.0372785 0.00254694 0.735683 0.215906 0.330245 9.39419e-07 2
-0.00948172 -0.0130108 0.00191701 0.735683 0.215906 0.330245 4.15952e-06 2
-0.00793518 -0.02579 -0.00495374 0.735683 0.215906 0.330245 8.64281e-06 2
-0.00677836 -0.0119866 -0.00407794 0.735683 0.215906 0.330245 4.89052e-06 2
-0.00944265 -0.0252785 -0.00142561 0.735683 0.215906 0.330245 9.60006e-06 2
-0.00898289 -0.0139765 -0.00829831 0.735683 0.215906 0.330245 5.43148e-06 2
-0.00815985 -0.0117733 -0.00675677 0.735683 0.215906 0.330245 8.27094e-06 2
-0.00940977 -0.0388536 -0.00024296 0.735683 0.215906 0.330245 3.78095e-06 2
-0.00936876 -0.0284124 0.00209696 0.735683 0.215906 0.330245 6.0517e-06 2
-0.00697841 -0.0218052 -0.00259186 0.735683 0.215906 0.330245 1.59941e-06 2
-0.0114622 -0.0290471 -0.00174086 0.735683 0.215906 0.330245 7.76914e-06 2
-0.0069666 -0.0250816 -0.00252052 0.735683 0.215906 0.330245 3.01789e-06 2
-0.00651861 -0.0207901 -0.00330134 0.735683 0.215906 0.330245 2.44706e-06 2
-0.0102855 -0.0379974 0.00177502 0.735683 0.215906 0.330245 2.42416e-06 2
-0.00432252 -0.0387906 -0.00172466 0.735683 0.215906 0.330245 1.93367e-06 2
-0.00792426 -0.0131205 0.00609356 0.735683 0.215906 0.330245 6.8905e-06 2
-0.00892878 -0.0186679 -0.00393119 0.735683 0.215906 0.330245 4.90731e-06 2
-0.00950594 -0.0192608 0.000845395 0.735683 0.215906 0.330245 3.00482e-07 2
-0.00718697 -0.0129659 0.00281005 0.735683 0.215906 0.330245 3.86341e-06 2
-0.011379 -0.0343326 0.00147569 0.735683 0.215906 0.330245 7.89586e-06 2
-0.00694138 -0.0167196 0.00335744 0.735683 0.215906 0.330245 1.53473e-06 2
-0.00833137 -0.0105049 0.00101463 0.735683 0.215906 0.330245 3.25908e-06 2
-0.0104307 -0.0119146 -0.00101669 0.735683 0.215906 0.330245 6.7589e-06 2
-0.00928307 -0.0216024 0.00278716 0.735683 0.215906 0.330245 7.2513e-07 2
-0.0116921 -0.0326892 -0.000665004 0.735683 0.215906 0.330245 7.76914e-06 2
-0.00867809 -0.0217903 0.00486851 0.735683 0.215906 0.330245 1.99835e-06 2
-0.00830271 -0.0148662 0.00807739 0.735683 0.215906 0.330245 2.38636e-06 2
-0.00938665 -0.0145905 0.00200393 0.735683 0.215906 0.330245 2.25885e-06 2
-0.00691161 -0.0213016 0.0032823 0.735683 0.215906 0.330245 1.30256e-06 2
-0.009449 -0.0195146 0.00158083 0.735683 0.215906 0.330245 3.40217e-06 2
-0.00687364 -0.0222976 0.0029565 0.735683 0.215906 0.330245 6.39816e-07 2
-0.00970538 -0.0181694 -0.00651658 0.735683 0.215906 0.330245 1.1236e-05 2
-0.0114179 -0.0265298 0.00340445 0.735683 0.215906 0.330245 3.21541e-06 2
-0.0115879 -0.0272359 -0.000378848 0.735683 0.215906 0.330245 7.26235e-06 2
-0.010045 -0.0261373 0.00647698 0.735683 0.215906 0.330245 4.69427e-06 2
-0.0068248 -0.0146882 -0.00303409 0.735683 0.215906 0.330245 3.99882e-06 2
-0.00853416 -0.0241819 0.00500009 0.735683 0.215906 0.330245 3.17349e-06 2
-0.00705026 -0.0243599 0.00176944 0.735683 0.215906 0.330245 2.74696e-06 2
-0.00738806 -0.0152371 0.000624398 0.735683 0.215906 0.330245 2.86221e-06 2
-0.00924511 -0.0225984 0.00246136 0.735683 0.215906 0.330245 1.17183e-06 2
-0.00672023 -0.024318 0.00361869 0.735683 0.215906 0.330245 1.42872e-06 2
-0.00719009 -0.0180359 0.00128969 0.735683 0.215906 0.330245 1.03225e-06 2
-0.00722351 -0.026455 0.00105021 0.735683 0.215906 0.330245 6.69302e-06 2
-0.00909169 -0.0246188 0.00312355 0.735683 0.215906 0.330245 2.61672e-06 2
-0.00741357 -0.0162153 0.00593895 0.735683 0.215906 0.330245 3.58747e-06 2
-0.008567 -0.0209216 -0.00787239 0.735683 0.215906 0.330245 9.02826e-06 2
-0.00929174 -0.0158404 0.00241357 0.735683 0.215906 0.330245 2.52791e-06 2
-0.00923613 -0.0167644 0.0024644 0.735683 0.215906 0.330245 1.15385e-06 2
-0.00913393 -0.0179993 0.00704539 0.735683 0.215906 0.330245 6.98784e-06 2
-0.0107892 -0.0199659 0.00546177 0.735683 0.215906 0.330245 4.1074e-06 2
-0.00967258 -0.0151355 -0.00187476 0.735683 0.215906 0.330245 3.96516e-06 2
-0.00747954 -0.0159759 -0.000441129 0.735683 0.215906 0.330245 1.27646e-06 2
-0.0113291 -0.0203309 0.00396187 0.735683 0.215906 0.330245 3.68195e-06 2
-0.011495 -0.0182431 0.00275554 0.735683 0.215906 0.330245 8.31436e-06 2
-0.00713276 -0.0156279 -0.00627554 0.735683 0.215906 0.330245 6.53455e-06 2
-0.00945446 -0.0220021 -0.00149695 0.735683 0.215906 0.330245 5.08781e-06 2
-0.00964354 -0.0187044 0.000259643 0.735683 0.215906 0.330245 2.13878e-06 2
-0.0115959 -0.0178542 -0.00307393 0.735683 0.215906 0.330245 6.91667e-06 2
-0.0116618 -0.0201732 -0.00134916 0.735683 0.215906 0.330245 9.67625e-06 2
-0.00635616 -0.0161264 -0.00369014 0.735683 0.215906 0.330245 2.83691e-06 2
-0.0074831 -0.0226334 -0.00570984 0.735683 0.215906 0.330245 4.58048e-06 2
-0.00214302 -0.0363592 -0.00168936 0.735683 0.215906 0.330245 6.03799e-07 2
-0.00892991 -0.031867 0.00287564 0.735683 0.215906 0.330245 6.51169e-06 2
-0.00901672 -0.0358782 0.00063932 0.735683 0.215906 0.330245 5.78268e-06 2
-0.00612099 -0.0351592 0.00141124 0.735683 0.215906 0.330245 2.31915e-06 2
0.00485024 -0.0256788 -0.00285855 0.735683 0.215906 0.330245 2.82968e-06 2
0.00659711 -0.0223084 0.00331686 0.735683 0.215906 0.330245 3.60504e-06 2
-0.00720367 -0.0223395 0.00110725 0.735683 0.215906 0.330245 1.23015e-06 2
-0.00730267 -0.0199547 0.0006729 0.735683 0.215906 0.330245 6.61064e-07 2
-0.00738873 -0.0211582 0.000316679 0.735683 0.215906 0.330245 1.70726e-06 2
-0.000730422 -0.0228619 0.0117755 0.735683 0.215906 0.330245 1.28526e-06 2
-0.00295099 -0.0197939 0.0137091 0.735683 0.215906 0.330245 2.47294e-07 2
-0.00630784 -0.0395258 -2.81988e-05 0.735683 0.215906 0.330245 1.43808e-06 2
-0.00191459 -0.0391943 0.00565432 0.735683 0.215906 0.330245 2.75649e-06 2
-0.0036022 -0.0220329 0.0110006 0.735683 0.215906 0.330245 1.43827e-06 2
0.00275757 -0.0301 0.0114154 0.735683 0.215906 0.330245 8.54972e-06 2
-0.0042985 -0.0178679 0.0106451 0.735683 0.215906 0.330245 3.3322e-06 2
0.000372074 -0.0372556 0.00978985 0.735683 0.215906 0.330245 3.30294e-06 2
-0.00479421 -0.0185304 0.00799201 0.735683 0.215906 0.330245 1.85819e-06 2
-0.00377314 -0.021167 0.00645862 0.735683 0.215906 0.330245 9.29719e-07 2
-0.00112402 -0.024243 0.0118094 0.735683 0.215906 0.330245 2.57052e-06 2
-0.00510601 -0.0367825 0.0092006 0.735683 0.215906 0.330245 8.31428e-06 2
-0.00596299 -0.0341356 0.00942215 0.735683 0.215906 0.330245 1.12553e-05 2
-0.00638844 -0.031817 0.00692579 0.735683 0.215906 0.330245 4.28545e-06 2
0.00120177 -0.0364198 0.0109731 0.735683 0.215906 0.330245 3.17611e-06 2
0.00328958 -0.0368986 0.00849222 0.735683 0.215906 0.330245 4.28994e-06 2
0.0052186 -0.0392004 0.00934764 0.735683 0.215906 0.330245 1.45329e-06 2
-0.00162231 -0.017443 0.0074159 0.735683 0.215906 0.330245 1.46962e-06 2
-0.00906144 -0.0373895 0.00480847 0.735683 0.215906 0.330245 2.00025e-06 2
-0.0079022 -0.0395274 0.000852771 0.735683 0.215906 0.330245 1.70896e-06 2
-0.0105573 -0.0281844 0.00537648 0.735683 0.215906 0.330245 7.0757e-06 2
-0.00455348 -0.0162602 0.00572077 0.735683 0.215906 0.330245 1.92229e-06 2
0.00114867 -0.0377733 0.0072363 0.735683 0.215906 0.330245 4.64416e-07 2
-0.00148064 -0.0209649 0.00936354 0.735683 0.215906 0.330245 2.40335e-06 2
0.0037062 -0.0272102 0.0052988 0.735683 0.215906 0.330245 5.64257e-06 2
0.00602408 -0.0280488 0.00621388 0.735683 0.215906 0.330245 4.26503e-06 2
0.000794563 -0.0331674 0.0115288 0.735683 0.215906 0.330245 1.26038e-05 2
-0.00223436 -0.0192623 0.0115555 0.735683 0.215906 0.330245 3.14242e-06 2
-0.00295841 -0.0235448 0.011339 0.735683 0.215906 0.330245 3.81728e-06 2
-0.00697341 -0.0216902 0.00669648 0.735683 0.215906 0.330245 3.29103e-06 2
0.00128831 -0.0238593 0.0116431 0.735683 0.215906 0.330245 3.64698e-06 2
-0.00253909 -0.0187397 0.00929241 0.735683 0.215906 0.330245 1.78212e-06 2
-0.00102394 -0.0304523 0.0117158 0.735683 0.215906 0.330245 5.58067e-06 2
-0.00603278 -0.0271304 0.0098902 0.735683 0.215906 0.330245 6.74973e-06 2
-0.0038338 -0.0315251 0.0106827 0.735683 0.215906 0.330245 1.6547e-05 2
-0.0046172 -0.0241763 0.0060343 0.735683 0.215906 0.330245 1.46173e-06 2
-0.00149374 -0.0259892 0.00929402 0.735683 0.215906 0.330245 2.57977e-06 2
-0.00425924 -0.0292065 0.00818637 0.735683 0.215906 0.330245 6.60099e-06 2
0.00294995 -0.0267267 0.00854065 0.735683 0.215906 0.330245 9.43156e-06 2
0.00418855 -0.0251848 0.0106686 0.735683 0.215906 0.330245 1.28134e-06 2
0.00361128 -0.0272417 0.0108744 0.735683 0.215906 0.330245 2.9248e-07 2
-0.00219727 -0.0214965 0.0115172 0.735683 0.215906 0.330245 4.08459e-07 2
-0.00303573 -0.0238539 0.0089539 0.735683 0.215906 0.330245 1.31998e-06 2
-0.00414124 -0.0252054 0.00862431 0.735683 0.215906 0.330245 4.43199e-06 2
-0.00241205 -0.025137 0.00699505 0.735683 0.215906 0.330245 3.2238e-06 2
-0.00367952 -0.022342 0.00861548 0.735683 0.215906 0.330245 1.35711e-06 2
-0.00178537 -0.0204423 0.00710046 0.735683 0.215906 0.330245 1.37106e-06 2
-0.00834032 -0.0260372 0.00830495 0.735683 0.215906 0.330245 7.39906e-06 2
-0.00682948 -0.0240818 0.00682805 0.735683 0.215906 0.330245 5.22633e-06 2
-0.00487334 -0.022226 0.00820516 0.735683 0.215906 0.330245 6.99485e-07 2
-0.00091102 -0.0180085 0.00977863 0.735683 0.215906 0.330245 8.97527e-07 2
-0.00338172 -0.0165712 0.00876861 0.735683 0.215906 0.330245 2.61655e-06 2
-0.00420946 -0.0202126 0.00619677 0.735683 0.215906 0.330245 1.51516e-06 2
-0.00530966 -0.0212716 0.00794331 0.735683 0.215906 0.330245 1.00381e-06 2
-0.00257932 -0.021283 0.00686894 0.735683 0.215906 0.330245 1.82809e-06 2
-0.00387743 -0.0172337 0.0061155 0.735683 0.215906 0.330245 1.38655e-06 2
-0.00755816 -0.0200081 0.00849172 0.735683 0.215906 0.330245 6.35456e-06 2
-0.00589441 -0.0195895 0.00973855 0.735683 0.215906 0.330245 1.89798e-06 2
0.00261523 -0.0372908 0.00315974 0.735683 0.215906 0.330245 3.36221e-06 2
-0.0102499 -0.0316554 0.0054484 0.735683 0.215906 0.330245 7.57011e-06 2
0.00307768 -0.040075 0.00809173 0.735683 0.215906 0.330245 1.41345e-06 2
0.00228547 -0.0374581 0.00611275 0.735683 0.215906 0.330245 5.69492e-06 2
-0.00198799 -0.037723 0.00909093 0.735683 0.215906 0.330245 9.14647e-06 2
-0.00196677 -0.037151 0.00596654 0.735683 0.215906 0.330245 6.97146e-06 2
-2.25688e-05 -0.0368525 0.00473474 0.735683 0.215906 0.330245 1.79175e-06 2
-0.00955922 -0.0333119 0.00687357 0.735683 0.215906 0.330245 3.80116e-06 2
-0.00471602 -0.0381284 0.00115893 0.735683 0.215906 0.330245 6.52765e-07 2
-0.00751341 -0.0345707 0.00484937 0.735683 0.215906 0.330245 5.7789e-06 2
-0.0119914 -0.0338275 0.0066971 0.735683 0.215906 0.330245 8.30112e-07 2
0.00944192 -0.0258188 0.0012609 0.735683 0.215906 0.330245 3.27883e-06 2
0.00824371 -0.026109 0.00376082 0.735683 0.215906 0.330245 3.05756e-06 2
0.00683987 -0.0175767 0.00998745 0.735683 0.215906 0.330245 1.31485e-05 2
0.00401791 -0.0187211 0.00910577 0.735683 0.215906 0.330245 9.63964e-06 2
0.00639178 -0.0332441 0.00908638 0.735683 0.215906 0.330245 1.94626e-05 2
0.00680435 -0.0232517 0.00671214 0.735683 0.215906 0.330245 5.30376e-06 2
0.00969573 -0.0280008 -0.00211068 0.735683 0.215906 0.330245 2.783e-06 2
0.00721153 -0.0293958 -0.00109594 0.735683 0.215906 0.330245 3.54719e-06 2
0.00329935 -0.0354436 0.00212416 0.735683 0.215906 0.330245 2.62853e-06 2
0.0082473 -0.0407883 0.00244929 0.735683 0.215906 0.330245 3.23177e-07 2
0.00823064 -0.0305422 0.00772844 0.735683 0.215906 0.330245 9.3723e-06 2
0.00703737 -0.0400271 0.00157224 0.735683 0.215906 0.330245 8.44887e-07 2
0.0089222 -0.0230825 0.00393444 0.735683 0.215906 0.330245 3.0401e-06 2
0.00460673 -0.0301033 0.0107674 0.735683 0.215906 0.330245 7.2152e-06 2
0.00962016 -0.0318286 -0.00104563 0.735683 0.215906 0.330245 1.02534e-05 2
0.00688591 -0.0141992 0.00761471 0.735683 0.215906 0.330245 5.3912e-06 2
0.00732898 -0.0207697 0.00932499 0.735683 0.215906 0.330245 6.55396e-06 2
0.00794304 -0.0375435 0.00327662 0.735683 0.215906 0.330245 3.76437e-06 2
0.00944627 -0.0203282 0.00250387 0.735683 0.215906 0.330245 8.38235e-06 2
0.0057172 -0.0376517 0.00149518 0.735683 0.215906 0.330245 2.31627e-06 2
0.00579662 -0.0225821 0.00441372 0.735683 0.215906 0.330245 3.06502e-06 2
0.0040448 -0.0144172 0.00676523 0.735683 0.215906 0.330245 4.34859e-06 2
0.0022342 -0.0244149 0.00921697 0.735683 0.215906 0.330245 7.52131e-07 2
0.00888424 -0.0147942 0.0047048 0.735683 0.215906 0.330245 5.29443e-06 2
0.00338587 -0.0305762 -0.00256025 0.735683 0.215906 0.330245 1.58637e-06 2
-0.00144939 -0.0281337 0.00921946 0.735683 0.215906 0.330245 2.48422e-06 2
0.00515686 -0.0272322 -0.00180843 0.735683 0.215906 0.330245 1.05779e-06 2
0.00765254 -0.026889 -0.00241371 0.735683 0.215906 0.330245 2.53678e-06 2
0.00943508 -0.02589 -0.000946993 0.735683 0.215906 0.330245 5.01725e-06 2
0.00451542 -0.0297587 -0.00185359 0.735683 0.215906 0.330245 8.07655e-07 2
0.0121074 -0.0329537 -0.00202418 0.735683 0.215906 0.330245 5.0813e-06 2
0.0118471 -0.0227441 0.00186787 0.735683 0.215906 0.330245 5.57604e-06 2
0.0112091 -0.0307782 0.00126604 0.735683 0.215906 0.330245 7.12654e-06 2
0.0108118 -0.0335959 0.00271257 0.735683 0.215906 0.330245 1.51323e-05 2
0.00898553 -0.0210934 0.00790635 0.735683 0.215906 0.330245 9.07572e-06 2
0.00705695 -0.0321128 0.00485446 0.735683 0.215906 0.330245 1.384e-05 2
0.0102843 -0.0308426 0.00469982 0.735683 0.215906 0.330245 8.18305e-06 2
0.010827 -0.0184435 0.00479495 0.735683 0.215906 0.330245 1.21507e-05 2
0.0103029 -0.0211978 0.00622552 0.735683 0.215906 0.330245 6.64961e-06 2
0.00880437 -0.0246729 0.00352582 0.735683 0.215906 0.330245 8.30297e-07 2
0.00636259 -0.0264294 0.00172327 0.735683 0.215906 0.330245 1.01595e-06 2
0.00485039 -0.0296194 0.0033399 0.735683 0.215906 0.330245 4.84094e-06 2
0.00880048 -0.0283453 0.00121574 0.735683 0.215906 0.330245 2.5035e-06 2
0.00559362 -0.0253223 0.0037097 0.735683 0.215906 0.330245 2.21575e-06 2
0.00692325 -0.0249933 0.00148827 0.735683 0.215906 0.330245 2.59254e-06 2
0.00660135 -0.025992 0.00600812 0.735683 0.215906 0.330245 3.89064e-06 2
0.00807775 -0.0283493 0.00318526 0.735683 0.215906 0.330245 2.89983e-06 2
0.00619663 -0.0286697 0.00114771 0.735683 0.215906 0.330245 9.63543e-07 2
0.0100023 -0.0370741 0.00223823 0.735683 0.215906 0.330245 5.63342e-06 2
0.00210985 -0.022722 0.00714952 0.735683 0.215906 0.330245 1.71111e-06 2
0.00250292 -0.0131348 0.00477998 0.735683 0.215906 0.330245 4.67682e-07 2
0.000995602 -0.0259568 0.00708902 0.735683 0.215906 0.330245 3.24695e-06 2
-0.000731526 -0.0272206 0.00703976 0.735683 0.215906 0.330245 5.76715e-06 2
0.00269665 -0.0162658 0.00711679 0.735683 0.215906 0.330245 3.09811e-06 2
0.0038457 -0.0213991 0.00610959 0.735683 0.215906 0.330245 3.86186e-06 2
0.00116396 -0.0221664 0.00957565 0.735683 0.215906 0.330245 3.50803e-06 2
0.00130795 -0.017288 0.00970077 0.735683 0.215906 0.330245 4.03815e-06 2
0.0040642 -0.0234919 0.00860115 0.735683 0.215906 0.330245 1.8234e-06 2
0.00450702 -0.0219141 0.00844331 0.735683 0.215906 0.330245 2.46967e-06 2
0.00262921 -0.0197433 0.0116897 0.735683 0.215906 0.330245 1.20408e-05 2
0.0096894 -0.0375503 0.000517116 0.735683 0.215906 0.330245 1.75097e-06 2
0.00584519 -0.0366231 0.00732065 0.735683 0.215906 0.330245 9.75488e-06 2
0.0055252 -0.0353354 0.0039056 0.735683 0.215906 0.330245 6.66526e-06 2
0.00811982 -0.0405186 0.00457544 0.735683 0.215906 0.330245 5.2171e-07 2
0.00913574 -0.0396492 0.00547983 0.735683 0.215906 0.330245 1.41648e-06 2
0.0077742 -0.0389249 0.00817607 0.735683 0.215906 0.330245 2.94461e-06 2
0.00421449 -0.0397599 0.00696817 0.735683 0.215906 0.330245 1.13206e-06 2
0.00746083 -0.0356625 -0.00865388 0.735683 0.215906 0.330245 2.14953e-06 2
0.00280072 -0.0295315 -0.00335866 0.735683 0.215906 0.330245 7.79788e-07 2
0.00771856 -0.0404136 -0.00134264 0.735683 0.215906 0.330245 9.92126e-07 2
0.00873258 -0.0351079 -0.00174808 0.735683 0.215906 0.330245 4.40273e-06 2
0.00737904 -0.0373512 -0.00551217 0.735683 0.215906 0.330245 5.92867e-06 2
0.00980492 -0.0374027 -0.000555947 0.735683 0.215906 0.330245 1.15242e-06 2
0.00761535 -0.0257441 -0.00708524 0.735683 0.215906 0.330245 4.22874e-06 2
0.00886159 -0.0395869 0.000106285 0.735683 0.215906 0.330245 2.00137e-07 2
0.002826 -0.0349629 -0.00532304 0.735683 0.215906 0.330245 3.36721e-06 2
0.00820733 -0.0400832 0.000109735 0.735683 0.215906 0.330245 1.13717e-06 2
0.00685117 -0.0251452 -0.00433132 0.735683 0.215906 0.330245 5.54673e-06 2
0.00675247 -0.0400447 -0.00576944 0.735683 0.215906 0.330245 1.2927e-06 2
0.00256792 -0.0303416 -0.00641474 0.735683 0.215906 0.330245 3.89238e-06 2
0.00607004 -0.0252637 -0.00839974 0.735683 0.215906 0.330245 5.16108e-06 2
0.0112198 -0.036233 -0.00272662 0.735683 0.215906 0.330245 2.5738e-06 2
0.00936427 -0.0263976 -0.00431549 0.735683 0.215906 0.330245 4.43116e-06 2
0.0108361 -0.0318367 -0.00597128 0.735683 0.215906 0.330245 6.55882e-06 2
0.00925971 -0.0285936 -0.00856899 0.735683 0.215906 0.330245 3.16486e-06 2
0.00362365 -0.0271606 -0.00370212 0.735683 0.215906 0.330245 1.62656e-06 2
0.00702598 -0.0299372 -0.0101523 0.735683 0.215906 0.330245 7.76102e-06 2
0.00718006 -0.0375748 -0.000612523 0.735683 0.215906 0.330245 1.36617e-06 2
0.00802783 -0.0399699 -0.0022359 0.735683 0.215906 0.330245 4.8442e-07 2
0.00199847 -0.0367925 -0.0103813 0.735683 0.215906 0.330245 4.71126e-06 2
0.0103383 -0.0291263 -0.00687497 0.735683 0.215906 0.330245 2.85637e-06 2
0.00448588 -0.0352943 -0.00227114 0.735683 0.215906 0.330245 1.12354e-06 2
0.00233008 -0.0244473 -0.00881155 0.735683 0.215906 0.330245 5.60972e-06 2
0.00585465 -0.0276692 -0.0108347 0.735683 0.215906 0.330245 3.71006e-06 2
0.0101629 -0.0368258 -0.00361268 0.735683 0.215906 0.330245 1.40919e-06 2
0.0119053 -0.0302198 -0.00310877 0.735683 0.215906 0.330245 6.06653e-06 2
0.00773717 -0.0372118 -0.00262086 0.735683 0.215906 0.330245 2.23174e-06 2
0.00407926 -0.0261466 -0.00648938 0.735683 0.215906 0.330245 6.43495e-06 2
0.00386387 -0.0285522 -0.00892435 0.735683 0.215906 0.330245 8.74056e-06 2
0.0021147 -0.0268528 -0.0112465 0.735683 0.215906 0.330245 7.19969e-06 2
0.00342406 -0.033306 -0.00788066 0.735683 0.215906 0.330245 1.16698e-05 2
0.00636373 -0.0216219 -0.0101844 0.735683 0.215906 0.330245 5.52689e-06 2
-0.00198104 -0.0206732 -0.0115667 0.735683 0.215906 0.330245 4.53257e-06 2
0.00358204 -0.0351984 -0.00319234 0.735683 0.215906 0.330245 3.2613e-06 2
-0.00616736 -0.0297252 -0.00915327 0.735683 0.215906 0.330245 5.41455e-06 2
-0.00386802 -0.0328629 -0.00749751 0.735683 0.215906 0.330245 6.371e-06 2
-0.000141176 -0.0285636 -0.0113594 0.735683 0.215906 0.330245 8.56482e-06 2
0.00640599 -0.0399841 -0.00270238 0.735683 0.215906 0.330245 6.33736e-07 2
-0.00173371 -0.021994 -0.00909503 0.735683 0.215906 0.330245 1.55251e-06 2
-0.000830848 -0.0203675 -0.00682336 0.735683 0.215906 0.330245 1.13811e-06 2
0.000651362 -0.0237458 -0.00655767 0.735683 0.215906 0.330245 5.7271e-06 2
-0.000984019 -0.024369 -0.00888362 0.735683 0.215906 0.330245 4.20096e-06 2
0.00215382 -0.0218413 -0.00909799 0.735683 0.215906 0.330245 3.13441e-06 2
0.000475095 -0.0211398 -0.00684411 0.735683 0.215906 0.330245 3.21416e-06 2
0.000700791 -0.0204005 -0.0114819 0.735683 0.215906 0.330245 6.31137e-06 2
0.00967711 -0.0348679 -0.00736809 0.735683 0.215906 0.330245 4.45809e-06 2
0.00706454 -0.0377224 0.00046054 0.735683 0.215906 0.330245 2.11193e-06 2
0.00662002 -0.0407508 -0.00409145 0.735683 0.215906 0.330245 4.42943e-07 2
0.0101203 -0.0404512 0.000170065 0.735683 0.215906 0.330245 9.90357e-08 2
0.00611533 -0.037226 -0.00308735 0.735683 0.215906 0.330245 3.3547e-06 2
0.00610772 -0.03528 -0.00180466 0.735683 0.215906 0.330245 2.68937e-06 2
0.0096911 -0.0365975 -0.00566997 0.735683 0.215906 0.330245 4.5996e-06 2
0.00777002 -0.0405083 -0.00568226 0.735683 0.215906 0.330245 5.21036e-07 2
0.00602058 -0.0373392 -0.0069603 0.735683 0.215906 0.330245 3.58454e-06 2
0.00539401 -0.0400327 -0.00721756 0.735683 0.215906 0.330245 6.81361e-07 2
0.00274143 -0.0371252 -0.00206054 0.735683 0.215906 0.330245 1.43879e-06 2
0.00255501 -0.0330432 -0.00305871 0.735683 0.215906 0.330245 3.14983e-06 2
0.00589134 -0.0337845 -0.00970787 0.735683 0.215906 0.330245 8.40716e-06 2
0.00167961 -0.0351369 -0.00767005 0.735683 0.215906 0.330245 4.38087e-06 2
0.00226801 -0.040136 -0.00701031 0.735683 0.215906 0.330245 1.36272e-06 2
0.00602577 -0.0374575 -0.0109337 0.735683 0.215906 0.330245 1.95318e-06 2
0.00322645 -0.0398116 -0.00571394 0.735683 0.215906 0.330245 5.90283e-07 2
0.00445627 -0.0355795 -0.0119877 0.735683 0.215906 0.330245 2.40456e-06 2
0.00385303 -0.0371181 -0.00545667 0.735683 0.215906 0.330245 4.37302e-06 2
0.00799873 -0.0102952 -0.00342445 0.735683 0.215906 0.330245 6.21902e-06 2
0.00767931 -0.0123941 -0.00746508 0.735683 0.215906 0.330245 6.02254e-06 2
0.00903532 -0.0154761 -0.000437854 0.735683 0.215906 0.330245 5.92371e-06 2
0.00943633 -0.0178591 0.000259483 0.735683 0.215906 0.330245 5.76757e-06 2
0.0118372 -0.020275 -0.00037651 0.735683 0.215906 0.330245 1.02315e-05 2
0.00399299 -0.0170552 -0.00601596 0.735683 0.215906 0.330245 5.18158e-06 2
0.00668117 -0.0183015 -0.00303398 0.735683 0.215906 0.330245 7.00124e-06 2
0.00843017 -0.0216257 -0.00426403 0.735683 0.215906 0.330245 7.51819e-06 2
0.00699385 -0.0171181 -0.00101922 0.735683 0.215906 0.330245 7.11605e-06 2
0.00626038 -0.0109045 -0.00951628 0.735683 0.215906 0.330245 3.65391e-06 2
0.00723552 -0.0167706 -0.00598234 0.735683 0.215906 0.330245 1.204e-05 2
0.00360826 -0.0141778 -0.00631689 0.735683 0.215906 0.330245 5.24456e-06 2
0.0109433 -0.022878 -0.0042482 0.735683 0.215906 0.330245 6.08601e-06 2
0.00840071 -0.0197525 -0.00803893 0.735683 0.215906 0.330245 1.13617e-05 2
0.00977441 -0.0127022 -0.00295468 0.735683 0.215906 0.330245 3.81575e-06 2
0.00162726 -0.0128139 -0.00978385 0.735683 0.215906 0.330245 3.22461e-06 2
0.0092641 -0.0137143 -0.00115105 0.735683 0.215906 0.330245 2.68142e-06 2
0.00967674 -0.0112709 -0.00573898 0.735683 0.215906 0.330245 6.07017e-06 2
0.0114524 -0.0136779 -0.00526922 0.735683 0.215906 0.330245 4.10363e-06 2
0.009455 -0.014801 -0.00699532 0.735683 0.215906 0.330245 4.07143e-06 2
0.0122169 -0.0134432 -0.00167598 0.735683 0.215906 0.330245 7.11085e-06 2
0.00710254 -0.0142959 0.00171638 0.735683 0.215906 0.330245 6.00943e-06 2
0.00733132 -0.012534 0.00100318 0.735683 0.215906 0.330245 2.71714e-06 2
0.0050751 -0.0114862 -0.00675303 0.735683 0.215906 0.330245 4.42705e-06 2
0.0045349 -0.0114106 -0.00978475 0.735683 0.215906 0.330245 3.25844e-06 2
0.00116846 -0.0133319 -0.0127382 0.735683 0.215906 0.330245 9.52448e-06 2
0.0116385 -0.0230486 -0.00201778 0.735683 0.215906 0.330245 7.80882e-06 2
0.00919436 -0.0222246 -0.00701795 0.735683 0.215906 0.330245 6.45313e-06 2
0.0018859 -0.0149993 -0.00907923 0.735683 0.215906 0.330245 1.20251e-05 2
0.00419669 -0.0198989 -0.0085605 0.735683 0.215906 0.330245 5.50659e-06 2
0.00087978 -0.0135281 -0.00455569 0.735683 0.215906 0.330245 1.35615e-06 2
0.00274366 -0.0184582 -0.0109444 0.735683 0.215906 0.330245 1.34345e-05 2
-0.0115477 -0.00247036 -0.0128304 0.735683 0.215906 0.330245 5.83907e-06 2
-0.0165955 0.00383328 -3.57815e-05 0.735683 0.215906 0.330245 2.02673e-06 2
-0.0187073 0.00474783 -0.00186477 0.735683 0.215906 0.330245 4.17226e-06 2
-0.0164385 -0.000129617 -0.00357706 0.735683 0.215906 0.330245 5.99067e-06 2
-0.0144828 -0.00378006 -0.00826021 0.735683 0.215906 0.330245 7.95216e-06 2
-0.0118401 0.00544384 -0.017699 0.735683 0.215906 0.330245 1.99771e-06 2
-0.0157769 -0.00164159 -0.0106672 0.735683 0.215906 0.330245 1.67765e-05 2
-0.0142686 -0.00218627 -0.00283255 0.735683 0.215906 0.330245 3.04345e-06 2
-0.0142819 0.00187482 0.00318196 0.735683 0.215906 0.330245 1.88115e-06 2
-0.0177909 0.00142268 -0.00719269 0.735683 0.215906 0.330245 1.31495e-05 2
-0.0137067 -0.00157145 -0.00546685 0.735683 0.215906 0.330245 5.10009e-06 2
-0.0150008 0.000567012 -0.00787384 0.735683 0.215906 0.330245 1.23031e-05 2
-0.0114456 -0.00313035 -0.00920448 0.735683 0.215906 0.330245 6.49179e-06 2
-0.0149352 0.00823244 -0.0107464 0.735683 0.215906 0.330245 4.66056e-06 2
-0.0166894 0.00273823 -0.000902524 0.735683 0.215906 0.330245 2.45675e-06 2
-0.0115983 -0.00384435 -0.0157175 0.735683 0.215906 0.330245 6.50821e-06 2
-0.0139388 -0.0033742 -0.00165993 0.735683 0.215906 0.330245 2.05669e-06 2
-0.0169627 0.00522962 -0.00461709 0.735683 0.215906 0.330245 3.52283e-06 2
-0.0185132 0.000543975 0.00179482 0.735683 0.215906 0.330245 2.06094e-05 2
-0.0129461 0.0061085 -0.0111544 0.735683 0.215906 0.330245 7.78524e-06 2
-0.0135072 0.00391664 -0.00795161 0.735683 0.215906 0.330245 4.434e-06 2
-0.0174872 0.00697605 -0.00844992 0.735683 0.215906 0.330245 3.06718e-06 2
-0.0181527 0.00743335 -0.00579654 0.735683 0.215906 0.330245 2.02983e-06 2
-0.0162973 0.00477231 -0.00727047 0.735683 0.215906 0.330245 4.75928e-06 2
-0.0182622 -0.00232387 -0.000879711 0.735683 0.215906 0.330245 2.48258e-05 2
-0.0145776 0.00182368 0.000926468 0.735683 0.215906 0.330245 1.30231e-06 2
-0.0126779 0.00412442 -0.0168214 0.735683 0.215906 0.330245 2.0484e-06 2
-0.0124514 0.00424042 -0.013991 0.735683 0.215906 0.330245 1.07673e-05 2
-0.0137886 -0.000160051 -0.0135816 0.735683 0.215906 0.330245 1.13189e-05 2
-0.0107635 0.00318694 -0.0158401 0.735683 0.215906 0.330245 3.95423e-06 2
-0.00896407 0.000947165 -0.0154333 0.735683 0.215906 0.330245 2.52204e-06 2
-0.00848742 -0.00087284 -0.0127345 0.735683 0.215906 0.330245 5.62284e-06 2
-0.0072526 0.000372274 -0.0137129 0.735683 0.215906 0.330245 2.80815e-06 2
-0.00351391 -0.00779176 -0.0103215 0.735683 0.215906 0.330245 4.20307e-06 2
-0.00862026 -0.00789144 -0.0143238 0.735683 0.215906 0.330245 8.93316e-06 2
-0.00909679 -0.00938165 -0.00372251 0.735683 0.215906 0.330245 7.4652e-06 2
-0.0112086 -0.00671891 -0.0141677 0.735683 0.215906 0.330245 9.14771e-06 2
-0.00360351 -0.0128928 -0.0123394 0.735683 0.215906 0.330245 1.48664e-06 2
-0.0117781 -0.0065459 -0.00985496 0.735683 0.215906 0.330245 7.81408e-06 2
-0.0148153 -0.0071956 -0.0089107 0.735683 0.215906 0.330245 9.00632e-06 2
-0.0104783 -0.00916842 -0.00640134 0.735683 0.215906 0.330245 9.98811e-06 2
-0.00775199 -0.00706956 -0.00181173 0.735683 0.215906 0.330245 4.74954e-06 2
-0.00139691 -0.00851873 -0.0196812 0.735683 0.215906 0.330245 5.59742e-06 2
-0.0152442 -0.0100329 -0.00933201 0.735683 0.215906 0.330245 2.21547e-06 2
-0.00910263 -0.00650297 -0.00763585 0.735683 0.215906 0.330245 7.22357e-06 2
-0.0152676 -0.00601708 -0.0010309 0.735683 0.215906 0.330245 4.03675e-06 2
-0.0142891 -0.00894547 -0.00670043 0.735683 0.215906 0.330245 1.21667e-05 2
-0.0119356 -0.00586502 0.0040547 0.735683 0.215906 0.330245 3.73242e-06 2
-0.00291827 -0.0132377 -0.00990717 0.735683 0.215906 0.330245 2.88441e-06 2
-0.0105112 -0.00797542 -0.0170252 0.735683 0.215906 0.330245 3.12176e-06 2
-0.00492608 -0.00802429 -0.00935031 0.735683 0.215906 0.330245 4.32444e-06 2
-0.00156117 -0.0267812 -0.0112504 0.735683 0.215906 0.330245 4.03313e-06 2
-0.00110122 -0.0121642 -0.00802265 0.735683 0.215906 0.330245 2.61967e-06 2
-0.0069335 -0.014 -0.0103065 0.735683 0.215906 0.330245 2.75728e-06 2
-0.00277902 -0.00898242 -0.017513 0.735683 0.215906 0.330245 6.61722e-06 2
-0.00148192 -0.00992528 -0.012165 0.735683 0.215906 0.330245 2.75043e-06 2
-0.00792293 -0.00914796 -0.0171813 0.735683 0.215906 0.330245 2.71715e-06 2
-0.0127907 -0.00877296 0.00197401 0.735683 0.215906 0.330245 3.27938e-06 2
-0.0137065 -0.00824776 0.00048454 0.735683 0.215906 0.330245 4.86546e-06 2
-0.00611046 -0.0117969 -0.00876492 0.735683 0.215906 0.330245 4.50575e-06 2
-0.00356709 -0.0110583 -0.00769168 0.735683 0.215906 0.330245 4.31478e-06 2
-0.00680277 -0.00516679 -0.0147834 0.735683 0.215906 0.330245 9.7592e-06 2
-0.0123208 -0.00882934 0.00511215 0.735683 0.215906 0.330245 6.86197e-06 2
-0.010235 -0.0111082 0.0028038 0.735683 0.215906 0.330245 5.43444e-06 2
-0.0158473 -0.00878762 -0.00278662 0.735683 0.215906 0.330245 1.52923e-05 2
-0.0142862 -0.0110183 -0.00127118 0.735683 0.215906 0.330245 3.39394e-06 2
-0.0115202 -0.00671624 0.000136343 0.735683 0.215906 0.330245 3.8093e-06 2
-0.0163766 -0.0118398 -0.00198273 0.735683 0.215906 0.330245 9.58175e-07 2
-0.0159416 -0.00444727 0.00119921 0.735683 0.215906 0.330245 6.00489e-06 2
-0.0172704 -0.00709015 0.00182824 0.735683 0.215906 0.330245 1.20539e-05 2
-0.0120998 -0.00948678 -0.00161938 0.735683 0.215906 0.330245 4.34359e-06 2
-0.00990131 -0.00886236 -0.00182058 0.735683 0.215906 0.330245 7.14487e-06 2
-0.00608165 -0.00849718 -0.000201722 0.735683 0.215906 0.330245 2.10984e-06 2
-0.0131759 -0.0117373 0.00303146 0.735683 0.215906 0.330245 6.52399e-06 2
-0.00746944 -0.00876293 -0.0104235 0.735683 0.215906 0.330245 6.16507e-06 2
-0.00224526 -0.0123373 -0.0134092 0.735683 0.215906 0.330245 4.13277e-06 2
-0.0067957 -0.0114519 -0.0111972 0.735683 0.215906 0.330245 2.85903e-06 2
-0.00342673 -0.0065763 -0.00794629 0.735683 0.215906 0.330245 1.4607e-06 2
-0.00425233 -0.0107133 -0.0101239 0.735683 0.215906 0.330245 2.38755e-06 2
-0.0012905 -0.00836603 -0.0143834 0.735683 0.215906 0.330245 7.28277e-06 2
-0.00434986 -0.00491046 -0.013692 0.735683 0.215906 0.330245 8.06846e-07 2
-0.00332249 -0.00623252 -0.01254 0.735683 0.215906 0.330245 1.1074e-05 2
-0.00470492 -0.0156779 -0.00845357 0.735683 0.215906 0.330245 2.8527e-06 2
-0.000842581 -0.0143496 -0.00731803 0.735683 0.215906 0.330245 4.78342e-06 2
0.00898 -0.0110926 -0.0104854 0.978422 0.557937 0.034931 4.6849e-06 3
0.00342134 -0.00575422 -0.0222541 0.978422 0.557937 0.034931 4.72656e-06 3
0.012808 -0.00385575 -0.0110871 0.978422 0.557937 0.034931 3.20285e-06 3
0.0128397 -0.00383857 -0.0144711 0.978422 0.557937 0.034931 1.62069e-06 3
0.00889107 -0.00233746 -0.0155125 0.978422 0.557937 0.034931 5.65023e-06 3
0.0093375 0.000529294 -0.0150738 0.978422 0.557937 0.034931 5.98919e-06 3
0.00108818 -0.00870937 -0.0192502 0.978422 0.557937 0.034931 4.59733e-06 3
0.00110434 -0.00545258 -0.0208978 0.978422 0.557937 0.034931 6.38645e-06 3
0.00892087 -0.00796526 -0.0100728 0.978422 0.557937 0.034931 3.64837e-06 3
0.0121546 -0.00141892 -0.0119913 0.978422 0.557937 0.034931 1.40325e-06 3
0.00120542 -0.00772507 -0.015678 0.978422 0.557937 0.034931 6.17746e-06 3
0.00346225 -0.00099752 -0.0178772 0.978422 0.557937 0.034931 6.87418e-06 3
0.0110886 -0.00416046 -0.0164148 0.978422 0.557937 0.034931 2.93072e-06 3
0.00613347 -0.00626359 -0.0184699 0.978422 0.557937 0.034931 7.53929e-06 3
0.0100641 -0.00843298 -0.0124356 0.978422 0.557937 0.034931 2.22344e-06 3
0.00544648 -0.00224309 -0.0154078 0.978422 0.557937 0.034931 7.87835e-06 3
0.00413139 -0.00494593 -0.0247897 0.978422 0.557937 0.034931 1.43022e-05 3
0.0117423 -0.0108439 -0.00738748 0.978422 0.557937 0.034931 2.37028e-06 3
0.00578178 -0.0061725 -0.0155962 0.978422 0.557937 0.034931 2.12844e-06 3
0.00699215 -0.00477182 -0.0160916 0.978422 0.557937 0.034931 8.37169e-06 3
0.00216172 -0.00948604 -0.0120061 0.978422 0.557937 0.034931 5.07504e-06 3
0.0137364 -0.00507278 -0.0131986 0.978422 0.557937 0.034931 4.55141e-06 3
0.00526566 -0.00751636 -0.0237252 0.978422 0.557937 0.034931 3.43076e-06 3
0.00974486 -0.0119671 -0.00911358 0.978422 0.557937 0.034931 2.35168e-06 3
0.00803613 -0.00807654 -0.0150037 0.978422 0.557937 0.034931 2.89895e-06 3
0.0103213 -0.00558692 -0.0161859 0.978422 0.557937 0.034931 3.81534e-06 3
0.00345977 -0.00962911 -0.0150855 0.978422 0.557937 0.034931 6.22302e-06 3
0.00350356 -0.00724044 -0.0148076 0.978422 0.557937 0.034931 5.87902e-06 3
0.00535881 -0.0065557 -0.0151279 0.978422 0.557937 0.034931 2.2907e-06 3
0.00537414 -0.0120717 -0.0158184 0.978422 0.557937 0.034931 2.96833e-06 3
0.00589631 -0.00680179 -0.00994239 0.978422 0.557937 0.034931 4.62212e-06 3
0.00436225 -0.00574867 -0.0124293 0.978422 0.557937 0.034931 8.70577e-06 3
0.0119113 -0.00262155 -0.0123596 0.978422 0.557937 0.034931 1.22021e-06 3
0.0120532 -0.00816977 -0.00573206 0.978422 0.557937 0.034931 4.37779e-06 3
0.0118745 -0.00593476 -0.00996726 0.978422 0.557937 0.034931 2.75383e-06 3
0.0128029 -0.00715179 -0.0120787 0.978422 0.557937 0.034931 4.87096e-06 3
0.0111389 -0.00734405 -0.0131223 0.978422 0.557937 0.034931 3.53296e-06 3
0.0148604 -0.00844523 -0.00705121 0.978422 0.557937 0.034931 5.68367e-06 3
0.0135149 -0.00846207 -0.0134719 0.978422 0.557937 0.034931 8.38096e-07 3
0.00999665 -0.00616561 -0.00704552 0.978422 0.557937 0.034931 6.88276e-06 3
0.0108633 -0.00471058 -0.00751525 0.978422 0.557937 0.034931 1.94509e-06 3
0.00878266 -0.00104376 -0.0122705 0.978422 0.557937 0.034931 4.56549e-06 3
0.0100518 -0.00164972 -0.0110613 0.978422 0.557937 0.034931 1.31685e-06 3
0.0102598 -0.00791385 -0.0031604 0.978422 0.557937 0.034931 1.12032e-05 3
0.004346 -0.00846191 -0.00878333 0.978422 0.557937 0.034931 4.22734e-06 3
0.00262052 -0.00896804 -0.00905179 0.978422 0.557937 0.034931 1.56547e-06 3
0.00407609 -0.0119286 -0.0127391 0.978422 0.557937 0.034931 1.04998e-05 3
0.0192432 0.00138089 -0.000653712 0.978422 0.557937 0.034931 1.56865e-05 3
0.011524 -0.000341371 -0.00939496 0.978422 0.557937 0.034931 1.22757e-06 3
0.0187591 0.00503064 -0.000928242 0.978422 0.557937 0.034931 4.46707e-06 3
0.0144451 -0.0014149 -0.00900628 0.978422 0.557937 0.034931 3.08053e-06 3
0.0168556 -0.00646793 -0.00648406 0.978422 0.557937 0.034931 6.6115e-06 3
0.0134631 0.00166795 -0.0166475 0.978422 0.557937 0.034931 1.14018e-06 3
0.0171779 -0.00284415 -0.00214961 0.978422 0.557937 0.034931 5.87287e-06 3
0.0188977 -0.00733523 -0.0058683 0.978422 0.557937 0.034931 1.84274e-06 3
0.0190071 -0.00069296 -0.00323902 0.978422 0.557937 0.034931 1.01266e-05 3
0.0116036 0.00263977 -0.0153491 0.978422 0.557937 0.034931 1.23074e-05 3
0.0178866 -0.00611105 -0.00341629 0.978422 0.557937 0.034931 9.70659e-06 3
0.0146196 -0.00088927 -0.00389358 0.978422 0.557937 0.034931 4.58715e-06 3
0.0164488 0.00126192 -0.00498298 0.978422 0.557937 0.034931 9.04239e-06 3
0.0172037 0.000229966 -0.00849309 0.978422 0.557937 0.034931 9.73164e-06 3
0.0154717 0.00342979 -0.0102348 0.978422 0.557937 0.034931 1.74968e-05 3
0.0159108 0.00677482 -0.00769584 0.978422 0.557937 0.034931 1.14052e-05 3
0.0158263 0.00470865 -0.00413106 0.978422 0.557937 0.034931 7.07311e-06 3
0.012521 0.00237507 -0.0108794 0.978422 0.557937 0.034931 6.26364e-06 3
0.0179005 0.00640352 -0.00266163 0.978422 0.557937 0.034931 4.10428e-06 3
0.0152344 -0.0038513 -0.00729768 0.978422 0.557937 0.034931 7.55103e-06 3
0.0137071 -0.00153954 -0.00597387 0.978422 0.557937 0.034931 3.50913e-06 3
0.0105645 0.00381957 -0.00906751 0.978422 0.557937 0.034931 1.7118e-06 3
0.0131516 0.00129752 -0.0134758 0.978422 0.557937 0.034931 6.97947e-06 3
