ply
format ascii 1.0
comment Created by Open3D
element vertex 821
property float32 x
property float32 y
property float32 z
property float32 red
property float32 green
property float32 blue
property uint8 segmentation
end_header
-0.0378808 -0.00767017 0.00149748 0.529412 0.54902 0.54902 0
-0.0121439 0.113371 0.012026 0.529412 0.54902 0.54902 0
0.00466003 0.0403864 0.00688252 0.898039 0.898039 0.898039 1
-0.0840692 0.0185761 0.0133095 0.529412 0.54902 0.54902 0
-0.0310094 -0.0115879 0.00191547 0.529412 0.54902 0.54902 0
0.000176971 -0.0320922 0.000789546 0.898039 0.898039 0.898039 1
-0.0463785 -0.00477211 0.002286 0.529412 0.54902 0.54902 0
-0.0539483 0.0958496 9.93256e-06 0.529412 0.54902 0.54902 0
-0.067848 0.0334029 0.0136172 0.529412 0.54902 0.54902 0
-0.0641565 0.0423483 0 0.529412 0.54902 0.54902 0
-0.0185997 0.111968 1.85828e-05 0.529412 0.54902 0.54902 0
-0.0809081 0.0517064 0.015875 0.529412 0.54902 0.54902 0
-0.0758535 0.0777126 0.013589 0.529412 0.54902 0.54902 0
-0.0585281 0.0179595 0.0138772 0.529412 0.54902 0.54902 0
-0.084201 0.0315176 0.0106637 0.529412 0.54902 0.54902 0
0.00389482 0.105432 0.00428225 0.529412 0.54902 0.54902 0
-0.084201 0.033472 0.0111486 0.529412 0.54902 0.54902 0
-0.0165492 -0.0330771 0.0235268 0.647059 0.517647 0 4
-0.0774603 0.0592009 0.013589 0.529412 0.54902 0.54902 0
0.00791154 -0.00376643 0.00688252 0.529412 0.54902 0.54902 0
-0.084201 0.0276158 0.0052519 0.529412 0.54902 0.54902 0
0.00277258 0.038532 0.0122705 0.898039 0.898039 0.898039 1
0.00702784 0.0726894 0.0132065 0.898039 0.898039 0.898039 1
-0.0503184 -0.0141224 0.00688252 0.529412 0.54902 0.54902 0
-0.0154131 -0.00406573 0.000382291 0.529412 0.54902 0.54902 0
-0.00174941 0.108977 0.00571165 0.529412 0.54902 0.54902 0
-0.0657633 0.00296124 0.013589 0.529412 0.54902 0.54902 0
-0.0435512 0.103109 0 0.529412 0.54902 0.54902 0
-0.0730581 0.0268233 0.013589 0.529412 0.54902 0.54902 0
-0.0224409 0.00239361 0.0140823 0.529412 0.54902 0.54902 0
-0.0803844 0.0209053 0.015875 0.529412 0.54902 0.54902 0
-0.0514822 -0.00423231 0.013589 0.529412 0.54902 0.54902 0
-0.0741467 0.0640474 0.002286 0.529412 0.54902 0.54902 0
-0.0796564 0.0115325 0 0.529412 0.54902 0.54902 0
0.000681311 -0.0271933 0.0127342 0.898039 0.898039 0.898039 1
0.000406766 -0.0356992 0.000789546 0.898039 0.898039 0.898039 1
0.0156859 -0.0379934 -0.00526068 0.647059 0.517647 0 4
-0.0706592 0.00950806 0.013589 0.529412 0.54902 0.54902 0
-0.0191674 -0.00510273 0.000110957 0.529412 0.54902 0.54902 0
-0.016993 -0.0340243 0.0278218 0.647059 0.517647 0 4
-0.084201 0.0360005 0.00862003 0.529412 0.54902 0.54902 0
-0.07264 0.0580648 0.013589 0.529412 0.54902 0.54902 0
-0.0705835 0.0517013 0.013589 0.529412 0.54902 0.54902 0
0.00500511 0.0481073 0.00921997 0.898039 0.898039 0.898039 1
-0.0710333 0.0311306 0.013589 0.529412 0.54902 0.54902 0
-0.0687993 0.0542522 0.002286 0.529412 0.54902 0.54902 0
0.00360595 -0.0173891 0.00417445 0.898039 0.898039 0.898039 1
-0.0732294 0.0607742 0.013589 0.529412 0.54902 0.54902 0
-0.00312642 0.0260056 0.0125086 0.898039 0.898039 0.898039 1
-0.0705835 0.0709824 0.013589 0.529412 0.54902 0.54902 0
-0.0566275 0.0999039 0.0136147 0.529412 0.54902 0.54902 0
0.00669749 -0.0368596 0.00531206 0.898039 0.898039 0.898039 1
-0.0311407 0.0999813 0.0154873 0.529412 0.54902 0.54902 0
-0.0504432 -0.00823311 0.00222358 0.529412 0.54902 0.54902 0
-0.0191674 -0.0366701 0.0300277 0.647059 0.517647 0 4
-0.0134741 0.113618 0.00762073 0.529412 0.54902 0.54902 0
0.00430284 0.0427206 0.0104 0.898039 0.898039 0.898039 1
-0.0173961 -0.00330858 0.0022292 0.529412 0.54902 0.54902 0
-0.0057457 0.111303 0.00490514 0.529412 0.54902 0.54902 0
-0.0698477 0.0105225 0.002286 0.529412 0.54902 0.54902 0
-0.0628973 0.0383998 2.31639e-05 0.529412 0.54902 0.54902 0
-0.0794747 0.054457 0.000321407 0.529412 0.54902 0.54902 0
-0.00657203 0.00762 0.00905518 0.607843 0.623529 0.623529 0
-0.0789805 0.0542549 0.00168747 0.529412 0.54902 0.54902 0
0.00076336 -0.0243838 0.0133095 0.898039 0.898039 0.898039 1
-0.0513025 -0.0125688 0.0156413 0.529412 0.54902 0.54902 0
-0.00138324 -0.0039004 0 0.529412 0.54902 0.54902 0
0.00135733 -0.0132776 0.013363 0.898039 0.898039 0.898039 1
-0.0638859 0.00977811 0.013589 0.529412 0.54902 0.54902 0
-0.0544228 0.0948254 0.0156917 0.529412 0.54902 0.54902 0
-0.0641565 0.0650712 0 0.529412 0.54902 0.54902 0
0.0125103 -0.0355536 -0.00897795 0.647059 0.517647 0 4
-0.0770105 0.03779 0.002286 0.529412 0.54902 0.54902 0
-0.02057 0.109532 0.000668755 0.529412 0.54902 0.54902 0
-0.0821638 0.00973793 0.00786511 0.529412 0.54902 0.54902 0
-0.010678 0.111062 8.07659e-05 0.529412 0.54902 0.54902 0
-0.084201 0.0355013 0.0037719 0.529412 0.54902 0.54902 0
-0.0812631 0.094094 0.00527577 0.529412 0.54902 0.54902 0
-0.0657358 0.0222121 1.08055e-17 0.529412 0.54902 0.54902 0
-0.0038899 -0.009398 0.0138772 0.564706 0.580392 0.580392 0
-0.0481915 0.107215 0.002286 0.529412 0.54902 0.54902 0
-0.0518214 0.0961221 0.0064329 0.529412 0.54902 0.54902 0
-0.067835 0.103827 0.0019736 0.529412 0.54902 0.54902 0
-0.0786173 0.00375405 0.0150685 0.529412 0.54902 0.54902 0
-0.0436263 0.00442416 0 0.529412 0.54902 0.54902 0
-0.038347 -0.0112401 0.0157307 0.529412 0.54902 0.54902 0
-0.0821598 0.00972534 0.00937609 0.529412 0.54902 0.54902 0
-0.0787318 0.0196858 0.00190689 0.529412 0.54902 0.54902 0
-0.0662805 0.0220245 0.00197332 0.529412 0.54902 0.54902 0
-0.021528 0.111062 0 0.529412 0.54902 0.54902 0
-0.0716258 0.105763 0.000262233 0.529412 0.54902 0.54902 0
0.00524762 -0.0196493 0.00896692 0.898039 0.898039 0.898039 1
-0.0725079 0.0468811 0.013589 0.529412 0.54902 0.54902 0
0.000894404 -0.009398 0.0151723 0.564706 0.580392 0.580392 0
-0.0668023 0.111441 0.00736259 0.529412 0.54902 0.54902 0
0.00329492 0.0359846 0.00457201 0.898039 0.898039 0.898039 1
0.00244916 0.0571008 0.0121825 0.898039 0.898039 0.898039 1
-0.00149312 -0.00644458 0.015875 0.529412 0.54902 0.54902 0
-0.048089 0.117503 0.00348466 0.529412 0.54902 0.54902 0
-0.0605129 -0.00349598 0.002286 0.529412 0.54902 0.54902 0
-0.0673882 0.0890459 0.013589 0.529412 0.54902 0.54902 0
-0.00174003 0.102752 -0.00146992 0.529412 0.54902 0.54902 0
-0.00158886 0.0512905 0.00348403 0.898039 0.898039 0.898039 1
-0.0715256 0.107825 0.00723707 0.529412 0.54902 0.54902 0
-0.0810083 0.0169197 0.015875 0.529412 0.54902 0.54902 0
0.00402012 0.0432986 0.0117028 0.898039 0.898039 0.898039 1
-0.0650021 0.0197736 0.0156727 0.529412 0.54902 0.54902 0
-0.0185997 -0.0334566 0.0245415 0.647059 0.517647 0 4
-0.0498465 -0.00532512 0.013589 0.529412 0.54902 0.54902 0
-0.0146448 -0.00879149 0.00423669 0.529412 0.54902 0.54902 0
-0.00737125 0.074295 0.0102675 0.898039 0.898039 0.898039 1
0.00255085 0.074295 0.000920619 0.898039 0.898039 0.898039 1
-0.0642994 -0.00670948 0.015875 0.529412 0.54902 0.54902 0
0.00278243 0.099695 0.0110463 0.529412 0.54902 0.54902 0
-0.0061155 -0.0330429 0.0149881 0.647059 0.517647 0 4
-0.0660457 0.0803863 0 0.529412 0.54902 0.54902 0
-0.0764429 0.0350661 0.013589 0.529412 0.54902 0.54902 0
-0.00524506 -0.0352679 0.0166526 0.647059 0.517647 0 4
-0.061976 0.0366083 0.00519569 0.529412 0.54902 0.54902 0
-0.0318738 0.115971 0.0138562 0.529412 0.54902 0.54902 0
-0.0330605 -0.00412753 0.002286 0.529412 0.54902 0.54902 0
0.00535607 -0.0132469 0.00680038 0.898039 0.898039 0.898039 1
-0.0157453 -0.00510273 0 0.529412 0.54902 0.54902 0
-0.0434573 -0.0110164 0.015875 0.529412 0.54902 0.54902 0
0.00172039 0.0500946 0.013066 0.898039 0.898039 0.898039 1
-0.0821411 0.014746 0.000305614 0.529412 0.54902 0.54902 0
-0.061976 0.0484878 0.0030952 0.529412 0.54902 0.54902 0
0.00710832 -0.00658335 0.00437477 0.529412 0.54902 0.54902 0
-0.084201 0.0533854 0.00813771 0.529412 0.54902 0.54902 0
0.0049296 -0.0109621 0.00584345 0.898039 0.898039 0.898039 1
-0.0670654 0.0730534 0.00125057 0.529412 0.54902 0.54902 0
0.00340811 0.0535202 0.0114515 0.898039 0.898039 0.898039 1
-0.00213003 0.0114828 0.0121694 0.898039 0.898039 0.898039 1
-0.0365984 0.000969525 0.013589 0.529412 0.54902 0.54902 0
-0.0724313 0.0174968 0.013589 0.529412 0.54902 0.54902 0
-0.0627989 0.109903 9.23321e-20 0.529412 0.54902 0.54902 0
-0.02342 0.00227629 0.00187295 0.529412 0.54902 0.54902 0
-0.0830091 0.0432757 0.015484 0.529412 0.54902 0.54902 0
0.00824405 0.0740992 0.0108745 0.898039 0.898039 0.898039 1
-0.0819219 0.0474381 2.28275e-05 0.529412 0.54902 0.54902 0
0.0019887 0.0576634 0.00379808 0.898039 0.898039 0.898039 1
-0.0752274 0.0170371 0.013589 0.529412 0.54902 0.54902 0
0.00111111 0.099695 0.00529264 0.529412 0.54902 0.54902 0
-0.0345754 0.116049 0.00128466 0.529412 0.54902 0.54902 0
-0.080232 0.0110422 0.0158485 0.529412 0.54902 0.54902 0
-0.0254905 -0.00899071 0.000148931 0.529412 0.54902 0.54902 0
-0.0719328 0.059837 0.013589 0.529412 0.54902 0.54902 0
-0.0828699 0.0484333 0.000311792 0.529412 0.54902 0.54902 0
0.00495037 0.0628189 0.010096 0.898039 0.898039 0.898039 1
-0.0638659 0.000969525 0.013589 0.529412 0.54902 0.54902 0
-0.0338024 0.110661 0.0137919 0.529412 0.54902 0.54902 0
0.000492996 0.00591564 4.14392e-05 0.529412 0.54902 0.54902 0
0.00141817 0.0393499 0.0129989 0.898039 0.898039 0.898039 1
-0.0715452 0.0531188 0.002286 0.529412 0.54902 0.54902 0
-0.0779469 0.0559539 0.013589 0.529412 0.54902 0.54902 0
-0.00318123 0.064256 0.004557 0.898039 0.898039 0.898039 1
0.0127796 -0.035902 -0.00146324 0.647059 0.517647 0 4
-0.0689768 0.073072 0.013589 0.529412 0.54902 0.54902 0
0.00462531 0.101973 -0.000445286 0.529412 0.54902 0.54902 0
0.00523526 -0.0304553 0.00777036 0.898039 0.898039 0.898039 1
-0.0297815 -0.0110689 0.00120526 0.529412 0.54902 0.54902 0
-0.0278348 -0.00527706 0.00217947 0.529412 0.54902 0.54902 0
0.0136816 -0.0324175 -0.00701058 0.647059 0.517647 0 4
-0.084201 0.0522603 0.00973582 0.529412 0.54902 0.54902 0
-0.061976 0.0657421 0.00398682 0.529412 0.54902 0.54902 0
-0.0132682 0.00762 0.00494436 0.615686 0.627451 0.627451 0
-0.084201 0.0281539 0.00960718 0.529412 0.54902 0.54902 0
-0.084201 0.0774094 0.010096 0.529412 0.54902 0.54902 0
0.00617842 0.104267 0.00317495 0.529412 0.54902 0.54902 0
-0.075712 0.0401207 0.013589 0.529412 0.54902 0.54902 0
-0.0731661 0.0326682 0.002286 0.529412 0.54902 0.54902 0
-0.0748361 0.0870499 0.002286 0.529412 0.54902 0.54902 0
-0.0499149 0.0985584 0 0.529412 0.54902 0.54902 0
0.00384596 0.0315939 0.0107544 0.898039 0.898039 0.898039 1
-0.00272501 0.0258513 0.00327972 0.898039 0.898039 0.898039 1
-0.0841978 0.0716605 0.00249991 0.529412 0.54902 0.54902 0
-0.0142309 0.112289 0.0156039 0.529412 0.54902 0.54902 0
0.00449862 0.0402631 0.00670733 0.898039 0.898039 0.898039 1
-0.061976 0.0533391 0.00945984 0.529412 0.54902 0.54902 0
-0.0708893 0.0698237 0.002286 0.529412 0.54902 0.54902 0
-0.0836918 0.0270439 0.00102723 0.529412 0.54902 0.54902 0
0.00215291 0.0224428 0.00392133 0.898039 0.898039 0.898039 1
-0.0598411 -0.00961384 0.015875 0.529412 0.54902 0.54902 0
-0.0268317 0.00493342 0.015875 0.529412 0.54902 0.54902 0
0.00521466 -0.0081141 0.00194141 0.529412 0.54902 0.54902 0
-0.0755099 0.014232 0.013589 0.529412 0.54902 0.54902 0
-0.0780496 0.100181 0.0118055 0.529412 0.54902 0.54902 0
-0.0799374 0.00466591 0.0096391 0.529412 0.54902 0.54902 0
-0.084201 0.0266551 0.00660397 0.529412 0.54902 0.54902 0
-0.084201 0.0672012 0.0106637 0.529412 0.54902 0.54902 0
0.0151421 -0.0379078 -0.00861733 0.647059 0.517647 0 4
-0.0634635 0.0254256 0 0.529412 0.54902 0.54902 0
0.00676898 -0.0379484 0.0104883 0.898039 0.898039 0.898039 1
-0.000277459 0.0680468 0.00206226 0.898039 0.898039 0.898039 1
-0.0684091 0.100943 0.013589 0.529412 0.54902 0.54902 0
-0.00463368 0.0206053 0.00786949 0.898039 0.898039 0.898039 1
-0.0258275 0.101428 0 0.529412 0.54902 0.54902 0
-0.0309177 0.110402 0.0138868 0.529412 0.54902 0.54902 0
-0.00547451 -0.0155272 0.0074502 0.898039 0.898039 0.898039 1
-0.0717188 0.026487 0.013589 0.529412 0.54902 0.54902 0
-0.00470663 0.0325576 0.0052461 0.898039 0.898039 0.898039 1
-0.00365018 0.0714841 0.0153783 0.898039 0.898039 0.898039 1
-0.0529517 0.106964 0.013589 0.529412 0.54902 0.54902 0
-0.0025322 0.099695 0.0108221 0.529412 0.54902 0.54902 0
-0.052114 0.10175 0.000124938 0.529412 0.54902 0.54902 0
-0.077111 0.0543472 0.002286 0.529412 0.54902 0.54902 0
-0.0540378 -0.0137276 0.00262994 0.529412 0.54902 0.54902 0
-0.00129317 0.074295 0.00697071 0.898039 0.898039 0.898039 1
-0.0616159 0.0248638 0.0153713 0.529412 0.54902 0.54902 0
0.00295572 -0.015904 0.0037731 0.898039 0.898039 0.898039 1
-0.0587686 0.101809 0.013589 0.529412 0.54902 0.54902 0
-0.0566792 0.000688944 0.013589 0.529412 0.54902 0.54902 0
-0.0268384 0.00762 0.0120053 0.564706 0.580392 0.580392 0
-0.0119667 -0.00831927 0.0068558 0.529412 0.54902 0.54902 0
-0.00279348 0.0518893 0.0125547 0.898039 0.898039 0.898039 1
-0.0507108 0.117144 0.0141543 0.529412 0.54902 0.54902 0
-0.0344973 0.11617 0.0143166 0.529412 0.54902 0.54902 0
-0.073152 0.0678887 0.002286 0.529412 0.54902 0.54902 0
-0.0358104 -0.00747758 0.000656023 0.529412 0.54902 0.54902 0
-0.00735246 0.111997 0.00848928 0.529412 0.54902 0.54902 0
-0.0815205 0.0855782 0.0158448 0.529412 0.54902 0.54902 0
-0.0123379 -0.00261641 0.00214647 0.529412 0.54902 0.54902 0
-0.00307238 0.0468811 0.00438869 0.898039 0.898039 0.898039 1
-0.0324426 -0.0029283 0.002286 0.529412 0.54902 0.54902 0
-0.0376655 0.101511 -1.08055e-17 0.529412 0.54902 0.54902 0
-0.0666342 0.00597788 0.002286 0.529412 0.54902 0.54902 0
-0.0104206 0.099695 0.00330069 0.529412 0.54902 0.54902 0
-0.0734023 0.0896131 0.013589 0.529412 0.54902 0.54902 0
-0.0434153 0.0993852 0.00193806 0.529412 0.54902 0.54902 0
-0.0384484 0.0997229 0.000902132 0.529412 0.54902 0.54902 0
-0.0225175 0.107938 0.013589 0.529412 0.54902 0.54902 0
-0.0587686 0.00510547 0.002286 0.529412 0.54902 0.54902 0
-0.0349202 0.0999567 0.0154586 0.529412 0.54902 0.54902 0
0.0156643 -0.0381941 -0.00788391 0.647059 0.517647 0 4
-0.00933091 -0.035068 0.0207049 0.647059 0.517647 0 4
0.00719961 -0.0389091 0.00869909 0.898039 0.898039 0.898039 1
-0.0764958 0.0355761 0.013589 0.529412 0.54902 0.54902 0
-0.078736 0.0918702 0.015875 0.529412 0.54902 0.54902 0
-0.0553545 -0.0135124 0.00755077 0.529412 0.54902 0.54902 0
-0.0833699 0.048501 0.000664159 0.529412 0.54902 0.54902 0
-0.0285669 0.109544 0.00226291 0.529412 0.54902 0.54902 0
-0.061976 0.0324203 0.0061322 0.529412 0.54902 0.54902 0
0.00335009 0.03601 0.0114143 0.898039 0.898039 0.898039 1
-0.0432687 0.00614454 0 0.529412 0.54902 0.54902 0
-0.0299925 0.00540064 0 0.529412 0.54902 0.54902 0
-0.0638471 -0.00530687 0.0155432 0.529412 0.54902 0.54902 0
-0.0516109 0.0110506 0.00155807 0.529412 0.54902 0.54902 0
-0.0747036 0.104629 0.00805251 0.529412 0.54902 0.54902 0
-0.0459579 0.0987897 0.00865228 0.529412 0.54902 0.54902 0
-0.0684091 0.0355761 0.013589 0.529412 0.54902 0.54902 0
-0.0612298 0.0242149 0.00693672 0.529412 0.54902 0.54902 0
0.00337557 0.0282101 0.0122705 0.898039 0.898039 0.898039 1
0.00214193 -0.0190999 0.00375904 0.898039 0.898039 0.898039 1
-0.0696021 0.0290218 0.002286 0.529412 0.54902 0.54902 0
-0.0111336 0.00241958 0.0141307 0.529412 0.54902 0.54902 0
-0.0242147 -0.00312961 0.013589 0.529412 0.54902 0.54902 0
-0.06696 0.0639877 0.0156608 0.529412 0.54902 0.54902 0
-0.00413895 -0.00272418 0.0158536 0.529412 0.54902 0.54902 0
-0.0378037 -0.00951642 1.35069e-18 0.529412 0.54902 0.54902 0
-0.0343194 -0.0105394 0.0157282 0.529412 0.54902 0.54902 0
-0.0378055 0.00762 0.00730966 0.564706 0.580392 0.580392 0
-0.061976 0.0427039 0.00536749 0.529412 0.54902 0.54902 0
-0.0690229 0.0571429 0.013589 0.529412 0.54902 0.54902 0
-0.084201 0.0222121 0.00359312 0.529412 0.54902 0.54902 0
0.00368777 0.0213758 0.0118833 0.898039 0.898039 0.898039 1
-0.0529092 0.101382 0.014632 0.529412 0.54902 0.54902 0
-0.00251095 -0.0254229 0.0117608 0.898039 0.898039 0.898039 1
0.003249 -0.0309961 0.0138772 0.898039 0.898039 0.898039 1
-0.0329867 -0.0120257 0.0124108 0.529412 0.54902 0.54902 0
-0.00413895 0.0384032 0.0107619 0.898039 0.898039 0.898039 1
-0.0292577 -0.00442327 0.013589 0.529412 0.54902 0.54902 0
-0.0780496 0.00326655 0.000590911 0.529412 0.54902 0.54902 0
-0.0613921 0.082512 0.012099 0.529412 0.54902 0.54902 0
0.0018815 -0.00935531 0.000253398 0.529412 0.54902 0.54902 0
0.00561217 0.1043 0.0138074 0.529412 0.54902 0.54902 0
-0.0464772 -0.0141387 0.0117771 0.529412 0.54902 0.54902 0
-0.084201 0.0486856 0.00729647 0.529412 0.54902 0.54902 0
-0.016993 0.101459 0.015875 0.529412 0.54902 0.54902 0
-0.0468237 -0.00498609 0.013589 0.529412 0.54902 0.54902 0
0.00636416 0.000856058 0.00317953 0.529412 0.54902 0.54902 0
-0.00631338 -0.0372378 0.00451319 0.898039 0.898039 0.898039 1
-0.0633764 0.091013 0.0155726 0.529412 0.54902 0.54902 0
-0.084201 0.064148 0.00546782 0.529412 0.54902 0.54902 0
-0.0452989 0.105763 0.002286 0.529412 0.54902 0.54902 0
-0.0791038 0.0349404 0.0013394 0.529412 0.54902 0.54902 0
0.00462545 0.0293288 0.00847485 0.898039 0.898039 0.898039 1
-0.0397255 -0.0107251 7.78468e-06 0.529412 0.54902 0.54902 0
-0.084201 0.0693756 0.00688252 0.529412 0.54902 0.54902 0
-0.0447579 -0.0139869 0.0126573 0.529412 0.54902 0.54902 0
-0.0684091 0.0915222 0.002286 0.529412 0.54902 0.54902 0
0.00610626 0.00762 0.00948895 0.564706 0.580392 0.580392 0
0.00201451 0.0318526 0.00346152 0.898039 0.898039 0.898039 1
-0.0548443 -0.0119899 0.0156771 0.529412 0.54902 0.54902 0
0.00423916 -0.00395276 0.0147753 0.529412 0.54902 0.54902 0
-0.0013903 -0.0142353 0.00353966 0.898039 0.898039 0.898039 1
-0.061976 0.051469 0.00640258 0.529412 0.54902 0.54902 0
-0.084201 0.0559539 0.01041 0.529412 0.54902 0.54902 0
0.00548435 -0.0220696 0.00761057 0.898039 0.898039 0.898039 1
-0.0611103 0.0237817 0.0128197 0.529412 0.54902 0.54902 0
-0.0668113 0.0296611 0.0157941 0.529412 0.54902 0.54902 0
-7.19692e-05 0.105845 0.00012789 0.529412 0.54902 0.54902 0
-0.0626159 0.0109648 0.013589 0.529412 0.54902 0.54902 0
-0.00470663 0.0480219 0.00568786 0.898039 0.898039 0.898039 1
-0.075044 0.070375 0.002286 0.529412 0.54902 0.54902 0
-0.0614547 0.0822296 0.0074502 0.529412 0.54902 0.54902 0
-0.0670714 -0.00670948 0.0157722 0.529412 0.54902 0.54902 0
-0.0418001 0.00203009 0.0136773 0.529412 0.54902 0.54902 0
-0.0480733 0.0980411 0.0102037 0.529412 0.54902 0.54902 0
-0.00125553 -0.0286837 0.00272329 0.898039 0.898039 0.898039 1
-0.0202964 0.111797 0.015875 0.529412 0.54902 0.54902 0
-0.0324247 0.000358588 0.013589 0.529412 0.54902 0.54902 0
-0.0826567 0.0900982 0.0123311 0.529412 0.54902 0.54902 0
-0.061976 0.0497104 0.00717755 0.529412 0.54902 0.54902 0
-0.00309926 0.109825 0.0131656 0.529412 0.54902 0.54902 0
-0.0678868 0.0608456 0.0136068 0.529412 0.54902 0.54902 0
0.00793381 0.103812 0.00262994 0.529412 0.54902 0.54902 0
-0.0293801 -0.032579 0.0394328 0.647059 0.517647 0 2
-0.0576819 -0.0125688 0.0146691 0.529412 0.54902 0.54902 0
-0.0840659 0.0349901 0.0141361 0.529412 0.54902 0.54902 0
-0.0676712 -0.00856541 0.0122847 0.529412 0.54902 0.54902 0
-0.00470663 0.101511 0.0165606 0.529412 0.54902 0.54902 0
-0.0440277 0.117499 0.00967494 0.529412 0.54902 0.54902 0
-0.0708938 0.0644803 0.002286 0.529412 0.54902 0.54902 0
-0.0721903 0.00453779 0.002286 0.529412 0.54902 0.54902 0
-0.00209696 0.0402198 0.0121363 0.898039 0.898039 0.898039 1
-0.0826934 0.0114175 0.00727243 0.529412 0.54902 0.54902 0
-0.0368417 0.111649 0.000705697 0.529412 0.54902 0.54902 0
-0.000591731 -0.0239915 0.00270651 0.898039 0.898039 0.898039 1
-0.0222885 -0.00961823 0.00102319 0.529412 0.54902 0.54902 0
-0.00138735 0.0678732 0.00233195 0.898039 0.898039 0.898039 1
-0.0772166 0.000391999 0.0134315 0.529412 0.54902 0.54902 0
-0.00791512 0.074295 0.00716564 0.898039 0.898039 0.898039 1
-0.0317273 0.00762 0.0106138 0.564706 0.580392 0.580392 0
-0.0622705 -0.00975974 0.0156349 0.529412 0.54902 0.54902 0
0.00791798 0.102798 0.00250269 0.529412 0.54902 0.54902 0
-0.0704971 0.0382432 0.002286 0.529412 0.54902 0.54902 0
0.00328905 0.0667525 0.00353528 0.898039 0.898039 0.898039 1
0.00332714 0.099695 0.00320236 0.529412 0.54902 0.54902 0
-0.051246 -0.00823311 0.00220299 0.529412 0.54902 0.54902 0
-0.0332811 -0.0120776 0.0127218 0.529412 0.54902 0.54902 0
-0.0330898 0.10255 0.015875 0.529412 0.54902 0.54902 0
-0.0625497 0.0847501 0.015875 0.529412 0.54902 0.54902 0
-0.0207742 0.112693 9.63163e-05 0.529412 0.54902 0.54902 0
0.00522802 0.0542549 0.00624961 0.898039 0.898039 0.898039 1
-0.0239066 -0.0335606 0.0296602 0.647059 0.517647 0 4
-0.061976 0.0731472 0.00192719 0.529412 0.54902 0.54902 0
-0.0396224 0.00518877 0 0.529412 0.54902 0.54902 0
-0.037189 0.101428 0 0.529412 0.54902 0.54902 0
-0.0137531 0.10879 0.000424965 0.529412 0.54902 0.54902 0
-0.0378808 0.0999039 0.000485583 0.529412 0.54902 0.54902 0
-0.0645607 0.0185506 0.015484 0.529412 0.54902 0.54902 0
-0.0829162 0.0720214 0.000333377 0.529412 0.54902 0.54902 0
-0.0235099 0.111797 0.015875 0.529412 0.54902 0.54902 0
-0.0665407 0.0549148 0 0.529412 0.54902 0.54902 0
-0.0237023 0.11496 0.0131063 0.529412 0.54902 0.54902 0
-0.0347275 0.116404 0.0132727 0.529412 0.54902 0.54902 0
-0.0651181 0.0311259 0.015875 0.529412 0.54902 0.54902 0
-0.084201 0.034539 0.00265541 0.529412 0.54902 0.54902 0
-0.0719328 0.0790155 0.013589 0.529412 0.54902 0.54902 0
-0.00239737 0.064497 0.00372075 0.898039 0.898039 0.898039 1
-0.0779469 0.0762324 0.013589 0.529412 0.54902 0.54902 0
-0.00895921 0.00614454 0.015875 0.529412 0.54902 0.54902 0
-0.00305236 0.099695 0.000866907 0.529412 0.54902 0.54902 0
-0.0840835 0.0822296 0.00518008 0.529412 0.54902 0.54902 0
-0.0486366 0.00950723 0.00881488 0.529412 0.54902 0.54902 0
-0.0202065 -0.00670948 0.015875 0.529412 0.54902 0.54902 0
-0.0611833 0.0832687 0.0117028 0.529412 0.54902 0.54902 0
0.00750031 0.00653679 0.00525542 0.529412 0.54902 0.54902 0
-0.00149312 0.038146 0.0124886 0.898039 0.898039 0.898039 1
-0.032054 0.10829 0.013589 0.529412 0.54902 0.54902 0
-0.0796751 0.0124579 0 0.529412 0.54902 0.54902 0
-0.00425941 -0.00976752 0.00584345 0.898039 0.898039 0.898039 1
-0.00413895 -0.040005 0.00503751 0.898039 0.898039 0.898039 1
-0.0476877 -0.0141756 0.0122945 0.529412 0.54902 0.54902 0
-0.0483486 0.10796 0.002286 0.529412 0.54902 0.54902 0
-0.0250267 0.115134 0.00594219 0.529412 0.54902 0.54902 0
0.00215291 -0.0389091 0.00111033 0.898039 0.898039 0.898039 1
-0.0138755 -0.00865583 0.0102944 0.529412 0.54902 0.54902 0
-0.084201 0.0389097 0.00718034 0.529412 0.54902 0.54902 0
-0.0655075 0.106331 0.000574574 0.529412 0.54902 0.54902 0
0.00591203 -0.0029283 0.00262994 0.529412 0.54902 0.54902 0
-0.061976 0.0500946 0.0144567 0.529412 0.54902 0.54902 0
-0.0732294 0.0800552 0.013589 0.529412 0.54902 0.54902 0
-0.0841741 0.0801009 0.00769324 0.529412 0.54902 0.54902 0
-0.0728692 0.0639828 0.013589 0.529412 0.54902 0.54902 0
0.00795811 0.000263763 0.00869363 0.529412 0.54902 0.54902 0
-0.019144 -0.00958481 0.00848558 0.529412 0.54902 0.54902 0
-0.0688031 0.0486169 0.013589 0.529412 0.54902 0.54902 0
0.0038517 0.0742835 0.0158574 0.898039 0.898039 0.898039 1
-0.0178963 0.101676 0.015875 0.529412 0.54902 0.54902 0
-0.000925443 0.0254256 0.0129744 0.898039 0.898039 0.898039 1
-0.00482516 -0.0389499 0.00263591 0.898039 0.898039 0.898039 1
-0.0680785 0.110584 0.00423669 0.529412 0.54902 0.54902 0
-0.020274 -0.00978407 0.00346606 0.529412 0.54902 0.54902 0
-0.0688577 0.0977295 0.013589 0.529412 0.54902 0.54902 0
-0.0773773 0.059733 0.002286 0.529412 0.54902 0.54902 0
-0.0809576 0.0472876 0.015875 0.529412 0.54902 0.54902 0
-0.0813977 0.0077513 0.00423669 0.529412 0.54902 0.54902 0
-0.0467103 0.0985736 0.0149163 0.529412 0.54902 0.54902 0
-0.0398486 0.111062 0.00225307 0.529412 0.54902 0.54902 0
-0.0702356 0.0436676 0.013589 0.529412 0.54902 0.54902 0
-0.0277309 -0.00844498 -1.08055e-17 0.529412 0.54902 0.54902 0
-0.0736949 -0.00269903 0.015076 0.529412 0.54902 0.54902 0
-0.0497084 0.00466591 0.0157765 0.529412 0.54902 0.54902 0
-0.0377346 -0.0124806 0.0146565 0.529412 0.54902 0.54902 0
-0.0770105 0.0398864 0.002286 0.529412 0.54902 0.54902 0
-0.0643131 0.0929092 0.013589 0.529412 0.54902 0.54902 0
-0.0219044 0.00762 0.013627 0.564706 0.580392 0.580392 0
-0.0651022 0.0445606 0.015875 0.529412 0.54902 0.54902 0
0.0052909 -0.0109569 0.00711354 0.898039 0.898039 0.898039 1
-0.0665854 0.0125716 0.013589 0.529412 0.54902 0.54902 0
-0.0818308 0.0366729 1.48551e-05 0.529412 0.54902 0.54902 0
-0.00354028 0.0347225 0.0121703 0.898039 0.898039 0.898039 1
-0.084201 0.0376073 0.00701328 0.529412 0.54902 0.54902 0
0.00434011 0.105152 0.0049843 0.529412 0.54902 0.54902 0
-0.0832322 0.0822296 0.0152241 0.529412 0.54902 0.54902 0
-9.12975e-05 0.0424017 0.00336934 0.898039 0.898039 0.898039 1
-0.0193255 -0.0368284 0.0246244 0.647059 0.517647 0 4
-0.0144879 0.11374 0.0134786 0.529412 0.54902 0.54902 0
-0.0107235 0.113034 0.00202804 0.529412 0.54902 0.54902 0
-0.053502 0.116823 0.00425232 0.529412 0.54902 0.54902 0
-0.024137 -0.00390193 0.013589 0.529412 0.54902 0.54902 0
-0.0680612 0.0117785 0.002286 0.529412 0.54902 0.54902 0
-0.00685386 -0.0370233 0.00574694 0.898039 0.898039 0.898039 1
-0.0485387 0.0015908 0.013589 0.529412 0.54902 0.54902 0
-0.084201 0.0596034 0.00546782 0.529412 0.54902 0.54902 0
-0.0656916 -0.00431618 0.000225272 0.529412 0.54902 0.54902 0
-0.0172505 0.114115 0.00691366 0.529412 0.54902 0.54902 0
-0.00211263 0.109205 0.0108317 0.529412 0.54902 0.54902 0
-0.0763635 0.00351022 0.0158686 0.529412 0.54902 0.54902 0
-0.010678 0.102436 0 0.529412 0.54902 0.54902 0
-0.038136 0.116851 0.00479242 0.529412 0.54902 0.54902 0
0.00777208 0.00112185 0.00614398 0.529412 0.54902 0.54902 0
-0.0696001 0.0370456 0.013589 0.529412 0.54902 0.54902 0
-0.0304147 0.00762 0.00267207 0.615686 0.627451 0.627451 0
-0.053517 0.0123995 0.00700961 0.529412 0.54902 0.54902 0
-0.0359794 0.099695 0.0101107 0.529412 0.54902 0.54902 0
-0.0656628 0.0783657 0 0.529412 0.54902 0.54902 0
-0.0710573 0.0696605 0.013589 0.529412 0.54902 0.54902 0
-0.0257556 0.00762 0.00897297 0.564706 0.580392 0.580392 0
-0.080224 0.0200512 0 0.529412 0.54902 0.54902 0
-0.084201 0.0350661 0.0126823 0.529412 0.54902 0.54902 0
-0.0201208 0.00459094 0 0.529412 0.54902 0.54902 0
-0.0207742 0.105763 0.00227246 0.529412 0.54902 0.54902 0
-0.0780045 0.0275956 0.00228368 0.529412 0.54902 0.54902 0
0.00437037 0.0243865 0.00584345 0.898039 0.898039 0.898039 1
-0.0812952 0.0077513 0.00195431 0.529412 0.54902 0.54902 0
-0.0482765 0.00935805 0.0120805 0.529412 0.54902 0.54902 0
-0.0605714 0.00635738 0.013589 0.529412 0.54902 0.54902 0
-0.00631338 -0.0329651 0.0143497 0.647059 0.517647 0 4
-0.0647058 0.0324563 0 0.529412 0.54902 0.54902 0
-0.0667399 0.0822572 0.0141159 0.529412 0.54902 0.54902 0
-0.0224409 0.114795 0.00649928 0.529412 0.54902 0.54902 0
-0.0593051 0.115205 0.00507437 0.529412 0.54902 0.54902 0
-0.0371243 0.100837 8.35452e-08 0.529412 0.54902 0.54902 0
-0.0149232 0.10067 0.0158607 0.529412 0.54902 0.54902 0
-0.0388707 -0.0109195 0.0158375 0.529412 0.54902 0.54902 0
-0.00496444 0.0655944 0.0104725 0.898039 0.898039 0.898039 1
-0.0353526 0.115927 0.0149163 0.529412 0.54902 0.54902 0
0.000143884 0.0613625 0.0129524 0.898039 0.898039 0.898039 1
-0.0798721 0.0970962 0.00887626 0.529412 0.54902 0.54902 0
-0.0407667 0.00767704 0.0144126 0.529412 0.54902 0.54902 0
-0.0334192 0.116233 0.00665679 0.529412 0.54902 0.54902 0
-0.0217898 0.113959 0.000744159 0.529412 0.54902 0.54902 0
-0.0582854 0.0950837 0.015875 0.529412 0.54902 0.54902 0
-0.075692 0.099872 0.0158439 0.529412 0.54902 0.54902 0
-0.0577295 0.115737 0.00262994 0.529412 0.54902 0.54902 0
-0.0309731 0.106232 0.002286 0.529412 0.54902 0.54902 0
-0.0624788 -0.00982515 0.0155695 0.529412 0.54902 0.54902 0
-0.084201 0.0527404 0.00423669 0.529412 0.54902 0.54902 0
0.0044252 0.070161 0.0021348 0.898039 0.898039 0.898039 1
-0.061976 0.0420608 0.00991207 0.529412 0.54902 0.54902 0
-0.0717636 0.0195662 0.002286 0.529412 0.54902 0.54902 0
-0.084201 0.025017 0.00733489 0.529412 0.54902 0.54902 0
0.00623347 -0.0320922 0.00437357 0.898039 0.898039 0.898039 1
0.00758706 -0.00637457 0.0105035 0.529412 0.54902 0.54902 0
-0.0834408 0.0864822 0.0139632 0.529412 0.54902 0.54902 0
0.00793985 -0.000604488 0.00888415 0.529412 0.54902 0.54902 0
-0.0306388 -0.0116117 0.00696616 0.529412 0.54902 0.54902 0
-0.0313025 0.115664 0.014508 0.529412 0.54902 0.54902 0
-0.00413895 -0.0398807 0.00288947 0.898039 0.898039 0.898039 1
0.00389482 0.0334594 0.0102218 0.898039 0.898039 0.898039 1
-0.0451638 0.102374 0.015875 0.529412 0.54902 0.54902 0
-0.0702814 0.063121 0.002286 0.529412 0.54902 0.54902 0
-0.084201 0.0470366 0.00426217 0.529412 0.54902 0.54902 0
-0.0777107 0.0516993 0.002286 0.529412 0.54902 0.54902 0
-0.0535267 0.10255 0.013589 0.529412 0.54902 0.54902 0
-0.079983 0.0712971 3.9487e-05 0.529412 0.54902 0.54902 0
-0.0634324 0.0324203 0.015875 0.529412 0.54902 0.54902 0
-0.0452404 -0.00614181 0.013589 0.529412 0.54902 0.54902 0
0.00253487 0.00645105 0.000420139 0.529412 0.54902 0.54902 0
0.000142 -0.00632631 0.0159933 0.529412 0.54902 0.54902 0
-0.0519053 -0.000869509 0.002286 0.529412 0.54902 0.54902 0
-0.0378484 -0.00614181 0.013589 0.529412 0.54902 0.54902 0
-0.0285074 0.0074628 0.0153103 0.529412 0.54902 0.54902 0
-0.059312 0.0879857 0.012576 0.529412 0.54902 0.54902 0
-0.0196253 0.100943 0 0.529412 0.54902 0.54902 0
0.00389482 -0.0195635 0.0115165 0.898039 0.898039 0.898039 1
-0.0405766 0.107428 0.002286 0.529412 0.54902 0.54902 0
0.00172039 0.099695 0.000930066 0.529412 0.54902 0.54902 0
-0.07264 0.0376141 0.013589 0.529412 0.54902 0.54902 0
-0.0721903 0.0752349 0.002286 0.529412 0.54902 0.54902 0
0.00253256 -0.0348336 0.0147535 0.898039 0.898039 0.898039 1
-0.0426806 0.115188 2.78914e-05 0.529412 0.54902 0.54902 0
0.00227804 0.0452743 0.00323007 0.898039 0.898039 0.898039 1
-0.0502342 0.00801281 0.015875 0.529412 0.54902 0.54902 0
-0.0706828 0.0298911 0.013589 0.529412 0.54902 0.54902 0
-0.061976 0.0645553 0.00385991 0.529412 0.54902 0.54902 0
-0.0725079 0.00831897 0.013589 0.529412 0.54902 0.54902 0
-0.0288079 0.0037193 1.08055e-17 0.529412 0.54902 0.54902 0
0.00255432 0.0402198 0.0118723 0.898039 0.898039 0.898039 1
0.00510017 0.0176271 0.00769956 0.898039 0.898039 0.898039 1
-0.0110487 0.00762 0.00211336 0.564706 0.580392 0.580392 0
-0.0642408 0.102884 0.002286 0.529412 0.54902 0.54902 0
-0.0770105 0.0814168 0.002286 0.529412 0.54902 0.54902 0
-0.0638702 0.0735146 0 0.529412 0.54902 0.54902 0
-0.00326562 0.109929 0.00961235 0.529412 0.54902 0.54902 0
0.00168044 -0.0362492 0.000974605 0.898039 0.898039 0.898039 1
-0.00237887 0.099695 0.000472383 0.529412 0.54902 0.54902 0
0.00389482 0.0170262 0.0116883 0.898039 0.898039 0.898039 1
-0.0694913 0.0179595 0.002286 0.529412 0.54902 0.54902 0
-0.0742051 0.0918702 0.013589 0.529412 0.54902 0.54902 0
-0.0834375 0.0179595 0.0149118 0.529412 0.54902 0.54902 0
-0.0838849 0.0724378 0.0145535 0.529412 0.54902 0.54902 0
0.00750031 -0.00936926 0.00522542 0.529412 0.54902 0.54902 0
0.00158814 0.0432849 0.00278307 0.898039 0.898039 0.898039 1
-0.00144532 -0.00774856 0.000136548 0.529412 0.54902 0.54902 0
-0.0538038 0.101094 0.0018036 0.529412 0.54902 0.54902 0
-0.084201 0.0259933 0.00279031 0.529412 0.54902 0.54902 0
-0.0241008 0.099695 0.00323497 0.529412 0.54902 0.54902 0
-0.0818308 0.0344426 0.0158609 0.529412 0.54902 0.54902 0
-0.00428045 0.0206053 0.00978855 0.898039 0.898039 0.898039 1
0.00422454 0.0447273 0.0102161 0.898039 0.898039 0.898039 1
-0.084201 0.0306625 0.00813771 0.529412 0.54902 0.54902 0
-0.00518774 0.074295 0.00396599 0.898039 0.898039 0.898039 1
-0.067056 0.0643842 0.00102319 0.529412 0.54902 0.54902 0
-0.000113595 0.099695 0.00366902 0.529412 0.54902 0.54902 0
-0.00735246 0.00375034 0.015875 0.529412 0.54902 0.54902 0
-0.0718744 0.0715299 0.002286 0.529412 0.54902 0.54902 0
-0.0408878 0.101877 0.015875 0.529412 0.54902 0.54902 0
-0.00371054 0.0254256 0.00455334 0.898039 0.898039 0.898039 1
0.00272058 0.0343164 0.0124539 0.898039 0.898039 0.898039 1
0.000859681 0.0493068 0.00310704 0.898039 0.898039 0.898039 1
-0.0793532 0.0306711 0.0154189 0.529412 0.54902 0.54902 0
-0.045242 -0.0106862 0.015875 0.529412 0.54902 0.54902 0
-0.0760798 0.0239211 0.002286 0.529412 0.54902 0.54902 0
-0.0721903 0.0718744 0.002286 0.529412 0.54902 0.54902 0
-0.0451616 0.000162341 0.002286 0.529412 0.54902 0.54902 0
-0.0354623 -0.0124622 0.00608318 0.529412 0.54902 0.54902 0
-0.0426806 0.102362 0 0.529412 0.54902 0.54902 0
-0.00933091 0.107954 0.0147288 0.529412 0.54902 0.54902 0
-0.00262721 0.074295 2.47623e-05 0.898039 0.898039 0.898039 1
-0.0041848 0.063965 0.00635138 0.898039 0.898039 0.898039 1
-0.0296592 -0.0114389 0.00502472 0.529412 0.54902 0.54902 0
-0.0458259 -0.0121928 0.0157799 0.529412 0.54902 0.54902 0
0.00202477 -0.009398 0.0153896 0.564706 0.580392 0.580392 0
-0.0668023 0.0185954 0.002286 0.529412 0.54902 0.54902 0
-0.0239785 0.00540064 0 0.529412 0.54902 0.54902 0
0.00374879 -0.0145903 0.0106637 0.898039 0.898039 0.898039 1
0.00248016 0.0264775 0.0037065 0.898039 0.898039 0.898039 1
-0.0130281 0.00653679 5.23094e-06 0.529412 0.54902 0.54902 0
-0.0283189 0.111464 0.0158637 0.529412 0.54902 0.54902 0
0.0102112 -0.0361982 -0.00540383 0.647059 0.517647 0 4
-0.0801593 0.00510547 0.0117028 0.529412 0.54902 0.54902 0
-0.0748202 0.0314349 0.013589 0.529412 0.54902 0.54902 0
-0.00466397 0.109155 0.000291432 0.529412 0.54902 0.54902 0
-0.0773312 0.000523766 0.0069373 0.529412 0.54902 0.54902 0
-0.054516 0.010962 0 0.529412 0.54902 0.54902 0
-0.07113 0.0356068 0.013589 0.529412 0.54902 0.54902 0
-0.0812631 0.0565216 0 0.529412 0.54902 0.54902 0
0.00654065 -0.00510273 0.00343547 0.529412 0.54902 0.54902 0
-0.0788928 0.00510547 0.00045551 0.529412 0.54902 0.54902 0
-0.00251404 -0.0395615 0.0144226 0.898039 0.898039 0.898039 1
-0.0788468 0.0747056 0.00188449 0.529412 0.54902 0.54902 0
-0.0474361 -0.00896785 0.0142865 0.529412 0.54902 0.54902 0
-0.055329 0.0933083 0.00277219 0.529412 0.54902 0.54902 0
-0.0151892 0.113845 0.0104502 0.529412 0.54902 0.54902 0
-0.0839628 0.051871 0.01439 0.529412 0.54902 0.54902 0
-0.0355145 0.116507 0.0077079 0.529412 0.54902 0.54902 0
-0.075105 0.070161 0.002286 0.529412 0.54902 0.54902 0
-0.00187879 0.0709824 0.0156733 0.898039 0.898039 0.898039 1
-0.0802055 0.0864822 0.015875 0.529412 0.54902 0.54902 0
-0.0758535 0.0708957 0.013589 0.529412 0.54902 0.54902 0
0.000894404 -0.0133318 0.0134295 0.898039 0.898039 0.898039 1
-0.00426779 0.00950075 0.00932178 0.898039 0.898039 0.898039 1
-0.0475213 0.114018 0 0.529412 0.54902 0.54902 0
-0.00260715 -0.0254229 0.0117028 0.898039 0.898039 0.898039 1
-0.0199576 0.00595708 0 0.529412 0.54902 0.54902 0
-0.0148261 0.113673 0.0140918 0.529412 0.54902 0.54902 0
-0.00415729 0.0463664 0.00586461 0.898039 0.898039 0.898039 1
-0.0608406 0.084479 0.0013239 0.529412 0.54902 0.54902 0
-0.0339247 0.11361 0 0.529412 0.54902 0.54902 0
-0.066574 0.0768417 0.0158727 0.529412 0.54902 0.54902 0
-0.0499453 -0.0140784 0.00206226 0.529412 0.54902 0.54902 0
-0.00419944 0.00764694 0.0102175 0.898039 0.898039 0.898039 1
-0.0469376 -0.00774856 0.013589 0.529412 0.54902 0.54902 0
-0.0743295 0.0493066 0.013589 0.529412 0.54902 0.54902 0
0.00416215 -0.0350634 0.00045551 0.647059 0.517647 0 4
0.000159665 0.0461932 0.00314619 0.898039 0.898039 0.898039 1
-0.0700158 0.040454 0.002286 0.529412 0.54902 0.54902 0
-0.0587686 0.0969777 0.0155747 0.529412 0.54902 0.54902 0
-0.0665116 0.0810672 0.0158161 0.529412 0.54902 0.54902 0
-0.075105 0.0747056 0.002286 0.529412 0.54902 0.54902 0
-0.0443977 0.113736 0.015875 0.529412 0.54902 0.54902 0
-0.0250532 0.115137 0.00740313 0.529412 0.54902 0.54902 0
0.00424156 0.0143133 0.00562358 0.898039 0.898039 0.898039 1
-0.0668023 0.0645553 0 0.529412 0.54902 0.54902 0
-0.015087 0.00762 0.00291617 0.564706 0.580392 0.580392 0
-0.0836961 0.0853323 0.00215052 0.529412 0.54902 0.54902 0
0.00261397 0.0265018 0.00381397 0.898039 0.898039 0.898039 1
-0.0245832 0.115075 0.00423669 0.529412 0.54902 0.54902 0
-0.061976 0.0576634 0.00235729 0.529412 0.54902 0.54902 0
-0.083312 0.0137749 0.00428241 0.529412 0.54902 0.54902 0
-0.0722009 -0.00510273 0.0118125 0.529412 0.54902 0.54902 0
-0.000759578 0.0710651 0.0159262 0.898039 0.898039 0.898039 1
-0.0758269 0.00831897 0.00180479 0.529412 0.54902 0.54902 0
0.00724344 -0.00377547 0.0046544 0.529412 0.54902 0.54902 0
-0.0338024 0.104775 0.0146252 0.529412 0.54902 0.54902 0
-0.0577295 -0.0126541 0.00137912 0.529412 0.54902 0.54902 0
0.00416197 -0.00655958 0.0148235 0.529412 0.54902 0.54902 0
-0.0448755 -0.00538358 0.002286 0.529412 0.54902 0.54902 0
-0.0619821 0.0292068 0.000852871 0.529412 0.54902 0.54902 0
-0.0824075 0.0618757 0.000120423 0.529412 0.54902 0.54902 0
-0.0114012 0.110891 0.0158544 0.529412 0.54902 0.54902 0
-0.0548827 0.0136079 0.00147286 0.529412 0.54902 0.54902 0
-0.0159539 0.109086 0.000415233 0.529412 0.54902 0.54902 0
-0.0726793 0.0574378 0.002286 0.529412 0.54902 0.54902 0
-0.0770105 0.0109648 0.00173459 0.529412 0.54902 0.54902 0
-0.0741095 0.00482556 0.0145274 0.529412 0.54902 0.54902 0
0.00750031 0.099695 0.0101129 0.529412 0.54902 0.54902 0
-0.0588121 0.00490317 0.013589 0.529412 0.54902 0.54902 0
-0.06737 0.103117 0.013589 0.529412 0.54902 0.54902 0
-0.0153862 -0.00417308 0.000272686 0.529412 0.54902 0.54902 0
-0.0694243 0.0999019 0.002286 0.529412 0.54902 0.54902 0
-0.0641565 -0.00614164 0.015875 0.529412 0.54902 0.54902 0
-0.0021668 0.0157851 0.0122195 0.898039 0.898039 0.898039 1
-0.049128 0.101459 0.015875 0.529412 0.54902 0.54902 0
0.000683431 -0.000337938 5.81662e-05 0.529412 0.54902 0.54902 0
-0.00211263 0.0551144 0.00386552 0.898039 0.898039 0.898039 1
-0.0739911 0.00132428 0.015875 0.529412 0.54902 0.54902 0
-0.0657737 0.0160015 0.002286 0.529412 0.54902 0.54902 0
-0.0791177 0.0602773 0.0146905 0.529412 0.54902 0.54902 0
-0.0625497 -0.00764217 0 0.529412 0.54902 0.54902 0
-0.0689768 0.0696021 0.002286 0.529412 0.54902 0.54902 0
-0.00543228 0.0476988 0.00884566 0.898039 0.898039 0.898039 1
0.0053849 0.074295 0.00213766 0.898039 0.898039 0.898039 1
-0.00658836 0.109399 0.0158318 0.529412 0.54902 0.54902 0
-0.051246 0.106329 0.002286 0.529412 0.54902 0.54902 0
-0.0568139 -0.00412753 0.002286 0.529412 0.54902 0.54902 0
-0.0617487 0.02671 0.00262994 0.529412 0.54902 0.54902 0
-0.0400228 0.105204 0.0137713 0.529412 0.54902 0.54902 0
0.00904317 0.10411 0.0103441 0.529412 0.54902 0.54902 0
-0.0349385 0.00762 0.0101905 0.564706 0.580392 0.580392 0
-0.000583478 0.00132428 0.0159668 0.529412 0.54902 0.54902 0
-0.0255944 0.00704026 0.0157261 0.529412 0.54902 0.54902 0
-0.0399111 -0.0086513 0.000164857 0.529412 0.54902 0.54902 0
-0.000241742 -0.040005 0.00636092 0.898039 0.898039 0.898039 1
-0.061976 0.0633441 0.0083129 0.529412 0.54902 0.54902 0
0.0049339 0.104779 0.00893978 0.529412 0.54902 0.54902 0
-0.0209868 -0.0330683 0.0300075 0.647059 0.517647 0 4
-0.0561227 0.110918 0.014702 0.529412 0.54902 0.54902 0
-0.084201 0.0266237 0.00960718 0.529412 0.54902 0.54902 0
-0.0803094 0.0523605 1.08055e-17 0.529412 0.54902 0.54902 0
-0.0516606 0.0106375 0.0155816 0.529412 0.54902 0.54902 0
-0.0781761 0.0245683 0.0136063 0.529412 0.54902 0.54902 0
-0.0137795 0.00762 0.00211336 0.564706 0.580392 0.580392 0
-0.00299217 0.00819256 0.0123338 0.898039 0.898039 0.898039 1
0.00328905 -0.00596082 0.00073717 0.529412 0.54902 0.54902 0
-0.0305163 0.115853 0.00257715 0.529412 0.54902 0.54902 0
0.000380526 0.0480634 0.013189 0.898039 0.898039 0.898039 1
-0.0709989 -0.00614181 0.00299085 0.529412 0.54902 0.54902 0
-0.084201 0.0421232 0.00396683 0.529412 0.54902 0.54902 0
-0.0284512 -0.0335606 0.0342048 0.647059 0.517647 0 4
-0.0501098 -0.0116416 5.4209e-06 0.529412 0.54902 0.54902 0
-0.0464822 0.11747 0.0138772 0.529412 0.54902 0.54902 0
0.00710479 -0.0390801 0.00676518 0.898039 0.898039 0.898039 1
0.00139967 0.106999 0.00739126 0.529412 0.54902 0.54902 0
-0.0388707 -0.00337933 0.013589 0.529412 0.54902 0.54902 0
-0.0727663 0.07113 0.013589 0.529412 0.54902 0.54902 0
-0.0812961 0.0109648 0.015484 0.529412 0.54902 0.54902 0
-0.0410943 -0.00305283 0.013589 0.529412 0.54902 0.54902 0
-0.084201 0.0286391 0.00262994 0.529412 0.54902 0.54902 0
0.0139441 -0.0359449 -0.00977239 0.647059 0.517647 0 4
0.00447631 -0.0372378 0.00137873 0.647059 0.517647 0 4
-0.00149312 0.0170277 0.0131563 0.898039 0.898039 0.898039 1
-0.0594999 0.088089 0.00045551 0.529412 0.54902 0.54902 0
-0.0613924 0.0137078 0 0.529412 0.54902 0.54902 0
-0.0742468 0.0796516 0.013589 0.529412 0.54902 0.54902 0
-0.0601773 0.021173 0.00716623 0.529412 0.54902 0.54902 0
-0.0828699 0.021173 0.000320367 0.529412 0.54902 0.54902 0
-0.0720166 0.0837947 0.002286 0.529412 0.54902 0.54902 0
0.00249189 0.0217648 0.0127272 0.898039 0.898039 0.898039 1
-0.0339107 0.00312835 0 0.529412 0.54902 0.54902 0
-0.0047302 0.0207993 0.00711238 0.898039 0.898039 0.898039 1
-0.079307 0.0637458 0.000522577 0.529412 0.54902 0.54902 0
-0.0583991 0.00992573 0.0153862 0.529412 0.54902 0.54902 0
-0.0718086 0.107554 0.00977986 0.529412 0.54902 0.54902 0
-0.0448755 -0.00188922 0.002286 0.529412 0.54902 0.54902 0
-0.0352349 0.00453779 0 0.529412 0.54902 0.54902 0
-0.0786173 0.0177927 0.00183264 0.529412 0.54902 0.54902 0
-0.0831804 0.0131633 0.0126425 0.529412 0.54902 0.54902 0
-0.00219388 0.00253031 0.0156945 0.529412 0.54902 0.54902 0
0.00179292 0.0615137 0.00355754 0.898039 0.898039 0.898039 1
-0.0563224 0.115885 0.00144918 0.529412 0.54902 0.54902 0
-0.0661137 0.0276398 0.015875 0.529412 0.54902 0.54902 0
-0.0785699 0.0212294 0.0137688 0.529412 0.54902 0.54902 0
-0.0395634 0.0028031 0 0.529412 0.54902 0.54902 0
-0.0651698 -0.00774856 0.0158075 0.529412 0.54902 0.54902 0
0.000113634 0.099695 0.0114751 0.529412 0.54902 0.54902 0
0.00792436 -0.00614181 0.00894521 0.529412 0.54902 0.54902 0
-0.0716226 0.0369872 0.002286 0.529412 0.54902 0.54902 0
-0.020291 -0.00536958 7.93902e-05 0.529412 0.54902 0.54902 0
-0.032737 0.0026111 0.0156254 0.529412 0.54902 0.54902 0
-0.084201 0.0575607 0.00423669 0.529412 0.54902 0.54902 0
-0.000644188 -0.0029283 1.08055e-17 0.529412 0.54902 0.54902 0
-0.0202065 0.00041705 0.002286 0.529412 0.54902 0.54902 0
-0.0557906 0.111128 0.000658555 0.529412 0.54902 0.54902 0
0.00360048 0.105453 0.014158 0.529412 0.54902 0.54902 0
-0.0140865 -0.00869303 0.00295035 0.529412 0.54902 0.54902 0
-0.0836917 0.0259933 0.00102736 0.529412 0.54902 0.54902 0
-0.0780025 0.0109648 0.0158056 0.529412 0.54902 0.54902 0
0.00172039 -0.0190462 0.0123625 0.898039 0.898039 0.898039 1
-0.0280998 0.101428 0 0.529412 0.54902 0.54902 0
-0.0720613 0.0742051 0.013589 0.529412 0.54902 0.54902 0
0.00761968 0.103117 0.0138772 0.529412 0.54902 0.54902 0
-0.0687892 0.0336402 0.013589 0.529412 0.54902 0.54902 0
0.0070989 0.00722432 0.00497459 0.529412 0.54902 0.54902 0
-0.0764429 0.00411407 0.015875 0.529412 0.54902 0.54902 0
0.0049339 0.0298536 0.0094196 0.898039 0.898039 0.898039 1
-0.0114865 -0.0332695 0.0211497 0.647059 0.517647 0 4
-0.0407887 0.104095 0.015875 0.529412 0.54902 0.54902 0
-0.00207058 0.103991 0.0172405 0.529412 0.54902 0.54902 0
-0.0619821 0.025415 0.000224394 0.529412 0.54902 0.54902 0
0.000131446 -0.0170259 0.0128595 0.898039 0.898039 0.898039 1
-0.0687993 0.0131392 0.002286 0.529412 0.54902 0.54902 0
-0.0456876 0.00718869 0.015875 0.529412 0.54902 0.54902 0
-0.0668126 0.0264405 1.77076e-06 0.529412 0.54902 0.54902 0
-0.0405644 0.0996493 0.0146148 0.529412 0.54902 0.54902 0
-0.0651956 0.0173918 0.013589 0.529412 0.54902 0.54902 0
-0.00223843 -0.0271462 0.0122778 0.898039 0.898039 0.898039 1
-0.0410943 0.117238 0.0117028 0.529412 0.54902 0.54902 0
-0.00624709 0.0686325 0.00699734 0.898039 0.898039 0.898039 1
-0.0623763 0.0128025 0.00227823 0.529412 0.54902 0.54902 0
-0.0651107 0.0473187 0 0.529412 0.54902 0.54902 0
-0.054516 0.105763 0.002286 0.529412 0.54902 0.54902 0
-0.0764429 0.102471 0.00743387 0.529412 0.54902 0.54902 0
-0.0100527 0.112758 0.0141172 0.529412 0.54902 0.54902 0
-0.0726712 0.0696021 0.002286 0.529412 0.54902 0.54902 0
-0.084201 0.0722687 0.0050626 0.529412 0.54902 0.54902 0
-0.0619821 0.00510547 0.002286 0.529412 0.54902 0.54902 0
-0.0577295 0.00643111 0.002286 0.529412 0.54902 0.54902 0
-0.0485387 0.00012132 0.013589 0.529412 0.54902 0.54902 0
-0.067542 0.0368941 0.0137405 0.529412 0.54902 0.54902 0
-0.0752999 -0.00188922 0.0138772 0.529412 0.54902 0.54902 0
-0.0557133 0.0929092 0.00628281 0.529412 0.54902 0.54902 0
-0.0168481 0.10979 0.0158306 0.529412 0.54902 0.54902 0
0.000681311 0.0557923 0.00312622 0.898039 0.898039 0.898039 1
-0.054516 0.00296124 0.013589 0.529412 0.54902 0.54902 0
-0.0656145 0.0197691 0.0137486 0.529412 0.54902 0.54902 0
-0.00491352 0.103411 -0.000513518 0.529412 0.54902 0.54902 0
-0.061976 0.0644479 0.00419948 0.529412 0.54902 0.54902 0
-0.0837991 0.0849106 0.0119727 0.529412 0.54902 0.54902 0
-0.0764774 0.051689 0.013589 0.529412 0.54902 0.54902 0
-1.28027e-05 0.0153257 0.0027701 0.898039 0.898039 0.898039 1
-0.084201 0.0618066 0.00586892 0.529412 0.54902 0.54902 0
0.00302796 -0.040005 0.010985 0.898039 0.898039 0.898039 1
-0.0593362 0.114365 0.0151417 0.529412 0.54902 0.54902 0
-2.00651e-05 -0.0305234 0.0133095 0.898039 0.898039 0.898039 1
-0.0822553 0.0655576 7.67812e-05 0.529412 0.54902 0.54902 0
0.0049339 0.0198046 0.00663761 0.898039 0.898039 0.898039 1
-0.00316655 0.099695 0.0103459 0.529412 0.54902 0.54902 0
-0.0619011 0.028511 0.00702039 0.529412 0.54902 0.54902 0
-0.084201 0.0549897 0.00908243 0.529412 0.54902 0.54902 0
-0.0663492 0.0224325 0.00194077 0.529412 0.54902 0.54902 0
-0.0658147 0.0148082 0.002286 0.529412 0.54902 0.54902 0
-0.084201 0.0679741 0.00845854 0.529412 0.54902 0.54902 0
0.00395442 -0.0158122 0.0114155 0.898039 0.898039 0.898039 1
-0.0610266 0.0838364 0.00177227 0.529412 0.54902 0.54902 0
-0.052804 0.0113586 0.0156304 0.529412 0.54902 0.54902 0
-0.06737 0.0543472 0.00192431 0.529412 0.54902 0.54902 0
-0.0394875 0.117028 0.0133095 0.529412 0.54902 0.54902 0
-0.000529041 0.107938 0.00149256 0.529412 0.54902 0.54902 0
-0.0237585 0.113797 0.000411469 0.529412 0.54902 0.54902 0
0.00482178 -0.0316956 0.00262994 0.898039 0.898039 0.898039 1
-0.0625333 0.0928475 0.00176348 0.529412 0.54902 0.54902 0
-0.0577295 0.090536 0.00554445 0.529412 0.54902 0.54902 0
-0.0710853 -0.00132155 0 0.529412 0.54902 0.54902 0
-0.00351304 -0.000333366 0.0151693 0.529412 0.54902 0.54902 0
-0.0159968 -0.0331994 0.0254769 0.647059 0.517647 0 4
-0.0587713 0.115205 0.014181 0.529412 0.54902 0.54902 0
-0.0138436 0.099695 0.00158307 0.529412 0.54902 0.54902 0
-0.0250267 0.00132428 0.013589 0.529412 0.54902 0.54902 0
-0.0632446 -0.0109621 0.00432566 0.529412 0.54902 0.54902 0
0.007622 0.101783 0.0138744 0.529412 0.54902 0.54902 0
-0.0635888 0.088089 0.015875 0.529412 0.54902 0.54902 0
-0.067152 0.0767133 0.00159202 0.529412 0.54902 0.54902 0
-0.0736898 0.0550872 0.002286 0.529412 0.54902 0.54902 0
-0.0143471 0.099695 0.0145638 0.529412 0.54902 0.54902 0
-0.00323667 0.0613418 0.0042244 0.898039 0.898039 0.898039 1
-0.0684769 0.0238973 0.002286 0.529412 0.54902 0.54902 0
-0.067966 0.0790161 0.0135916 0.529412 0.54902 0.54902 0
-0.00105741 0.00272694 0.015917 0.529412 0.54902 0.54902 0
0.000683431 -0.0116416 0.00299395 0.898039 0.898039 0.898039 1
-0.0491514 -0.00588957 0.002286 0.529412 0.54902 0.54902 0
-0.00569421 -0.0339332 0.00356806 0.898039 0.898039 0.898039 1
-0.0774117 0.00253223 0.00049039 0.529412 0.54902 0.54902 0
-0.00438646 0.0358737 0.00952269 0.898039 0.898039 0.898039 1
-0.0278908 0.112789 2.70137e-18 0.529412 0.54902 0.54902 0
-0.0631801 0.0914062 0.00011114 0.529412 0.54902 0.54902 0
-0.0526315 0.0117408 0.00906515 0.529412 0.54902 0.54902 0
-0.00175594 -0.0257776 0.00343284 0.898039 0.898039 0.898039 1
-0.0175607 0.114155 0.0106637 0.529412 0.54902 0.54902 0
-0.061976 0.0388008 0.00956155 0.529412 0.54902 0.54902 0
-0.048152 0.00397765 0.0156477 0.529412 0.54902 0.54902 0
-0.060908 0.0842661 0.003528 0.529412 0.54902 0.54902 0
-0.061976 0.0322707 0.00745519 0.529412 0.54902 0.54902 0
-0.0742051 0.0388473 0.013589 0.529412 0.54902 0.54902 0
-0.00584576 0.11135 0.0133095 0.529412 0.54902 0.54902 0
-0.0475213 -0.0141714 0.00652926 0.529412 0.54902 0.54902 0
-0.0123747 0.1037 0 0.529412 0.54902 0.54902 0
-0.080224 0.0949364 0.0150029 0.529412 0.54902 0.54902 0
