ply
format ascii 1.0
comment Created by Open3D
element vertex 657
property float32 x
property float32 y
property float32 z
property float32 red
property float32 green
property float32 blue
property float32 volume
property uint8 segmentation
end_header
-0.00221744 -0.0229897 -0.0636231 0.3415 0.062325 0.429425 1.63728e-05 1
-0.0120797 -0.00970898 -0.058412 0.3415 0.062325 0.429425 1.16403e-05 1
-0.00392188 -0.00430495 -0.0634767 0.3415 0.062325 0.429425 7.60052e-06 1
0.00611487 -0.0114912 -0.0595686 0.3415 0.062325 0.429425 1.73495e-06 1
-0.000367392 -0.00496443 -0.057314 0.3415 0.062325 0.429425 4.69425e-06 1
-0.00626949 -0.0270147 -0.0616233 0.3415 0.062325 0.429425 1.02361e-05 1
0.013671 -0.0273862 -0.0630446 0.3415 0.062325 0.429425 4.16285e-06 1
-0.0136878 -0.0149238 -0.0568582 0.3415 0.062325 0.429425 7.828e-06 1
-0.00664206 -0.0190114 -0.0650172 0.3415 0.062325 0.429425 1.19828e-05 1
-0.00192615 -0.0278417 -0.0590507 0.3415 0.062325 0.429425 3.52996e-06 1
0.00595198 -0.00903061 -0.0594989 0.3415 0.062325 0.429425 1.42684e-05 1
0.00278683 -0.0104997 -0.0646263 0.3415 0.062325 0.429425 7.15759e-06 1
0.0165659 -0.0105797 -0.0563891 0.3415 0.062325 0.429425 6.87003e-06 1
-0.0135342 -0.000578172 -0.0584177 0.3415 0.062325 0.429425 1.04059e-05 1
0.0138046 0.0067729 -0.0335087 0.3415 0.062325 0.429425 8.07167e-07 1
0.00950461 -0.000237938 -0.0411192 0.3415 0.062325 0.429425 7.01795e-07 1
-0.00142025 0.00450008 -0.0314251 0.3415 0.062325 0.429425 1.34679e-06 1
0.0120838 0.000995645 -0.0399604 0.3415 0.062325 0.429425 7.46964e-07 1
0.0102968 0.0145214 -0.0286275 0.3415 0.062325 0.429425 1.5141e-05 1
0.012689 0.00446832 -0.0381849 0.3415 0.062325 0.429425 9.92614e-07 1
-0.00383335 0.0126681 -0.0305038 0.3415 0.062325 0.429425 1.61615e-05 1
0.00177198 0.0110364 -0.0293755 0.3415 0.062325 0.429425 1.25665e-05 1
0.00920151 0.00336303 -0.0341666 0.3415 0.062325 0.429425 7.43286e-07 1
0.0144343 0.00880156 -0.0304522 0.3415 0.062325 0.429425 2.7306e-06 1
0.0106268 0.0057878 -0.0339638 0.3415 0.062325 0.429425 3.26038e-06 1
0.0118886 0.00469759 -0.036976 0.3415 0.062325 0.429425 6.01655e-07 1
0.00723782 0.0119646 -0.0320515 0.3415 0.062325 0.429425 1.92526e-05 1
0.00660856 0.00971594 -0.047402 0.3415 0.062325 0.429425 2.90111e-05 1
0.0118946 -0.0033287 -0.0511248 0.3415 0.062325 0.429425 3.39673e-06 1
0.0114018 -0.00467659 -0.0571772 0.3415 0.062325 0.429425 7.9614e-06 1
0.0107204 0.0116812 -0.0532007 0.3415 0.062325 0.429425 4.25585e-05 1
0.00452736 0.0025262 -0.0454065 0.3415 0.062325 0.429425 9.77751e-06 1
0.00783502 0.00472421 -0.0575863 0.3415 0.062325 0.429425 1.43782e-05 1
-0.00285421 0.00239598 -0.044335 0.3415 0.062325 0.429425 1.17809e-05 1
0.00774013 -0.00274906 -0.0496138 0.3415 0.062325 0.429425 8.88274e-06 1
0.0130746 -0.000153131 -0.0604485 0.3415 0.062325 0.429425 2.55041e-05 1
0.0107282 -0.00317666 -0.0429168 0.3415 0.062325 0.429425 1.04225e-06 1
0.00315818 0.00144354 -0.0530581 0.3415 0.062325 0.429425 8.28046e-06 1
0.00828919 -0.000618506 -0.0403895 0.3415 0.062325 0.429425 4.06512e-07 1
0.00736167 0.00139651 -0.0470909 0.3415 0.062325 0.429425 9.09905e-06 1
-0.00223599 0.0116856 -0.04668 0.3415 0.062325 0.429425 5.62755e-05 1
0.000817021 0.0323335 -0.0362884 0.3415 0.062325 0.429425 1.81456e-05 1
-0.00794127 0.0170461 -0.0492815 0.3415 0.062325 0.429425 3.89789e-05 1
0.0113986 0.028323 -0.0364883 0.3415 0.062325 0.429425 1.56188e-05 1
0.00713376 0.0333122 -0.0327507 0.3415 0.062325 0.429425 2.33664e-05 1
-0.00324318 0.0177866 -0.0409019 0.3415 0.062325 0.429425 3.21209e-05 1
-0.00894847 0.0231472 -0.0435034 0.3415 0.062325 0.429425 2.75163e-05 1
0.00141202 0.0222231 -0.0385027 0.3415 0.062325 0.429425 3.25796e-05 1
0.0116714 0.0219518 -0.0397414 0.3415 0.062325 0.429425 1.29347e-05 1
0.0116078 -0.0141414 -0.0577848 0.3415 0.062325 0.429425 2.44908e-05 1
0.0162818 0.00606326 -0.0372506 0.3415 0.062325 0.429425 3.85241e-07 1
0.0165331 0.015168 -0.0487524 0.3415 0.062325 0.429425 1.57323e-05 1
0.017619 0.00207379 -0.04761 0.3415 0.062325 0.429425 1.26094e-06 1
0.0158608 0.0155457 -0.0428625 0.3415 0.062325 0.429425 3.60325e-06 1
0.0135674 0.00119476 -0.0543962 0.3415 0.062325 0.429425 1.09958e-05 1
0.0151183 0.00499638 -0.0378174 0.3415 0.062325 0.429425 3.16582e-07 1
0.00800164 0.0168306 -0.038218 0.3415 0.062325 0.429425 3.40716e-05 1
0.0132143 0.0186341 -0.0330513 0.3415 0.062325 0.429425 1.13048e-05 1
0.0129414 0.0250053 -0.0297983 0.3415 0.062325 0.429425 3.56156e-05 1
0.0179789 -0.000119999 -0.0495502 0.3415 0.062325 0.429425 9.21119e-07 1
0.0182387 -0.00605625 -0.0596604 0.3415 0.062325 0.429425 1.40776e-05 1
0.012191 0.0104245 -0.0413392 0.3415 0.062325 0.429425 1.03433e-05 1
0.0184564 0.0116366 -0.0453953 0.3415 0.062325 0.429425 1.34837e-06 1
0.0120385 0.00467718 -0.0516191 0.3415 0.062325 0.429425 1.45951e-05 1
-0.0149106 0.0215362 -0.0357928 0.3415 0.062325 0.429425 6.82079e-06 1
-0.00961233 0.0145524 -0.0358638 0.3415 0.062325 0.429425 1.91316e-05 1
-0.00933621 0.0188527 -0.0214877 0.3415 0.062325 0.429425 2.74221e-06 1
-0.00904127 0.0165597 -0.0279508 0.3415 0.062325 0.429425 4.85783e-06 1
-0.0142418 0.00536576 -0.0480491 0.3415 0.062325 0.429425 1.88177e-05 1
-0.0104814 0.0256799 -0.027478 0.3415 0.062325 0.429425 1.25318e-05 1
-0.0101651 0.0228805 -0.0309115 0.3415 0.062325 0.429425 6.83792e-06 1
-0.0132474 0.0124247 -0.0237878 0.3415 0.062325 0.429425 4.74734e-06 1
-0.0145107 0.0294045 -0.0324268 0.3415 0.062325 0.429425 2.23497e-05 1
-0.0118579 0.00795687 -0.0299209 0.3415 0.062325 0.429425 2.59668e-06 1
-0.0164722 -0.0059865 -0.0589503 0.3415 0.062325 0.429425 7.35678e-06 1
-0.00495713 0.0189889 -0.0334645 0.3415 0.062325 0.429425 2.69933e-05 1
-0.00702557 0.00613181 -0.0325534 0.3415 0.062325 0.429425 5.19556e-06 1
-0.0173754 0.0160691 -0.0357187 0.3415 0.062325 0.429425 1.79261e-06 1
-0.0129139 0.0116799 -0.0275981 0.3415 0.062325 0.429425 1.31475e-06 1
-0.0106141 0.00698547 -0.03544 0.3415 0.062325 0.429425 4.77417e-06 1
-0.0139748 0.0294836 -0.0246196 0.3415 0.062325 0.429425 5.04199e-06 1
-0.0153176 0.019913 -0.0384652 0.3415 0.062325 0.429425 2.08351e-06 1
-0.0157951 0.0105578 -0.0508807 0.3415 0.062325 0.429425 2.54723e-05 1
-0.00790411 0.00597975 -0.0431839 0.3415 0.062325 0.429425 1.36297e-05 1
-0.00935764 0.0193592 -0.0245173 0.3415 0.062325 0.429425 1.51884e-05 1
1.43078e-05 -0.164692 0.0065154 0.735683 0.215906 0.330245 6.63788e-06 2
0.000159014 -0.166427 0.0209008 0.735683 0.215906 0.330245 6.66331e-06 2
0.000250952 -0.128056 0.017707 0.735683 0.215906 0.330245 6.11845e-06 2
0.00254338 -0.169851 0.0206509 0.735683 0.215906 0.330245 5.35075e-06 2
0.00376966 -0.167823 0.00657502 0.735683 0.215906 0.330245 1.47088e-06 2
0.00221552 -0.145357 0.0195162 0.735683 0.215906 0.330245 1.0928e-05 2
0.0058573 -0.142348 0.0142649 0.735683 0.215906 0.330245 3.82305e-06 2
0.010325 -0.166724 0.0158566 0.735683 0.215906 0.330245 1.1592e-05 2
0.00918841 -0.177371 0.0165735 0.735683 0.215906 0.330245 6.4495e-06 2
-0.00546505 -0.142507 0.0182636 0.735683 0.215906 0.330245 1.12149e-05 2
0.00501203 -0.141547 0.0184337 0.735683 0.215906 0.330245 3.64622e-06 2
-0.000218706 -0.144527 0.00633234 0.735683 0.215906 0.330245 2.90515e-06 2
0.00333193 -0.132999 0.014372 0.735683 0.215906 0.330245 2.5048e-06 2
0.000530634 -0.142161 0.0161449 0.735683 0.215906 0.330245 3.62555e-06 2
-0.00278398 -0.128305 0.0177303 0.735683 0.215906 0.330245 1.43382e-06 2
0.000735159 -0.133191 0.0149773 0.735683 0.215906 0.330245 5.73253e-06 2
-0.00150194 -0.133409 0.0152149 0.735683 0.215906 0.330245 1.3557e-06 2
0.000195396 -0.156653 0.0208611 0.735683 0.215906 0.330245 6.91841e-06 2
0.00332714 -0.138351 0.0150624 0.735683 0.215906 0.330245 1.43711e-06 2
-0.00238977 -0.138932 0.0193401 0.735683 0.215906 0.330245 1.45012e-06 2
0.00105594 -0.153042 0.0174235 0.735683 0.215906 0.330245 9.43068e-06 2
-0.000152676 -0.138714 0.0191025 0.735683 0.215906 0.330245 6.04341e-06 2
-0.00438393 -0.145938 0.0154127 0.735683 0.215906 0.330245 6.08915e-06 2
-0.00438928 -0.151925 0.0161851 0.735683 0.215906 0.330245 1.25937e-05 2
8.26331e-05 -0.133162 0.00438997 0.735683 0.215906 0.330245 4.49495e-06 2
-0.00408841 -0.133461 0.0139348 0.735683 0.215906 0.330245 8.05508e-06 2
0.000347092 -0.155971 0.00707017 0.735683 0.215906 0.330245 8.75508e-06 2
0.0053831 -0.184811 0.0149965 0.735683 0.215906 0.330245 1.34788e-05 2
0.00565657 -0.171397 0.0102631 0.735683 0.215906 0.330245 6.08189e-06 2
0.00710133 -0.169914 0.0190011 0.735683 0.215906 0.330245 6.49537e-06 2
0.00724186 -0.159665 0.0189496 0.735683 0.215906 0.330245 6.09155e-06 2
0.00563664 -0.155525 0.0157959 0.735683 0.215906 0.330245 9.54748e-06 2
0.0104464 -0.168952 0.010842 0.735683 0.215906 0.330245 1.4687e-05 2
0.00545376 -0.172064 0.0153117 0.735683 0.215906 0.330245 6.98205e-06 2
0.0140263 -0.165342 0.0171433 0.735683 0.215906 0.330245 2.84231e-06 2
0.0103027 -0.162265 0.0158732 0.735683 0.215906 0.330245 4.94009e-06 2
0.000895814 -0.172001 0.0169615 0.735683 0.215906 0.330245 6.30958e-06 2
0.00268368 -0.160622 0.0205799 0.735683 0.215906 0.330245 5.65326e-06 2
0.00233601 -0.178102 0.019665 0.735683 0.215906 0.330245 7.94339e-06 2
-0.00436001 -0.172042 0.0157237 0.735683 0.215906 0.330245 8.61555e-06 2
-0.00813444 -0.155562 0.0181009 0.735683 0.215906 0.330245 9.62944e-06 2
-0.00523639 -0.159044 0.0196574 0.735683 0.215906 0.330245 9.32779e-06 2
-0.00519137 -0.165923 0.0196631 0.735683 0.215906 0.330245 9.32779e-06 2
-0.00726714 -0.168628 0.014199 0.735683 0.215906 0.330245 3.93663e-06 2
-0.00725139 -0.155391 0.0146662 0.735683 0.215906 0.330245 1.73466e-06 2
-0.00898605 -0.152161 0.0122439 0.735683 0.215906 0.330245 1.02364e-05 2
-0.00523106 -0.156069 0.0108834 0.735683 0.215906 0.330245 1.12849e-05 2
0.00690509 -0.180395 0.018007 0.735683 0.215906 0.330245 9.2775e-06 2
0.00251859 -0.136274 -0.00379983 0.735683 0.215906 0.330245 4.23679e-07 2
0.0021216 -0.128091 0.000781568 0.735683 0.215906 0.330245 1.11641e-06 2
0.00280707 -0.141704 -0.000159351 0.735683 0.215906 0.330245 2.3221e-06 2
0.0119309 -0.135451 0.00304659 0.735683 0.215906 0.330245 3.56443e-06 2
0.00596982 -0.136645 0.00788659 0.735683 0.215906 0.330245 3.4969e-06 2
0.00680165 -0.155389 0.000113093 0.735683 0.215906 0.330245 3.90131e-07 2
0.00857162 -0.135117 -0.000985054 0.735683 0.215906 0.330245 2.13251e-06 2
0.0113618 -0.135404 0.00602095 0.735683 0.215906 0.330245 1.2587e-06 2
0.0013397 -0.136596 0.00321757 0.735683 0.215906 0.330245 2.42114e-06 2
0.00793723 -0.131589 -0.00340986 0.735683 0.215906 0.330245 1.15666e-06 2
0.00797623 -0.130017 0.000803294 0.735683 0.215906 0.330245 2.00768e-06 2
0.00242329 -0.13471 -0.0031886 0.735683 0.215906 0.330245 6.82946e-07 2
0.00429712 -0.12717 0.00600074 0.735683 0.215906 0.330245 1.56897e-06 2
0.00870208 -0.136806 0.000324999 0.735683 0.215906 0.330245 2.46066e-06 2
0.0152885 -0.127679 0.00865746 0.735683 0.215906 0.330245 1.26873e-06 2
6.53391e-05 -0.13805 -0.00144774 0.735683 0.215906 0.330245 1.95329e-06 2
0.00820274 -0.131738 -0.000528316 0.735683 0.215906 0.330245 2.43583e-06 2
0.0121362 -0.131091 0.00792053 0.735683 0.215906 0.330245 2.21728e-06 2
0.00945391 -0.144133 9.19494e-05 0.735683 0.215906 0.330245 3.00638e-06 2
0.0127727 -0.140767 -0.000954618 0.735683 0.215906 0.330245 5.84894e-06 2
0.0123719 -0.142947 0.00579259 0.735683 0.215906 0.330245 1.06595e-06 2
0.0012462 -0.146517 0.00470884 0.735683 0.215906 0.330245 3.38134e-06 2
0.0118346 -0.138135 -0.00573027 0.735683 0.215906 0.330245 5.28665e-07 2
0.00848383 -0.134998 -0.00294677 0.735683 0.215906 0.330245 1.01263e-06 2
0.0127754 -0.139079 0.0118595 0.735683 0.215906 0.330245 6.81311e-06 2
0.0125733 -0.144504 -0.00589127 0.735683 0.215906 0.330245 7.98275e-06 2
0.0109589 -0.130909 0.0100905 0.735683 0.215906 0.330245 4.58277e-06 2
0.0023481 -0.129813 -0.000550042 0.735683 0.215906 0.330245 1.35449e-06 2
0.0162759 -0.145316 0.00452303 0.735683 0.215906 0.330245 1.16462e-05 2
0.00264154 -0.136517 8.31767e-05 0.735683 0.215906 0.330245 1.62879e-06 2
0.0115257 -0.14668 0.0082729 0.735683 0.215906 0.330245 4.65026e-06 2
0.0031302 -0.144169 -0.00203102 0.735683 0.215906 0.330245 3.59341e-06 2
0.0156354 -0.148214 -0.00835894 0.735683 0.215906 0.330245 9.80501e-06 2
0.0126827 -0.142778 0.00281354 0.735683 0.215906 0.330245 4.72043e-06 2
0.00662143 -0.134923 0.0121017 0.735683 0.215906 0.330245 3.10786e-06 2
0.0135766 -0.15224 0.00329021 0.735683 0.215906 0.330245 1.02416e-05 2
0.00251109 -0.134829 -0.00122688 0.735683 0.215906 0.330245 1.41158e-06 2
0.00167897 -0.16433 0.00326644 0.735683 0.215906 0.330245 2.81082e-06 2
0.0103065 -0.152166 -0.00029095 0.735683 0.215906 0.330245 6.54971e-06 2
0.0115739 -0.13204 0.00306815 0.735683 0.215906 0.330245 4.07143e-06 2
0.0066706 -0.146059 0.00842625 0.735683 0.215906 0.330245 5.18962e-06 2
0.0115384 -0.136536 -0.00615867 0.735683 0.215906 0.330245 4.83359e-06 2
0.00856073 -0.140503 0.0115552 0.735683 0.215906 0.330245 8.74462e-06 2
0.00857912 -0.136562 -0.00355801 0.735683 0.215906 0.330245 6.28202e-07 2
0.0101845 -0.135221 0.00819088 0.735683 0.215906 0.330245 2.71666e-06 2
0.00520569 -0.144069 0.0100498 0.735683 0.215906 0.330245 4.45877e-06 2
0.00013832 -0.131605 -0.000784278 0.735683 0.215906 0.330245 1.46704e-06 2
0.00119168 -0.128147 0.00302049 0.735683 0.215906 0.330245 1.6595e-06 2
0.0113087 -0.126646 -6.76278e-05 0.735683 0.215906 0.330245 3.95022e-06 2
0.00977704 -0.146598 -0.00177972 0.735683 0.215906 0.330245 4.65232e-06 2
0.0157737 -0.140629 -0.00507854 0.735683 0.215906 0.330245 1.11378e-05 2
0.0142754 -0.143267 0.0102007 0.735683 0.215906 0.330245 9.25799e-06 2
0.0151217 -0.139534 0.00772038 0.735683 0.215906 0.330245 3.20243e-06 2
0.00754219 -0.145545 0.0176362 0.735683 0.215906 0.330245 1.05702e-05 2
0.0160015 -0.139412 0.00176697 0.735683 0.215906 0.330245 8.41681e-06 2
0.0147262 -0.128629 0.00380507 0.735683 0.215906 0.330245 7.98732e-06 2
0.00921234 -0.138781 0.0157703 0.735683 0.215906 0.330245 6.20881e-06 2
0.0143644 -0.123886 0.00957062 0.735683 0.215906 0.330245 2.57612e-06 2
0.00181735 -0.151974 0.00467435 0.735683 0.215906 0.330245 6.04846e-06 2
0.00338824 -0.157651 -0.00655723 0.735683 0.215906 0.330245 1.28402e-06 2
0.00170613 -0.154029 -0.0032423 0.735683 0.215906 0.330245 7.68232e-06 2
0.0172735 -0.155637 0.00204108 0.735683 0.215906 0.330245 7.94886e-06 2
0.00347841 -0.155647 0.00194599 0.735683 0.215906 0.330245 2.66048e-06 2
0.00323039 -0.152656 0.000108813 0.735683 0.215906 0.330245 5.71554e-06 2
0.00504199 -0.160072 -0.00506338 0.735683 0.215906 0.330245 1.43415e-06 2
0.017274 -0.164839 0.00201269 0.735683 0.215906 0.330245 7.80875e-06 2
0.0104986 -0.158786 -0.00113604 0.735683 0.215906 0.330245 2.7255e-06 2
0.00932638 -0.151838 0.0170911 0.735683 0.215906 0.330245 5.44389e-06 2
0.0139615 -0.151252 0.011943 0.735683 0.215906 0.330245 5.58475e-06 2
0.0121083 -0.154443 0.00822985 0.735683 0.215906 0.330245 8.72534e-06 2
0.005783 -0.157819 0.010779 0.735683 0.215906 0.330245 1.28401e-05 2
0.0091064 -0.150631 0.0120963 0.735683 0.215906 0.330245 6.16216e-06 2
0.00725326 -0.153822 0.00838321 0.735683 0.215906 0.330245 8.87062e-06 2
0.0169677 -0.159038 0.00497563 0.735683 0.215906 0.330245 8.47203e-06 2
0.0158036 -0.154323 -0.00814143 0.735683 0.215906 0.330245 6.2315e-06 2
0.0102618 -0.15908 -0.00297119 0.735683 0.215906 0.330245 3.24948e-06 2
0.0140034 -0.155564 -0.00154008 0.735683 0.215906 0.330245 5.3321e-06 2
0.00882472 -0.129137 0.00602667 0.735683 0.215906 0.330245 2.51417e-06 2
0.0165516 -0.159446 0.00814316 0.735683 0.215906 0.330245 8.30617e-07 2
0.0153892 -0.158248 0.0101482 0.735683 0.215906 0.330245 6.71816e-06 2
0.0105305 -0.161663 0.0108222 0.735683 0.215906 0.330245 4.58098e-06 2
0.00855949 -0.165378 0.00715401 0.735683 0.215906 0.330245 8.35373e-06 2
0.0134231 -0.165194 0.00643556 0.735683 0.215906 0.330245 7.29799e-07 2
0.0159344 -0.159071 -0.0079724 0.735683 0.215906 0.330245 6.2315e-06 2
0.011977 -0.125725 0.0067636 0.735683 0.215906 0.330245 5.72554e-06 2
0.00104447 -0.123848 0.00321599 0.735683 0.215906 0.330245 9.02029e-07 2
0.00398468 -0.124185 0.00601961 0.735683 0.215906 0.330245 1.0066e-06 2
0.000558561 -0.118763 0.0131963 0.735683 0.215906 0.330245 1.48504e-06 2
0.000366406 -0.108214 0.00375568 0.735683 0.215906 0.330245 2.49913e-07 2
0.000345746 -0.105149 0.0115349 0.735683 0.215906 0.330245 6.7225e-07 2
0.0118451 -0.117997 0.0129271 0.735683 0.215906 0.330245 9.53861e-07 2
0.000556268 -0.121328 0.0135271 0.735683 0.215906 0.330245 1.48504e-06 2
0.00865594 -0.130644 0.0123902 0.735683 0.215906 0.330245 5.05149e-06 2
0.00743923 -0.126898 0.017148 0.735683 0.215906 0.330245 1.42616e-06 2
0.01231 -0.119633 0.00733863 0.735683 0.215906 0.330245 1.46926e-06 2
-0.00490748 -0.114838 0.014916 0.735683 0.215906 0.330245 2.24531e-06 2
-0.00147388 -0.100713 0.0107186 0.735683 0.215906 0.330245 4.09389e-06 2
0.00327117 -0.133138 0.00990586 0.735683 0.215906 0.330245 5.46386e-06 2
0.0123098 -0.123491 0.0133627 0.735683 0.215906 0.330245 1.75112e-06 2
0.0133968 -0.114557 0.00736821 0.735683 0.215906 0.330245 2.30632e-06 2
0.00109361 -0.106918 0.00224536 0.735683 0.215906 0.330245 1.2182e-07 2
0.0111429 -0.109289 0.00792192 0.735683 0.215906 0.330245 3.26076e-06 2
0.00422504 -0.125167 0.0145552 0.735683 0.215906 0.330245 5.79338e-06 2
0.00933747 -0.123424 0.0157581 0.735683 0.215906 0.330245 1.8413e-06 2
0.0106149 -0.12703 0.0154664 0.735683 0.215906 0.330245 2.71785e-06 2
0.00623575 -0.116441 0.00788672 0.735683 0.215906 0.330245 2.41339e-06 2
0.00536645 -0.128719 0.0146604 0.735683 0.215906 0.330245 1.21834e-06 2
0.00530569 -0.128859 0.0101943 0.735683 0.215906 0.330245 5.33053e-06 2
0.00284529 -0.100987 0.0102366 0.735683 0.215906 0.330245 6.16514e-06 2
-3.40935e-05 -0.106516 0.0150975 0.735683 0.215906 0.330245 1.1817e-06 2
0.00820858 -0.107918 0.00576534 0.735683 0.215906 0.330245 2.46625e-06 2
0.013472 -0.127241 0.0121919 0.735683 0.215906 0.330245 2.78399e-06 2
0.000165952 -0.117258 0.00405604 0.735683 0.215906 0.330245 5.69177e-07 2
0.000724664 -0.106941 0.00313365 0.735683 0.215906 0.330245 1.8108e-07 2
0.00307499 -0.122183 0.011086 0.735683 0.215906 0.330245 2.07729e-06 2
0.00955459 -0.0963809 0.00788442 0.735683 0.215906 0.330245 8.30022e-06 2
0.0036595 -0.101895 0.00584001 0.735683 0.215906 0.330245 1.91591e-06 2
0.000349907 -0.100493 0.0109342 0.735683 0.215906 0.330245 1.76849e-06 2
0.00891914 -0.105616 0.00315434 0.735683 0.215906 0.330245 1.18035e-06 2
0.0041482 -0.106564 0.0058105 0.735683 0.215906 0.330245 7.28286e-07 2
-0.00379458 -0.121632 0.01254 0.735683 0.215906 0.330245 2.07649e-06 2
0.0113633 -0.117453 0.00880229 0.735683 0.215906 0.330245 2.14794e-06 2
0.000688234 -0.101587 0.00236395 0.735683 0.215906 0.330245 2.56984e-07 2
-0.000101328 -0.104954 0.00280262 0.735683 0.215906 0.330245 9.43709e-08 2
0.00708133 -0.109217 0.00813252 0.735683 0.215906 0.330245 1.40459e-06 2
0.0115561 -0.105233 0.00583465 0.735683 0.215906 0.330245 5.84555e-06 2
0.00839071 -0.116731 0.00672861 0.735683 0.215906 0.330245 3.25107e-06 2
-0.00185789 -0.106736 0.0148819 0.735683 0.215906 0.330245 2.75375e-06 2
-0.00299423 -0.109214 0.0149346 0.735683 0.215906 0.330245 2.25329e-06 2
-0.0051322 -0.109447 0.0140847 0.735683 0.215906 0.330245 2.74809e-06 2
-0.00288151 -0.116634 0.0160333 0.735683 0.215906 0.330245 1.44674e-06 2
0.00749876 -0.100505 0.0054446 0.735683 0.215906 0.330245 7.56278e-06 2
0.00554296 -0.101483 0.00886289 0.735683 0.215906 0.330245 3.51961e-06 2
0.00525823 -0.0968728 0.0122198 0.735683 0.215906 0.330245 6.80266e-06 2
0.00300115 -0.112257 0.0116828 0.735683 0.215906 0.330245 1.96148e-06 2
0.000319293 -0.101609 0.00325223 0.735683 0.215906 0.330245 3.81997e-07 2
0.00795589 -0.0973682 0.0108461 0.735683 0.215906 0.330245 3.91405e-06 2
0.00587273 -0.119337 0.00454689 0.735683 0.215906 0.330245 1.26959e-06 2
0.0114772 -0.107645 0.0135582 0.735683 0.215906 0.330245 1.15477e-07 2
-0.00501814 -0.114676 0.0109751 0.735683 0.215906 0.330245 3.68912e-07 2
0.00339583 -0.105722 0.0140715 0.735683 0.215906 0.330245 4.03246e-06 2
0.0106818 -0.100364 0.0135607 0.735683 0.215906 0.330245 1.61934e-07 2
0.0113523 -0.10947 0.0141881 0.735683 0.215906 0.330245 1.71065e-07 2
0.0104264 -0.105862 0.0144245 0.735683 0.215906 0.330245 7.79521e-08 2
0.00874721 -0.109305 0.0114442 0.735683 0.215906 0.330245 2.74384e-06 2
0.000285195 -0.0961515 0.0137441 0.735683 0.215906 0.330245 1.81349e-06 2
0.00170631 -0.124313 0.0169963 0.735683 0.215906 0.330245 4.12393e-06 2
-0.00149378 -0.1189 0.013213 0.735683 0.215906 0.330245 1.00684e-06 2
-0.00218532 -0.124652 0.0173574 0.735683 0.215906 0.330245 2.87558e-06 2
-0.001481 -0.11246 0.0123154 0.735683 0.215906 0.330245 1.26264e-06 2
-0.00361897 -0.112693 0.0114655 0.735683 0.215906 0.330245 1.55693e-06 2
0.00308641 -0.107906 0.0110712 0.735683 0.215906 0.330245 2.06536e-06 2
-0.00501584 -0.112111 0.0106442 0.735683 0.215906 0.330245 3.68912e-07 2
-0.00197169 -0.114574 0.01598 0.735683 0.215906 0.330245 1.98737e-06 2
0.00553879 -0.106139 0.00946354 0.735683 0.215906 0.330245 1.3379e-06 2
0.00524401 -0.109289 0.0139182 0.735683 0.215906 0.330245 2.73381e-06 2
0.000827486 -0.112109 0.0031062 0.735683 0.215906 0.330245 3.48088e-07 2
-0.00379229 -0.119068 0.0122091 0.735683 0.215906 0.330245 2.07649e-06 2
0.00557159 -0.108301 0.00308502 0.735683 0.215906 0.330245 5.5456e-07 2
0.00378994 -0.107837 0.00643253 0.735683 0.215906 0.330245 1.00513e-06 2
-0.00149608 -0.121464 0.0135438 0.735683 0.215906 0.330245 1.00684e-06 2
0.000463716 -0.11224 0.0123984 0.735683 0.215906 0.330245 1.10936e-06 2
0.00420771 -0.113473 0.00666323 0.735683 0.215906 0.330245 1.29223e-06 2
0.00862112 -0.112413 0.0122396 0.735683 0.215906 0.330245 1.7139e-07 2
0.00573898 -0.112275 0.00998304 0.735683 0.215906 0.330245 1.96891e-06 2
0.00115412 -0.107408 0.0116706 0.735683 0.215906 0.330245 2.9689e-07 2
0.00376497 -0.114265 0.0151166 0.735683 0.215906 0.330245 2.95889e-06 2
0.00122754 -0.114249 0.0158322 0.735683 0.215906 0.330245 1.66585e-06 2
0.00527962 -0.116212 0.0148662 0.735683 0.215906 0.330245 2.40822e-06 2
-0.00147805 -0.105369 0.0113193 0.735683 0.215906 0.330245 1.5562e-06 2
-0.00630665 -0.116821 0.0144255 0.735683 0.215906 0.330245 3.13844e-06 2
0.00018216 -0.116283 0.0162626 0.735683 0.215906 0.330245 2.34226e-06 2
0.000941652 -0.118679 0.00324343 0.735683 0.215906 0.330245 7.56317e-07 2
0.000333479 -0.113379 0.00390179 0.735683 0.215906 0.330245 4.43962e-07 2
0.00769639 -0.107522 0.0123105 0.735683 0.215906 0.330245 1.85222e-06 2
0.00470171 -0.112203 0.00586764 0.735683 0.215906 0.330245 1.01317e-06 2
0.0103144 -0.118002 0.0144757 0.735683 0.215906 0.330245 1.00299e-06 2
0.00735662 -0.115284 0.0119285 0.735683 0.215906 0.330245 1.79665e-06 2
0.00654383 -0.117173 0.0126559 0.735683 0.215906 0.330245 2.16199e-06 2
0.00942711 -0.116028 0.014747 0.735683 0.215906 0.330245 7.42903e-07 2
0.000774277 -0.108775 0.0152332 0.735683 0.215906 0.330245 1.95882e-06 2
0.00849042 -0.11528 0.0107816 0.735683 0.215906 0.330245 2.00381e-06 2
0.0120916 -0.116019 0.0120515 0.735683 0.215906 0.330245 7.06516e-07 2
0.00629782 -0.123347 0.0170428 0.735683 0.215906 0.330245 2.45797e-06 2
0.00294092 -0.118908 0.00668303 0.735683 0.215906 0.330245 7.74895e-07 2
0.00307729 -0.119618 0.0107551 0.735683 0.215906 0.330245 2.07729e-06 2
0.00514892 -0.119079 0.0134082 0.735683 0.215906 0.330245 1.67599e-06 2
0.00308572 -0.122878 0.00700502 0.735683 0.215906 0.330245 9.57763e-07 2
0.000145517 -0.122542 0.0042014 0.735683 0.215906 0.330245 8.58262e-07 2
0.00371662 -0.12033 0.00587043 0.735683 0.215906 0.330245 1.02967e-06 2
0.0112098 -0.11251 0.00175889 0.735683 0.215906 0.330245 1.90785e-06 2
0.00942603 -0.109633 0.00169784 0.735683 0.215906 0.330245 1.55746e-06 2
0.0072177 -0.113433 -0.00213261 0.735683 0.215906 0.330245 3.52182e-06 2
0.00796209 -0.123285 -0.00968993 0.735683 0.215906 0.330245 1.51406e-06 2
0.00125917 -0.113208 -0.000960973 0.735683 0.215906 0.330245 5.13862e-07 2
0.0107766 -0.127621 -0.0047029 0.735683 0.215906 0.330245 2.66064e-06 2
0.00399134 -0.108583 -0.00582617 0.735683 0.215906 0.330245 4.3345e-06 2
0.0143435 -0.116737 0.00590454 0.735683 0.215906 0.330245 2.11571e-06 2
0.00208259 -0.129663 -0.00343158 0.735683 0.215906 0.330245 6.55328e-07 2
0.0128249 -0.126621 -0.00984992 0.735683 0.215906 0.330245 9.04756e-06 2
0.000698343 -0.106108 -0.000501925 0.735683 0.215906 0.330245 5.08694e-07 2
0.00600317 -0.0968738 -0.0122659 0.735683 0.215906 0.330245 3.27545e-06 2
0.011468 -0.126669 -0.0118275 0.735683 0.215906 0.330245 4.94845e-06 2
0.0087764 -0.0979001 -0.00862007 0.735683 0.215906 0.330245 5.43477e-06 2
0.00407357 -0.117406 -0.00218551 0.735683 0.215906 0.330245 7.09936e-07 2
0.00820681 -0.104577 -0.00309742 0.735683 0.215906 0.330245 5.33585e-06 2
0.00407218 -0.113647 0.00211447 0.735683 0.215906 0.330245 3.17812e-07 2
0.00750624 -0.11242 0.00254216 0.735683 0.215906 0.330245 9.36258e-07 2
0.00381919 -0.118883 -0.00829128 0.735683 0.215906 0.330245 1.11319e-06 2
0.009319 -0.123237 -0.00771235 0.735683 0.215906 0.330245 2.77598e-06 2
0.00245988 -0.108037 -0.0121515 0.735683 0.215906 0.330245 1.90813e-06 2
0.0055481 -0.100875 -0.0130709 0.735683 0.215906 0.330245 4.06358e-06 2
-2.5466e-05 -0.124923 -0.00214043 0.735683 0.215906 0.330245 6.73051e-07 2
0.00651475 -0.122567 -0.00476742 0.735683 0.215906 0.330245 1.0784e-06 2
0.00744353 -0.103335 -0.0120741 0.735683 0.215906 0.330245 2.01264e-06 2
0.00422761 -0.114877 0.00134646 0.735683 0.215906 0.330245 4.05347e-07 2
0.0127573 -0.106991 0.00236294 0.735683 0.215906 0.330245 3.37768e-06 2
0.00939227 -0.101625 -0.00865665 0.735683 0.215906 0.330245 4.45262e-06 2
0.00719674 -0.117751 -0.00979593 0.735683 0.215906 0.330245 1.17011e-06 2
0.00838982 -0.11409 -0.0125964 0.735683 0.215906 0.330245 2.35219e-06 2
0.00813201 -0.120416 -0.00199933 0.735683 0.215906 0.330245 1.34234e-06 2
0.000267614 -0.104932 0.00191433 0.735683 0.215906 0.330245 6.3487e-08 2
0.00791598 -0.110522 -0.00585665 0.735683 0.215906 0.330245 4.57418e-06 2
0.0078645 -0.129809 -0.00252472 0.735683 0.215906 0.330245 1.65822e-06 2
0.00169155 -0.12245 -0.0019923 0.735683 0.215906 0.330245 6.09765e-07 2
0.00746812 -0.107284 -0.00591868 0.735683 0.215906 0.330245 2.39085e-06 2
0.00117283 -0.117151 -0.00259635 0.735683 0.215906 0.330245 7.19929e-07 2
0.00339088 -0.107932 -0.0115596 0.735683 0.215906 0.330245 1.34694e-06 2
0.0142825 -0.131005 -0.00684047 0.735683 0.215906 0.330245 1.48467e-05 2
0.0107264 -0.112041 -0.00937519 0.735683 0.215906 0.330245 5.6763e-06 2
0.0146215 -0.125133 0.00174588 0.735683 0.215906 0.330245 5.68936e-06 2
0.00868531 -0.122346 0.000674734 0.735683 0.215906 0.330245 1.85275e-06 2
0.0111608 -0.126535 -0.00207553 0.735683 0.215906 0.330245 3.30674e-06 2
0.0106711 -0.115089 -0.00418585 0.735683 0.215906 0.330245 3.48618e-06 2
0.0106888 -0.104542 -0.00676041 0.735683 0.215906 0.330245 6.06816e-06 2
0.0141969 -0.124369 -0.0036121 0.735683 0.215906 0.330245 6.33891e-06 2
0.00755097 -0.120313 -0.00974687 0.735683 0.215906 0.330245 9.71376e-07 2
0.0144729 -0.113993 -0.00288777 0.735683 0.215906 0.330245 1.60127e-06 2
0.00235467 -0.110104 -0.00846778 0.735683 0.215906 0.330245 1.71422e-06 2
0.00200987 -0.127883 -0.00254645 0.735683 0.215906 0.330245 9.39498e-07 2
0.00779361 -0.119224 -0.00294141 0.735683 0.215906 0.330245 7.96952e-07 2
0.00613618 -0.120676 -0.0108955 0.735683 0.215906 0.330245 1.04623e-06 2
0.00960661 -0.121483 0.00524869 0.735683 0.215906 0.330245 2.79587e-06 2
0.00855365 -0.117703 -0.00781835 0.735683 0.215906 0.330245 2.14535e-06 2
0.00923581 -0.109461 -0.000895575 0.735683 0.215906 0.330245 1.87008e-06 2
0.0103462 -0.122288 -0.00361968 0.735683 0.215906 0.330245 6.08951e-07 2
0.000235981 -0.114657 0.000934678 0.735683 0.215906 0.330245 3.90078e-07 2
0.012148 -0.101389 0.000659569 0.735683 0.215906 0.330245 1.69145e-07 2
0.0118369 -0.115005 -0.00793767 0.735683 0.215906 0.330245 2.70264e-06 2
0.0124565 -0.106719 -0.00173731 0.735683 0.215906 0.330245 4.04155e-06 2
0.0126145 -0.104265 0.00131382 0.735683 0.215906 0.330245 1.96251e-06 2
0.012504 -0.104165 -0.00019301 0.735683 0.215906 0.330245 2.34823e-06 2
0.00197439 -0.123792 0.000977061 0.735683 0.215906 0.330245 6.0683e-07 2
0.0014921 -0.113309 0.00111224 0.735683 0.215906 0.330245 2.98671e-07 2
0.000554337 -0.113179 -0.00266193 0.735683 0.215906 0.330245 1.44091e-07 2
0.00526332 -0.10755 -0.0100854 0.735683 0.215906 0.330245 3.92575e-06 2
0.0151201 -0.114859 0.00144788 0.735683 0.215906 0.330245 1.58647e-06 2
0.000106475 -0.109941 -0.00272395 0.735683 0.215906 0.330245 1.73346e-06 2
0.00161797 -0.117289 0.000575185 0.735683 0.215906 0.330245 4.18442e-07 2
0.00498611 -0.107319 -0.00225568 0.735683 0.215906 0.330245 2.37346e-06 2
0.000204609 -0.120083 0.000384337 0.735683 0.215906 0.330245 5.95912e-07 2
0.00572252 -0.109543 0.00248111 0.735683 0.215906 0.330245 7.65363e-07 2
0.00685553 -0.113775 0.00487497 0.735683 0.215906 0.330245 1.51737e-06 2
0.00464498 -0.119004 0.00173702 0.735683 0.215906 0.330245 5.47498e-07 2
0.00124453 -0.108161 0.00164145 0.735683 0.215906 0.330245 1.68126e-07 2
0.0119981 -0.120833 0.00248824 0.735683 0.215906 0.330245 2.68426e-06 2
0.0117512 -0.1201 -0.00194991 0.735683 0.215906 0.330245 3.43218e-06 2
0.00702138 -0.126474 -0.0109284 0.735683 0.215906 0.330245 1.67928e-06 2
0.00157859 -0.118588 -0.00147123 0.735683 0.215906 0.330245 6.02065e-07 2
0.000292751 -0.109469 0.00146828 0.735683 0.215906 0.330245 2.39795e-07 2
0.0150211 -0.116412 -0.00162072 0.735683 0.215906 0.330245 2.5334e-06 2
0.00399468 -0.114777 -0.000726761 0.735683 0.215906 0.330245 6.49648e-07 2
0.0110195 -0.112337 -0.000834528 0.735683 0.215906 0.330245 2.17244e-06 2
0.00863626 -0.111078 -0.0120563 0.735683 0.215906 0.330245 3.52828e-06 2
0.00890788 -0.120264 -0.00776929 0.735683 0.215906 0.330245 1.78098e-06 2
0.00447933 -0.118842 -0.00106039 0.735683 0.215906 0.330245 5.93708e-07 2
0.0010827 -0.111136 -0.00420857 0.735683 0.215906 0.330245 5.18328e-07 2
5.11117e-05 -0.115747 -0.0026251 0.735683 0.215906 0.330245 2.77455e-08 2
0.0151629 -0.117034 0.00293219 0.735683 0.215906 0.330245 2.12068e-06 2
0.00133667 -0.112079 0.00188026 0.735683 0.215906 0.330245 2.34173e-07 2
0.0102896 -0.112548 0.00530265 0.735683 0.215906 0.330245 2.8216e-06 2
1.81375e-05 -0.119977 -0.00165319 0.735683 0.215906 0.330245 6.93705e-07 2
0.00738786 -0.117787 -0.00406653 0.735683 0.215906 0.330245 2.73038e-06 2
0.00451871 -0.117543 0.000986022 0.735683 0.215906 0.330245 4.42963e-07 2
0.00187802 -0.122556 4.52263e-05 0.735683 0.215906 0.330245 5.23805e-07 2
0.00614193 -0.121909 0.00453063 0.735683 0.215906 0.330245 1.05397e-06 2
0.00656628 -0.121443 -0.00369136 0.735683 0.215906 0.330245 1.28767e-06 2
0.00164002 -0.123575 -0.00306837 0.735683 0.215906 0.330245 5.10667e-07 2
0.004944 -0.121496 0.000632689 0.735683 0.215906 0.330245 4.54511e-07 2
0.00174424 -0.11875 0.00132619 0.735683 0.215906 0.330245 5.1719e-07 2
0.00504037 -0.122732 0.00156452 0.735683 0.215906 0.330245 5.26553e-07 2
-0.00162842 -0.189218 0.00253139 0.735683 0.215906 0.330245 3.96277e-06 2
-0.00165826 -0.176169 0.00237257 0.735683 0.215906 0.330245 5.11191e-06 2
-0.00236937 -0.184424 0.0115807 0.735683 0.215906 0.330245 1.06339e-05 2
-0.00604609 -0.188591 0.0140998 0.735683 0.215906 0.330245 9.30951e-06 2
-0.00541361 -0.173038 0.00231295 0.735683 0.215906 0.330245 5.49532e-06 2
0.00205933 -0.180756 0.00408307 0.735683 0.215906 0.330245 6.63863e-06 2
0.000334522 -0.185839 0.00612128 0.735683 0.215906 0.330245 1.0129e-05 2
-1.18908e-05 -0.181312 -0.00109482 0.735683 0.215906 0.330245 2.90386e-06 2
-5.54811e-06 -0.181219 0.0199204 0.735683 0.215906 0.330245 7.60797e-06 2
-0.0061235 -0.176947 0.0133507 0.735683 0.215906 0.330245 9.59906e-06 2
-0.0187328 -0.188782 0.00909909 0.735683 0.215906 0.330245 4.72216e-06 2
0.000126128 -0.202444 0.00434971 0.735683 0.215906 0.330245 1.60929e-05 2
0.000801073 -0.201874 0.0174639 0.735683 0.215906 0.330245 9.20018e-06 2
-0.00320923 -0.180023 0.0148439 0.735683 0.215906 0.330245 6.91039e-06 2
0.00380062 -0.188584 0.00193374 0.735683 0.215906 0.330245 1.04186e-06 2
0.00381911 -0.183409 0.00248411 0.735683 0.215906 0.330245 1.03163e-06 2
0.00678593 -0.193991 0.0187847 0.735683 0.215906 0.330245 7.99665e-06 2
-0.00507605 -0.192961 0.0193978 0.735683 0.215906 0.330245 9.40794e-06 2
0.00222602 -0.19257 0.0204536 0.735683 0.215906 0.330245 6.24182e-06 2
8.71806e-05 -0.18671 0.000219355 0.735683 0.215906 0.330245 4.55948e-06 2
0.00208501 -0.191092 0.00424578 0.735683 0.215906 0.330245 7.3165e-07 2
-0.00168336 -0.193402 0.000648063 0.735683 0.215906 0.330245 1.09183e-05 2
-0.00977992 -0.184215 0.0158724 0.735683 0.215906 0.330245 1.31654e-05 2
0.000834318 -0.18562 0.0166572 0.735683 0.215906 0.330245 1.0938e-05 2
-0.0136147 -0.198011 0.00995962 0.735683 0.215906 0.330245 1.47364e-05 2
0.00010152 -0.178822 0.000773603 0.735683 0.215906 0.330245 5.23051e-06 2
0.00171326 -0.173498 0.00049391 0.735683 0.215906 0.330245 9.5399e-07 2
-7.73795e-06 -0.184026 -0.0010987 0.735683 0.215906 0.330245 1.32734e-06 2
-7.63502e-06 -0.195744 0.0206751 0.735683 0.215906 0.330245 6.05236e-06 2
-0.0103332 -0.18884 0.00864384 0.735683 0.215906 0.330245 1.08258e-05 2
-0.00689889 -0.180809 0.0173296 0.735683 0.215906 0.330245 1.20508e-05 2
-0.00796444 -0.196646 0.0179715 0.735683 0.215906 0.330245 1.00176e-05 2
-0.014067 -0.184465 0.0104165 0.735683 0.215906 0.330245 1.23758e-05 2
-0.0122722 -0.193736 0.0125129 0.735683 0.215906 0.330245 1.63878e-05 2
-0.0173355 -0.197016 0.0117657 0.735683 0.215906 0.330245 1.72968e-06 2
-0.00806283 -0.169389 0.0181753 0.735683 0.215906 0.330245 9.24008e-06 2
-0.00556385 -0.16479 0.0103286 0.735683 0.215906 0.330245 8.18855e-06 2
-0.0123669 -0.170195 0.0130286 0.735683 0.215906 0.330245 1.2413e-05 2
0.00583266 -0.186241 0.00975603 0.735683 0.215906 0.330245 1.70753e-05 2
-0.01371 -0.176809 -0.0065201 0.735683 0.215906 0.330245 7.30346e-07 2
-0.0103179 -0.179275 -0.00241726 0.735683 0.215906 0.330245 4.72671e-06 2
-0.0136267 -0.192078 -0.00650111 0.735683 0.215906 0.330245 1.96006e-06 2
-0.0136804 -0.183129 -0.00309361 0.735683 0.215906 0.330245 7.68251e-06 2
-0.00852169 -0.195376 0.00242188 0.735683 0.215906 0.330245 5.03342e-06 2
-0.0170593 -0.200781 -0.00215142 0.735683 0.215906 0.330245 1.00931e-05 2
-0.0154513 -0.179611 0.00778331 0.735683 0.215906 0.330245 1.39591e-05 2
-0.00514986 -0.197666 0.00308944 0.735683 0.215906 0.330245 7.04504e-06 2
-0.011808 -0.189218 0.00225733 0.735683 0.215906 0.330245 8.01553e-06 2
-0.000957901 -0.171325 -0.00212173 0.735683 0.215906 0.330245 8.19436e-06 2
-0.00870087 -0.168706 -0.00757485 0.735683 0.215906 0.330245 3.25666e-06 2
-0.0171029 -0.180461 -0.00581225 0.735683 0.215906 0.330245 4.77286e-06 2
-0.00546935 -0.168061 0.000432578 0.735683 0.215906 0.330245 3.28774e-06 2
-0.012874 -0.170783 -0.00793831 0.735683 0.215906 0.330245 3.8847e-06 2
-0.0103543 -0.190184 -0.0033734 0.735683 0.215906 0.330245 6.01709e-06 2
-0.0170724 -0.180664 -0.00719645 0.735683 0.215906 0.330245 1.21871e-06 2
-0.0169223 -0.185226 -0.00760552 0.735683 0.215906 0.330245 2.61237e-06 2
-0.0052243 -0.181145 -0.00416654 0.735683 0.215906 0.330245 2.5933e-06 2
-0.00177964 -0.183024 -0.00416907 0.735683 0.215906 0.330245 3.43106e-06 2
-0.0120505 -0.180206 -0.00920591 0.735683 0.215906 0.330245 7.33669e-06 2
-0.0169975 -0.197781 -0.00700582 0.735683 0.215906 0.330245 2.59279e-06 2
-0.0118594 -0.196836 0.00226128 0.735683 0.215906 0.330245 1.75774e-05 2
-0.0170308 -0.173186 -0.00624522 0.735683 0.215906 0.330245 7.22323e-08 2
-0.0051586 -0.1908 0.00120706 0.735683 0.215906 0.330245 3.05431e-06 2
-0.0103456 -0.197049 -0.00149103 0.735683 0.215906 0.330245 1.35428e-05 2
-0.0174033 -0.181126 0.0116189 0.735683 0.215906 0.330245 1.7695e-06 2
-0.0169579 -0.183837 -0.00137578 0.735683 0.215906 0.330245 1.0198e-05 2
-0.00438517 -0.169019 -0.00212345 0.735683 0.215906 0.330245 3.48262e-06 2
-0.0137405 -0.176607 -0.0051359 0.735683 0.215906 0.330245 2.80796e-06 2
-6.31673e-05 -0.193399 -0.00325697 0.735683 0.215906 0.330245 4.34576e-06 2
-0.0119623 -0.193894 -0.00935693 0.735683 0.215906 0.330245 8.80855e-06 2
-0.0152586 -0.184061 -0.0104591 0.735683 0.215906 0.330245 1.18814e-05 2
-0.016765 -0.202343 -0.00772261 0.735683 0.215906 0.330245 3.97601e-06 2
-0.0137765 -0.203504 -0.00387416 0.735683 0.215906 0.330245 7.56043e-06 2
-0.00089268 -0.165713 -0.00112495 0.735683 0.215906 0.330245 3.19676e-06 2
-0.0105751 -0.167842 -0.00248746 0.735683 0.215906 0.330245 5.02055e-06 2
-0.013664 -0.170877 -0.00540695 0.735683 0.215906 0.330245 3.86242e-06 2
-0.0104409 -0.163826 -0.0103188 0.735683 0.215906 0.330245 2.87499e-06 2
-0.0168674 -0.178605 0.00237758 0.735683 0.215906 0.330245 1.19639e-05 2
-0.0103889 -0.175499 0.0092604 0.735683 0.215906 0.330245 1.27941e-05 2
-0.0106637 -0.166357 0.00915815 0.735683 0.215906 0.330245 1.4033e-05 2
-0.0138557 -0.169481 0.000595388 0.735683 0.215906 0.330245 8.79588e-06 2
-0.0135941 -0.175184 0.000663634 0.735683 0.215906 0.330245 5.89082e-06 2
-0.00868559 -0.171661 0.00538996 0.735683 0.215906 0.330245 1.04829e-05 2
-0.0104747 -0.172351 0.00219892 0.735683 0.215906 0.330245 9.32854e-06 2
-0.0203854 -0.16849 -0.00723602 0.735683 0.215906 0.330245 1.02392e-07 2
-0.0138544 -0.165607 -0.0118294 0.735683 0.215906 0.330245 8.2577e-06 2
-0.0162285 -0.166087 -0.00892912 0.735683 0.215906 0.330245 5.17563e-06 2
-0.0170186 -0.166181 -0.00639776 0.735683 0.215906 0.330245 5.14751e-06 2
0.011526 -0.215459 -0.00178156 0.735683 0.215906 0.330245 8.60849e-07 2
0.00809439 -0.220251 -0.0022713 0.735683 0.215906 0.330245 6.22731e-08 2
0.00629689 -0.221905 0.0012019 0.735683 0.215906 0.330245 2.09774e-07 2
0.00803466 -0.216696 -0.00205484 0.735683 0.215906 0.330245 7.6905e-08 2
0.00279931 -0.224402 0.000517552 0.735683 0.215906 0.330245 5.02492e-07 2
0.00725094 -0.206142 -0.00920239 0.735683 0.215906 0.330245 2.957e-06 2
0.0171375 -0.202372 0.00118426 0.735683 0.215906 0.330245 9.75404e-06 2
0.0079314 -0.224641 -0.00311958 0.735683 0.215906 0.330245 1.97839e-07 2
0.0138914 -0.213296 -0.00235311 0.735683 0.215906 0.330245 2.12911e-06 2
0.0080878 -0.222364 -0.000279883 0.735683 0.215906 0.330245 3.66515e-07 2
0.0152426 -0.220894 -0.00485511 0.735683 0.215906 0.330245 1.07091e-06 2
0.0100329 -0.217397 -0.00746258 0.735683 0.215906 0.330245 1.14261e-06 2
0.0118265 -0.210214 -0.00976501 0.735683 0.215906 0.330245 1.68388e-06 2
0.00315668 -0.212336 0.00142956 0.735683 0.215906 0.330245 1.81468e-06 2
0.00608151 -0.229985 -0.00268824 0.735683 0.215906 0.330245 1.13493e-07 2
0.00949466 -0.2144 -0.0122881 0.735683 0.215906 0.330245 7.05833e-06 2
0.00802623 -0.219052 -0.00230551 0.735683 0.215906 0.330245 7.6905e-08 2
0.00340747 -0.215854 -0.00390206 0.735683 0.215906 0.330245 7.5725e-07 2
0.0137767 -0.208639 0.00231525 0.735683 0.215906 0.330245 3.56867e-06 2
0.0060903 -0.227527 -0.00242671 0.735683 0.215906 0.330245 1.33541e-07 2
0.0168664 -0.204582 -0.00503173 0.735683 0.215906 0.330245 8.18929e-06 2
0.0103727 -0.204746 -0.0030064 0.735683 0.215906 0.330245 1.11905e-06 2
0.00804067 -0.226034 -0.00221282 0.735683 0.215906 0.330245 3.68648e-08 2
0.00776586 -0.228805 -0.00380238 0.735683 0.215906 0.330245 2.23796e-09 2
0.00339008 -0.201344 -0.00351258 0.735683 0.215906 0.330245 1.26449e-06 2
0.0136977 -0.208157 -0.00813486 0.735683 0.215906 0.330245 2.73358e-06 2
0.00815294 -0.215621 -0.000697779 0.735683 0.215906 0.330245 1.89032e-07 2
0.00768672 -0.231034 -0.00443343 0.735683 0.215906 0.330245 7.00484e-08 2
0.0150477 -0.214345 -0.0126773 0.735683 0.215906 0.330245 3.18737e-06 2
0.0125428 -0.220417 -0.00566833 0.735683 0.215906 0.330245 1.95252e-06 2
0.00800961 -0.216849 8.33411e-05 0.735683 0.215906 0.330245 2.33955e-07 2
0.00890602 -0.221796 -0.00293883 0.735683 0.215906 0.330245 2.86023e-07 2
0.0133431 -0.20207 -0.00566874 0.735683 0.215906 0.330245 2.80172e-06 2
0.0128179 -0.212323 -0.00958119 0.735683 0.215906 0.330245 1.38888e-06 2
0.00749083 -0.231269 -0.000652673 0.735683 0.215906 0.330245 3.10969e-07 2
0.00910703 -0.220691 -0.00192038 0.735683 0.215906 0.330245 2.95799e-07 2
0.00770565 -0.230057 -0.00199998 0.735683 0.215906 0.330245 2.75029e-07 2
0.00869975 -0.226543 -0.0038225 0.735683 0.215906 0.330245 3.29173e-07 2
0.0139606 -0.206066 -0.00131613 0.735683 0.215906 0.330245 4.78868e-07 2
0.00345059 -0.218252 -0.00336405 0.735683 0.215906 0.330245 7.5725e-07 2
0.0137169 -0.219601 -0.00965334 0.735683 0.215906 0.330245 2.475e-06 2
0.0121712 -0.215256 -0.0106522 0.735683 0.215906 0.330245 2.80788e-06 2
0.007155 -0.200671 -0.00929669 0.735683 0.215906 0.330245 2.9684e-06 2
0.00790236 -0.211785 -0.00265873 0.735683 0.215906 0.330245 3.11881e-07 2
0.00345499 -0.214711 -0.00311411 0.735683 0.215906 0.330245 9.01324e-07 2
0.00340342 -0.212244 -0.00377823 0.735683 0.215906 0.330245 9.48595e-07 2
0.0161767 -0.235624 -0.00972829 0.735683 0.215906 0.330245 1.34692e-05 2
0.0100038 -0.219595 0.000256743 0.735683 0.215906 0.330245 1.20701e-06 2
0.0154563 -0.220792 -0.0121449 0.735683 0.215906 0.330245 2.15048e-06 2
0.00901345 -0.221844 -0.00224274 0.735683 0.215906 0.330245 7.61273e-08 2
0.00707394 -0.216029 0.000688979 0.735683 0.215906 0.330245 4.27931e-08 2
0.00721726 -0.214801 -9.21413e-05 0.735683 0.215906 0.330245 3.45762e-08 2
0.00432932 -0.227483 -0.00480072 0.735683 0.215906 0.330245 1.1982e-06 2
0.00847537 -0.229239 -0.000121537 0.735683 0.215906 0.330245 4.31235e-07 2
0.00667344 -0.212327 0.00133911 0.735683 0.215906 0.330245 1.28543e-07 2
0.0143342 -0.211465 -0.00546786 0.735683 0.215906 0.330245 2.42154e-06 2
0.00345939 -0.211045 -0.00285764 0.735683 0.215906 0.330245 1.10818e-06 2
0.00616047 -0.230021 -0.00217664 0.735683 0.215906 0.330245 4.63211e-08 2
0.00714541 -0.209877 0.000231897 0.735683 0.215906 0.330245 3.63896e-08 2
0.00194054 -0.22637 0.00116618 0.735683 0.215906 0.330245 1.72018e-06 2
0.0058637 -0.231335 0.000698879 0.735683 0.215906 0.330245 3.80365e-07 2
0.00931005 -0.203456 -0.0124832 0.735683 0.215906 0.330245 7.07909e-06 2
0.0060596 -0.231101 -0.00308188 0.735683 0.215906 0.330245 7.87104e-08 2
0.0133801 -0.220747 3.82559e-05 0.735683 0.215906 0.330245 3.4476e-06 2
0.00785045 -0.216594 -0.00370316 0.735683 0.215906 0.330245 2.13117e-07 2
0.0059753 -0.22779 0.000817317 0.735683 0.215906 0.330245 3.80627e-07 2
0.00737477 -0.225139 -0.00908343 0.735683 0.215906 0.330245 3.16167e-06 2
0.00255707 -0.226344 -0.00102309 0.735683 0.215906 0.330245 1.99737e-06 2
0.00567284 -0.221438 -0.0105386 0.735683 0.215906 0.330245 8.75993e-06 2
0.0103687 -0.201012 -0.00287604 0.735683 0.215906 0.330245 1.2791e-06 2
0.00735636 -0.21654 -0.00909848 0.735683 0.215906 0.330245 2.79902e-06 2
0.00345877 -0.203886 -0.00258968 0.735683 0.215906 0.330245 1.26558e-06 2
0.013896 -0.207257 -0.0023694 0.735683 0.215906 0.330245 3.27232e-06 2
0.00789356 -0.218992 -0.00316515 0.735683 0.215906 0.330245 2.13117e-07 2
0.00528902 -0.229393 -0.0110566 0.735683 0.215906 0.330245 1.73053e-06 2
0.012702 -0.204801 -0.00831944 0.735683 0.215906 0.330245 3.98608e-07 2
0.00967437 -0.223698 -0.00364175 0.735683 0.215906 0.330245 7.79632e-07 2
0.011818 -0.207719 -0.00976655 0.735683 0.215906 0.330245 1.68388e-06 2
0.00183896 -0.198918 0.00157752 0.735683 0.215906 0.330245 3.82608e-06 2
0.00785429 -0.220142 -0.00382703 0.735683 0.215906 0.330245 1.72569e-07 2
0.00964796 -0.201542 -0.0168562 0.735683 0.215906 0.330245 5.9211e-06 2
0.00736441 -0.21891 -0.00909702 0.735683 0.215906 0.330245 2.79902e-06 2
0.00557009 -0.208642 -0.0106537 0.735683 0.215906 0.330245 5.91634e-06 2
0.00697847 -0.219627 0.000601295 0.735683 0.215906 0.330245 3.75101e-08 2
0.0123836 -0.218024 0.000935211 0.735683 0.215906 0.330245 9.01154e-07 2
0.00287139 -0.219495 0.00125469 0.735683 0.215906 0.330245 2.30752e-06 2
0.00987379 -0.225727 -0.00780751 0.735683 0.215906 0.330245 7.81889e-07 2
0.0147611 -0.202114 -0.0116003 0.735683 0.215906 0.330245 5.30008e-06 2
0.00726063 -0.21113 -0.00919275 0.735683 0.215906 0.330245 2.96017e-06 2
0.0158791 -0.224202 -0.00218811 0.735683 0.215906 0.330245 1.155e-06 2
-2.52931e-06 -0.214835 -0.00123778 0.735683 0.215906 0.330245 2.18346e-06 2
0.00804265 -0.224861 -0.000626367 0.735683 0.215906 0.330245 4.13424e-07 2
0.00339412 -0.205078 -0.00364295 0.735683 0.215906 0.330245 1.10627e-06 2
0.00896259 -0.218056 0.00117212 0.735683 0.215906 0.330245 9.52465e-08 2
0.00784672 -0.226262 0.000519611 0.735683 0.215906 0.330245 4.66527e-07 2
0.0196397 -0.221005 -0.0074716 0.735683 0.215906 0.330245 2.63828e-07 2
0.0174248 -0.229179 -0.00589478 0.735683 0.215906 0.330245 7.2425e-06 2
0.00733661 -0.206208 0.00101966 0.735683 0.215906 0.330245 1.9445e-07 2
0.0137734 -0.207325 0.00144995 0.735683 0.215906 0.330245 3.80707e-06 2
0.00687351 -0.206178 0.00239069 0.735683 0.215906 0.330245 4.34941e-07 2
0.0172132 -0.214182 -0.00748578 0.735683 0.215906 0.330245 6.60372e-06 2
0.0145032 -0.230667 0.00213609 0.735683 0.215906 0.330245 5.34113e-06 2
0.00811779 -0.224725 -0.0019119 0.735683 0.215906 0.330245 5.01586e-08 2
0.00796172 -0.225998 -0.00272441 0.735683 0.215906 0.330245 1.45404e-07 2
0.00341132 -0.219403 -0.00402593 0.735683 0.215906 0.330245 6.13175e-07 2
0.00707516 -0.221924 -0.000630808 0.735683 0.215906 0.330245 3.49445e-08 2
0.00806451 -0.213104 -0.00163477 0.735683 0.215906 0.330245 9.63377e-08 2
0.00346339 -0.200161 -0.00232674 0.735683 0.215906 0.330245 1.42352e-06 2
0.0181395 -0.228111 0.000916784 0.735683 0.215906 0.330245 4.26579e-06 2
0.0136875 -0.198677 0.00173309 0.735683 0.215906 0.330245 3.12393e-06 2
0.0109116 -0.229709 0.00333131 0.735683 0.215906 0.330245 1.49904e-06 2
0.00784639 -0.212983 -0.00357932 0.735683 0.215906 0.330245 2.66968e-07 2
0.00164761 -0.203789 -0.00602449 0.735683 0.215906 0.330245 1.74744e-06 2
0.0140568 -0.215929 -0.000463846 0.735683 0.215906 0.330245 1.67534e-06 2
0.0118719 -0.199284 -0.00957748 0.735683 0.215906 0.330245 2.21554e-06 2
0.0138771 -0.205033 -0.0130474 0.735683 0.215906 0.330245 4.00543e-06 2
0.00789796 -0.215451 -0.00291521 0.735683 0.215906 0.330245 2.53665e-07 2
0.0106714 -0.212031 -0.00639312 0.735683 0.215906 0.330245 8.76674e-07 2
0.010041 -0.219767 -0.00746111 0.735683 0.215906 0.330245 1.14261e-06 2
0.000866472 -0.227493 -0.00482401 0.735683 0.215906 0.330245 3.09884e-06 2
0.00433772 -0.229956 -0.00479919 0.735683 0.215906 0.330245 1.01832e-06 2
0.0178497 -0.21749 -0.00481878 0.735683 0.215906 0.330245 3.82497e-06 2
0.0108484 -0.222882 -0.00762676 0.735683 0.215906 0.330245 2.77365e-06 2
0.00495085 -0.231275 0.00340142 0.735683 0.215906 0.330245 4.24604e-07 2
0.0066823 -0.209847 0.00160293 0.735683 0.215906 0.330245 1.28543e-07 2
0.00607853 -0.230123 -0.000648426 0.735683 0.215906 0.330245 3.36405e-07 2
0.00619331 -0.231161 -0.00221548 0.735683 0.215906 0.330245 3.21248e-08 2
0.00616925 -0.227562 -0.00191511 0.735683 0.215906 0.330245 5.45033e-08 2
0.00259713 -0.226179 -0.00284517 0.735683 0.215906 0.330245 8.19358e-07 2
0.00605998 -0.226169 -0.00282188 0.735683 0.215906 0.330245 1.81697e-07 2
0.00624637 -0.226254 -0.00161419 0.735683 0.215906 0.330245 7.41579e-08 2
0.0061228 -0.225046 -0.00030454 0.735683 0.215906 0.330245 5.66756e-08 2
0.00617124 -0.22639 -0.000328661 0.735683 0.215906 0.330245 3.37302e-07 2
0.00817819 -0.227069 -0.00924981 0.735683 0.215906 0.330245 2.0819e-06 2
0.00713654 -0.212357 -3.19225e-05 0.735683 0.215906 0.330245 3.63896e-08 2
0.0149927 -0.229961 -0.0130216 0.735683 0.215906 0.330245 4.50273e-06 2
0.00878325 -0.227915 -0.00331008 0.735683 0.215906 0.330245 1.87924e-07 2
0.0168618 -0.21062 -0.00501544 0.735683 0.215906 0.330245 5.3283e-06 2
0.00814524 -0.215547 -0.00169499 0.735683 0.215906 0.330245 9.1537e-08 2
0.007007 -0.220726 -0.000665012 0.735683 0.215906 0.330245 4.31552e-08 2
0.00706202 -0.217133 -0.000433565 0.735683 0.215906 0.330245 3.59527e-08 2
0.0104373 -0.203554 -0.00195313 0.735683 0.215906 0.330245 1.2802e-06 2
0.0079869 -0.221245 0.000826883 0.735683 0.215906 0.330245 3.18572e-07 2
0.0086902 -0.228027 -0.00146884 0.735683 0.215906 0.330245 4.41618e-07 2
0.00750236 -0.226572 -0.0141556 0.735683 0.215906 0.330245 5.36529e-06 2
