ply
format ascii 1.0
comment Created by Open3D
element vertex 781
property float32 x
property float32 y
property float32 z
property float32 red
property float32 green
property float32 blue
property uint8 segmentation
end_header
0.00539758 -0.00305616 0.00373479 0.776471 0.776471 0.815686 0
0.0472979 -0.0749384 -0.00385502 0.776471 0.776471 0.815686 0
0.040035 -0.0466213 0.00295025 0.776471 0.776471 0.815686 0
0.0482188 -0.0976783 -0.00332336 0.776471 0.776471 0.815686 0
0.0431023 -0.10918 0.00472119 0.776471 0.776471 0.815686 0
0.0396875 -0.143829 -0.00114113 0.776471 0.776471 0.815686 0
0.0458395 -0.172828 -0.00455245 0.776471 0.776471 0.815686 0
0.0396875 -0.149746 -0.00182114 0.776471 0.776471 0.815686 0
0.0410075 -0.0838137 -0.00351171 0.776471 0.776471 0.815686 0
0.0335474 -0.00630883 -0.00325056 0.776471 0.776471 0.815686 0
0.0484072 -0.158199 -0.00321455 0.776471 0.776471 0.815686 0
0.0488947 -0.0527601 -0.0029331 0.776471 0.776471 0.815686 0
0.0449498 -0.0681734 0.00521071 0.776471 0.776471 0.815686 0
0 0.00325044 0.00240527 0.776471 0.776471 0.815686 0
0.0483257 -0.092408 -0.00326162 0.776471 0.776471 0.815686 0
0.0411461 -0.103855 0.00359174 0.776471 0.776471 0.815686 0
0.0441808 -0.0764982 0.00534385 0.776471 0.776471 0.815686 0
0.0409413 -0.0816675 -0.00347353 0.776471 0.776471 0.815686 0
0.0459061 -0.0864047 0.00465857 0.776471 0.776471 0.815686 0
0.0492125 -0.112249 0.00208647 0.776471 0.776471 0.815686 0
0.0492125 -0.0984092 0.000130575 0.776471 0.776471 0.815686 0
0.0103695 -0.0047625 -0.00240527 0.776471 0.776471 0.815686 0
0.0318456 -0.00585679 -0.00300598 0.776471 0.776471 0.815686 0
0.0485235 -0.042656 -0.00314744 0.776471 0.776471 0.815686 0
0.0482969 -0.132908 0.00327823 0.776471 0.776471 0.815686 0
0.0435298 -0.0231253 0.00496801 0.776471 0.776471 0.815686 0
0.041206 -0.122632 -0.00362633 0.776471 0.776471 0.815686 0
0.0396875 -0.123482 0.00173447 0.776471 0.776471 0.815686 0
0.0450261 -0.0320757 -0.00516665 0.776471 0.776471 0.815686 0
0.0466111 -0.12338 -0.00425155 0.776471 0.776471 0.815686 0
0.0492125 -0.0948229 -0.00240527 0.776471 0.776471 0.815686 0
0.0464503 -0.176211 0.00323084 0.776471 0.776471 0.815686 0
0.00144762 0.00247518 -0.00407022 0.776471 0.776471 0.815686 0
0.022004 -0.00197797 -0.00435728 0.776471 0.776471 0.815686 0
0.0422291 -0.0435013 -0.00421703 0.776471 0.776471 0.815686 0
0.0492125 -0.0503184 -0.000752432 0.776471 0.776471 0.815686 0
0.0399544 -0.124364 0.00290373 0.776471 0.776471 0.815686 0
0.0409413 -0.0322515 -0.00347353 0.776471 0.776471 0.815686 0
0.0492125 -0.0643385 -0.00227601 0.776471 0.776471 0.815686 0
0.0398778 -0.102633 -0.00285951 0.776471 0.776471 0.815686 0
0.040719 -0.0875781 -0.00334518 0.776471 0.776471 0.815686 0
0.0492125 -0.055956 -0.000412959 0.776471 0.776471 0.815686 0
0.0405551 -0.104097 0.00325056 0.776471 0.776471 0.815686 0
0.00310884 0.00148697 0.00464076 0.776471 0.776471 0.815686 0
0.0454167 -0.0697051 0.00494112 0.776471 0.776471 0.815686 0
0.0396875 -0.100981 -0.00240527 0.776471 0.776471 0.815686 0
0.00783365 -0.00351183 -0.00347171 0.776471 0.776471 0.815686 0
0.039781 -0.00123713 0.00325056 0.776471 0.776471 0.815686 0
0.0287579 0.00023132 0.0051978 0.776471 0.776471 0.815686 0
0.0421716 -0.111956 -0.00418385 0.776471 0.776471 0.815686 0
0.0396875 -0.107884 -0.00233654 0.776471 0.776471 0.815686 0
0.04631 -0.00773824 0.000975858 0.776471 0.776471 0.815686 0
0.0492125 -0.0460492 0.000426527 0.776471 0.776471 0.815686 0
0.0405385 -0.0164522 -0.00336899 0.776471 0.776471 0.815686 0
0.00191666 -0.00439575 -0.00296137 0.776471 0.776471 0.815686 0
0.0432887 -0.0655913 0.00482877 0.776471 0.776471 0.815686 0
0.0422229 -0.0984447 -0.00421345 0.776471 0.776471 0.815686 0
0.0405385 -0.138173 -0.00324098 0.776471 0.776471 0.815686 0
0.041645 -0.0057609 0.00435654 0.776471 0.776471 0.815686 0
0.0464285 -0.0696954 -0.00435699 0.776471 0.776471 0.815686 0
0.0427397 -0.0544306 0.00451184 0.776471 0.776471 0.815686 0
0.0396875 -0.123542 -0.000130575 0.776471 0.776471 0.815686 0
0.0484072 -0.16327 -0.00321455 0.776471 0.776471 0.815686 0
0.0155345 0.0047625 0.00173042 0.776471 0.776471 0.815686 0
0.0492125 -0.116215 0.0012791 0.776471 0.776471 0.815686 0
0.041027 -0.0612522 0.00352298 0.776471 0.776471 0.815686 0
0.00225885 0.0047625 -0.00136093 0.776471 0.776471 0.815686 0
0.0492125 -0.109172 -0.000810094 0.776471 0.776471 0.815686 0
0.0433355 -0.0840749 0.00485583 0.776471 0.776471 0.815686 0
0.0401137 -0.0343215 -0.00299571 0.776471 0.776471 0.815686 0
0.0454167 -0.0615112 0.00494112 0.776471 0.776471 0.815686 0
0.0484072 -0.173675 0.00320251 0.776471 0.776471 0.815686 0
0.0214003 0.0047625 -0.00232328 0.776471 0.776471 0.815686 0
0.0492125 -0.0941981 -0.00214159 0.776471 0.776471 0.815686 0
0.0492125 -0.0744336 0.000593592 0.776471 0.776471 0.815686 0
0.0396875 -0.0916337 0.000597791 0.776471 0.776471 0.815686 0
0.0396875 -0.166586 -0.00182114 0.776471 0.776471 0.815686 0
0.034976 -0.00765992 -0.00309245 0.776471 0.776471 0.815686 0
0.0159864 -0.00132988 0.00473145 0.776471 0.776471 0.815686 0
0.0463984 -0.0839591 0.00437436 0.776471 0.776471 0.815686 0
0.0439197 -0.0416128 0.00519308 0.776471 0.776471 0.815686 0
0.00503665 0.00155987 0.00459867 0.776471 0.776471 0.815686 0
0.0492125 -0.0354087 0.000385317 0.776471 0.776471 0.815686 0
0.0492125 -0.091449 0.000782451 0.776471 0.776471 0.815686 0
0.0395078 -0.0169962 -0.00240527 0.776471 0.776471 0.815686 0
0.0423665 -0.0389233 0.00429636 0.776471 0.776471 0.815686 0
0.0396875 -0.139602 -0.00182114 0.776471 0.776471 0.815686 0
0.0492125 -0.114162 0.000782451 0.776471 0.776471 0.815686 0
0.0485733 -0.016747 -0.00301403 0.776471 0.776471 0.815686 0
0.0396875 -0.0451919 -0.00196722 0.776471 0.776471 0.815686 0
0.0416163 -0.0877019 0.00386323 0.776471 0.776471 0.815686 0
0.046744 -0.10836 0.0041748 0.776471 0.776471 0.815686 0
0.0305505 -0.00265274 0.00443614 0.776471 0.776471 0.815686 0
0.04768 -0.0820113 0.00363443 0.776471 0.776471 0.815686 0
0.0441808 -0.0964507 -0.00534385 0.776471 0.776471 0.815686 0
0.0411245 -0.0446975 0.00357927 0.776471 0.776471 0.815686 0
0.0437 -0.103608 0.00506627 0.776471 0.776471 0.815686 0
0.0434833 -0.142399 -0.00494112 0.776471 0.776471 0.815686 0
0.0439197 -0.0265956 -0.00519308 0.776471 0.776471 0.815686 0
0.0423199 -0.13413 0.00426944 0.776471 0.776471 0.815686 0
0.0476992 -0.073357 0.00362332 0.776471 0.776471 0.815686 0
0.0190528 -0.0047625 0.00255634 0.776471 0.776471 0.815686 0
0.0396875 -0.0818652 -0.000771809 0.776471 0.776471 0.815686 0
0.0450034 -0.0343215 -0.00517973 0.776471 0.776471 0.815686 0
0.0170116 0.00313507 0.00368923 0.776471 0.776471 0.815686 0
0.0492125 -0.0600228 -0.00178124 0.776471 0.776471 0.815686 0
0.0407997 -0.0266782 -0.00339175 0.776471 0.776471 0.815686 0
0.0396875 -0.109897 0.000103974 0.776471 0.776471 0.815686 0
0.0454973 -0.110183 -0.00489459 0.776471 0.776471 0.815686 0
0.0478865 -0.170878 -0.00213609 0.776471 0.776471 0.815686 0
0.0129053 -0.00208785 -0.00429384 0.776471 0.776471 0.815686 0
0.0479418 -0.0170364 -0.0033918 0.776471 0.776471 0.815686 0
0.0425046 -0.0302232 0.0043761 0.776471 0.776471 0.815686 0
0.0463098 -0.0250691 -0.00442553 0.776471 0.776471 0.815686 0
0.0434833 -0.16015 -0.00494112 0.776471 0.776471 0.815686 0
0.0464285 -0.136482 -0.00435699 0.776471 0.776471 0.815686 0
0.0423524 -0.0544173 -0.00428819 0.776471 0.776471 0.815686 0
0.0464082 -0.100186 0.00436868 0.776471 0.776471 0.815686 0
0.0396875 -0.0798122 0.000954686 0.776471 0.776471 0.815686 0
0.0434618 -0.10606 -0.00492875 0.776471 0.776471 0.815686 0
0.0396875 -0.0404455 0.00161901 0.776471 0.776471 0.815686 0
0.0492125 -0.0684964 0.00258697 0.776471 0.776471 0.815686 0
0.0454167 -0.121267 0.00494112 0.776471 0.776471 0.815686 0
0.0481123 -0.101265 -0.00338484 0.776471 0.776471 0.815686 0
0.0476829 -0.116207 -0.00363276 0.776471 0.776471 0.815686 0
0 -0.00402318 0.00152482 0.776471 0.776471 0.815686 0
0.0396875 -0.0590121 0.00241091 0.776471 0.776471 0.815686 0
0.0396875 -0.0746541 5.42813e-05 0.776471 0.776471 0.815686 0
0.0396875 -0.0259647 0.000676377 0.776471 0.776471 0.815686 0
0.0481461 -0.0139414 0.00299802 0.776471 0.776471 0.815686 0
0.0481461 -0.174259 0.00331847 0.776471 0.776471 0.815686 0
0.0407276 -0.051693 -0.00335016 0.776471 0.776471 0.815686 0
0.0272752 -0.00266699 0.00404706 0.776471 0.776471 0.815686 0
0.0454973 -0.0668728 -0.00489458 0.776471 0.776471 0.815686 0
0.036707 -0.00627819 -0.00435699 0.776471 0.776471 0.815686 0
0.0456102 -0.0866715 -0.0048294 0.776471 0.776471 0.815686 0
0 -0.000820731 -0.00055934 0.776471 0.776471 0.815686 0
0.0423117 -0.172007 0.00390304 0.776471 0.776471 0.815686 0
0.0317691 0.00383457 0.00155999 0.776471 0.776471 0.815686 0
0.0481461 -0.171984 -0.00267439 0.776471 0.776471 0.815686 0
0.0485235 -0.0198334 -0.00314744 0.776471 0.776471 0.815686 0
0.0405551 -0.162672 0.00325056 0.776471 0.776471 0.815686 0
0.0492125 -0.0948024 0.000130575 0.776471 0.776471 0.815686 0
0.047562 -0.0249051 0.00370258 0.776471 0.776471 0.815686 0
0.0399544 -0.108588 0.00290373 0.776471 0.776471 0.815686 0
0.0396875 -0.026736 -0.000970224 0.776471 0.776471 0.815686 0
0.0186881 -0.00383771 -0.00328356 0.776471 0.776471 0.815686 0
0.0440584 -0.0688598 0.00527318 0.776471 0.776471 0.815686 0
0.0469221 -0.110863 0.00407198 0.776471 0.776471 0.815686 0
0.0473008 -0.0537112 0.00385335 0.776471 0.776471 0.815686 0
0.0446235 -0.0426349 -0.00539909 0.776471 0.776471 0.815686 0
0.0483257 -0.0631306 -0.00326162 0.776471 0.776471 0.815686 0
0.0422291 -0.173675 -0.00421601 0.776471 0.776471 0.815686 0
0.0408236 -0.136684 0.00340555 0.776471 0.776471 0.815686 0
0.047147 -0.0450802 -0.00394215 0.776471 0.776471 0.815686 0
0.0483257 -0.0863496 -0.00326162 0.776471 0.776471 0.815686 0
0.0396875 -0.0829684 -0.000130575 0.776471 0.776471 0.815686 0
0.048672 -0.093373 0.0030617 0.776471 0.776471 0.815686 0
0.0474519 -0.11366 -0.00376612 0.776471 0.776471 0.815686 0
0.0404039 -0.000905527 0.00286554 0.776471 0.776471 0.815686 0
0.0492125 -0.030823 -0.000752868 0.776471 0.776471 0.815686 0
0.0446235 -0.0849202 -0.00539908 0.776471 0.776471 0.815686 0
0.0396875 -0.0507459 5.42813e-05 0.776471 0.776471 0.815686 0
0.0435575 -0.0488868 0.00498397 0.776471 0.776471 0.815686 0
0.0492125 -0.0600548 0.00142989 0.776471 0.776471 0.815686 0
0.0439356 -0.0299768 0.00520227 0.776471 0.776471 0.815686 0
0.0401138 -0.0176026 0.00306713 0.776471 0.776471 0.815686 0
0.049057 -0.0926799 0.0028394 0.776471 0.776471 0.815686 0
0.0396875 -0.117041 0.000975858 0.776471 0.776471 0.815686 0
0.0285727 0.0045128 -0.00103614 0.776471 0.776471 0.815686 0
0.0427688 -0.171723 -0.00403693 0.776471 0.776471 0.815686 0
0.0492125 -0.0806135 0.00117947 0.776471 0.776471 0.815686 0
0.0407115 -0.0592952 0.00334085 0.776471 0.776471 0.815686 0
0.0492125 -0.0952875 0.000754605 0.776471 0.776471 0.815686 0
0.0492125 -0.0773426 0.000913252 0.776471 0.776471 0.815686 0
0.0411128 -0.113057 0.00357255 0.776471 0.776471 0.815686 0
0.0450051 -0.0635138 0.00517876 0.776471 0.776471 0.815686 0
0.0485602 -0.0508398 0.00312627 0.776471 0.776471 0.815686 0
0.0466885 -0.0603524 -0.00420687 0.776471 0.776471 0.815686 0
0.0417848 -0.0587164 0.00396053 0.776471 0.776471 0.815686 0
0.0481753 -0.0122258 -0.00102121 0.776471 0.776471 0.815686 0
0.0138148 -0.0047625 -0.000714821 0.776471 0.776471 0.815686 0
0.0446235 -0.0801709 -0.00539908 0.776471 0.776471 0.815686 0
0.00981549 0.00247518 -0.00407022 0.776471 0.776471 0.815686 0
0.000456551 0.00213853 -0.00426458 0.776471 0.776471 0.815686 0
0.0473008 -0.0121557 -0.00323368 0.776471 0.776471 0.815686 0
0.0462755 -0.0284252 -0.0044453 0.776471 0.776471 0.815686 0
0.0464555 -0.114244 0.00434137 0.776471 0.776471 0.815686 0
0.0397444 -0.105419 -0.00278248 0.776471 0.776471 0.815686 0
0.0396875 -0.0844612 -0.00261912 0.776471 0.776471 0.815686 0
0.0411198 -0.17003 -0.00209963 0.776471 0.776471 0.815686 0
0.00393059 -0.00156904 -0.00459338 0.776471 0.776471 0.815686 0
0.0412566 -0.073174 0.00365554 0.776471 0.776471 0.815686 0
0.0396875 -0.102664 -0.000868902 0.776471 0.776471 0.815686 0
0.0162865 0.00161935 0.00456433 0.776471 0.776471 0.815686 0
0.0405551 -0.0491571 0.00325056 0.776471 0.776471 0.815686 0
0.0396875 -0.0446672 -0.00266079 0.776471 0.776471 0.815686 0
0.0396875 -0.0863496 0.000714709 0.776471 0.776471 0.815686 0
0.00485525 0.00231504 -0.00416267 0.776471 0.776471 0.815686 0
0.0396875 -0.0191578 0.00015358 0.776471 0.776471 0.815686 0
0.0411246 -0.0952233 -0.00357932 0.776471 0.776471 0.815686 0
0.0397494 -0.173414 -0.0022746 0.776471 0.776471 0.815686 0
0.0417848 -0.05449 0.00396053 0.776471 0.776471 0.815686 0
0.0396875 -0.0350619 0.00015912 0.776471 0.776471 0.815686 0
0.0396875 -0.031746 -0.000124941 0.776471 0.776471 0.815686 0
0.0396875 -0.0390356 0.000967112 0.776471 0.776471 0.815686 0
0.0484816 -0.109189 -0.00317162 0.776471 0.776471 0.815686 0
0.0413092 -0.119133 0.00368593 0.776471 0.776471 0.815686 0
0.0468808 -0.114505 0.00409584 0.776471 0.776471 0.815686 0
0.0492125 -0.0249917 0.00149218 0.776471 0.776471 0.815686 0
0.0407072 -0.150105 -0.00333835 0.776471 0.776471 0.815686 0
0.0396875 -0.125694 0.00238152 0.776471 0.776471 0.815686 0
0.0417848 -0.0291315 0.00396053 0.776471 0.776471 0.815686 0
0.0439356 -0.125494 0.00520227 0.776471 0.776471 0.815686 0
0.0459874 -0.0266832 -0.00461163 0.776471 0.776471 0.815686 0
0.0450261 -0.0878348 -0.00516665 0.776471 0.776471 0.815686 0
0.0396875 -0.0739315 -0.00196722 0.776471 0.776471 0.815686 0
0.0432149 -0.0939571 -0.00478618 0.776471 0.776471 0.815686 0
0.0483257 -0.0810618 -0.00326162 0.776471 0.776471 0.815686 0
0.0492125 -0.090601 -0.00155999 0.776471 0.776471 0.815686 0
0.0437386 -0.155924 -0.00508855 0.776471 0.776471 0.815686 0
0.0492125 -0.0565698 -0.000714709 0.776471 0.776471 0.815686 0
0.0454167 -0.154818 -0.00494112 0.776471 0.776471 0.815686 0
0.0492125 -0.0790032 -0.00266642 0.776471 0.776471 0.815686 0
0.0396875 -0.128174 -0.00140095 0.776471 0.776471 0.815686 0
0.00720299 -0.000975979 -0.00493578 0.776471 0.776471 0.815686 0
0.0396875 -0.110863 -0.00266642 0.776471 0.776471 0.815686 0
0.0436633 -0.0668644 0.00504507 0.776471 0.776471 0.815686 0
0.0476993 -0.067285 -0.00362327 0.776471 0.776471 0.815686 0
0.0416248 -0.119586 -0.00386813 0.776471 0.776471 0.815686 0
0.0422291 -0.16213 0.00421703 0.776471 0.776471 0.815686 0
0.0470078 -0.11366 -0.00402254 0.776471 0.776471 0.815686 0
0.0492125 -0.0553583 0.00138016 0.776471 0.776471 0.815686 0
0.01518 0.0047625 -0.00240527 0.776471 0.776471 0.815686 0
0.0396875 -0.114565 -0.000317205 0.776471 0.776471 0.815686 0
0.0456405 -0.0806937 0.00481191 0.776471 0.776471 0.815686 0
0.0396875 -0.09929 0.000423602 0.776471 0.776471 0.815686 0
0.0492125 -0.0529836 -0.00155999 0.776471 0.776471 0.815686 0
0.0132171 -0.0047625 0.00264303 0.776471 0.776471 0.815686 0
0.00841778 -0.00461826 -0.00283291 0.776471 0.776471 0.815686 0
0.0484072 -0.109339 -0.00321455 0.776471 0.776471 0.815686 0
0.0396875 -0.0973383 -0.000288512 0.776471 0.776471 0.815686 0
0.0464555 -0.10067 -0.00434137 0.776471 0.776471 0.815686 0
0.0374186 -0.010737 0.00296671 0.776471 0.776471 0.815686 0
0.0424571 -0.0351651 -0.00434863 0.776471 0.776471 0.815686 0
0.0471563 -0.0498319 0.0039368 0.776471 0.776471 0.815686 0
0.0396875 -0.0257503 -0.00240527 0.776471 0.776471 0.815686 0
0.0426199 -0.116627 0.00444263 0.776471 0.776471 0.815686 0
0.0317459 -0.00630464 -0.000946241 0.776471 0.776471 0.815686 0
0.0444887 -0.0780668 0.00547689 0.776471 0.776471 0.815686 0
0.0449431 -0.0669081 0.00521455 0.776471 0.776471 0.815686 0
0.0492125 -0.0654293 0.00240682 0.776471 0.776471 0.815686 0
0.0434506 -0.114259 -0.00492225 0.776471 0.776471 0.815686 0
0.0249865 0.00319647 0.00365378 0.776471 0.776471 0.815686 0
0.0492125 -0.0758633 0.00202327 0.776471 0.776471 0.815686 0
0.0197918 -0.0047625 -0.00154091 0.776471 0.776471 0.815686 0
0.0480546 -0.115352 -0.00341814 0.776471 0.776471 0.815686 0
0.0492125 -0.114244 -0.000810094 0.776471 0.776471 0.815686 0
0.0492125 -0.0578536 0.00148464 0.776471 0.776471 0.815686 0
0.0422291 -0.0297156 0.00421703 0.776471 0.776471 0.815686 0
0.0401138 -0.0450198 0.00299575 0.776471 0.776471 0.815686 0
0.0403673 -0.0687051 0.00314213 0.776471 0.776471 0.815686 0
0.0402577 -0.171132 -0.000201647 0.776471 0.776471 0.815686 0
0.0396875 -0.134071 0.00239091 0.776471 0.776471 0.815686 0
0.0396933 -0.164377 -0.00275295 0.776471 0.776471 0.815686 0
0.0433355 -0.118235 0.00485583 0.776471 0.776471 0.815686 0
0.00963075 -0.0047625 0.00235656 0.776471 0.776471 0.815686 0
0.0481461 -0.0971615 -0.00336532 0.776471 0.776471 0.815686 0
0.0492125 -0.117041 1.5996e-05 0.776471 0.776471 0.815686 0
0.047562 -0.0984447 0.00370258 0.776471 0.776471 0.815686 0
0.0417686 -0.0245992 0.00395116 0.776471 0.776471 0.815686 0
0.0438847 -0.0260071 -0.00517289 0.776471 0.776471 0.815686 0
0.0424903 -0.0508477 -0.0043678 0.776471 0.776471 0.815686 0
0.0423626 -0.0924773 0.00429408 0.776471 0.776471 0.815686 0
0.0492125 -0.0332982 -0.00117941 0.776471 0.776471 0.815686 0
0.0485235 -0.0908371 -0.00314744 0.776471 0.776471 0.815686 0
0.043556 -0.143829 -0.00498312 0.776471 0.776471 0.815686 0
0.00742769 -0.00324082 -0.00362817 0.776471 0.776471 0.815686 0
0.0396875 -0.0226467 -0.000944467 0.776471 0.776471 0.815686 0
0.0492125 -0.0643722 -0.000714709 0.776471 0.776471 0.815686 0
0.00204532 0.0047625 0.00125 0.776471 0.776471 0.815686 0
0.0484072 -0.0711345 -0.00321455 0.776471 0.776471 0.815686 0
0.0396875 -0.0291268 0.000720343 0.776471 0.776471 0.815686 0
0.00126287 -0.0047625 0.000665992 0.776471 0.776471 0.815686 0
0.0492125 -0.0227991 0.000467862 0.776471 0.776471 0.815686 0
0.0464555 -0.0316673 -0.00434137 0.776471 0.776471 0.815686 0
0.0394781 -0.0166566 -0.000130575 0.776471 0.776471 0.815686 0
0.044765 -0.0110165 0.00435699 0.776471 0.776471 0.815686 0
0.0396875 -0.129887 -0.00179303 0.776471 0.776471 0.815686 0
0.0203895 -0.00218849 0.00423573 0.776471 0.776471 0.815686 0
0.0492125 -0.0246439 0.000119094 0.776471 0.776471 0.815686 0
0.0389862 -0.0147617 0.000975858 0.776471 0.776471 0.815686 0
0.0416992 -0.156009 -0.00391108 0.776471 0.776471 0.815686 0
0.0396875 -0.102047 -0.000970224 0.776471 0.776471 0.815686 0
0.0466886 -0.12388 0.00420682 0.776471 0.776471 0.815686 0
0.044526 -0.0878046 -0.00545536 0.776471 0.776471 0.815686 0
0.0223673 0.0047625 -0.000440562 0.776471 0.776471 0.815686 0
0.0396875 -0.0601151 0.00136325 0.776471 0.776471 0.815686 0
0.00975434 -0.0047625 0.000665992 0.776471 0.776471 0.815686 0
0.0405551 -0.0249051 -0.00325056 0.776471 0.776471 0.815686 0
0.0432312 -0.128934 0.00479557 0.776471 0.776471 0.815686 0
0.0424715 -0.110018 -0.00435699 0.776471 0.776471 0.815686 0
0.027014 -0.00490371 0.00240527 0.776471 0.776471 0.815686 0
0.0456583 -0.0583095 0.00480163 0.776471 0.776471 0.815686 0
0.042526 -0.085861 0.00438843 0.776471 0.776471 0.815686 0
0.0194065 0.00208774 -0.0042939 0.776471 0.776471 0.815686 0
0.0407928 -0.0559194 0.0033878 0.776471 0.776471 0.815686 0
0.00659855 -0.00121463 0.00479799 0.776471 0.776471 0.815686 0
0 0.00293755 -0.00248535 0.776471 0.776471 0.815686 0
0.0492125 -0.0633569 0.00257557 0.776471 0.776471 0.815686 0
0.0424571 -0.0702892 -0.00434863 0.776471 0.776471 0.815686 0
0.0424715 -0.115089 -0.00435699 0.776471 0.776471 0.815686 0
0.0143348 0.0047625 0.00182114 0.776471 0.776471 0.815686 0
0.0399291 -0.0487688 0.0028891 0.776471 0.776471 0.815686 0
0.0440584 -0.087456 0.00527318 0.776471 0.776471 0.815686 0
0.0411051 -0.120939 0.0035681 0.776471 0.776471 0.815686 0
0.0491187 -0.118943 -0.00280378 0.776471 0.776471 0.815686 0
0.0411047 -0.047927 -0.00356786 0.776471 0.776471 0.815686 0
0.0396875 -0.0550697 -0.000714709 0.776471 0.776471 0.815686 0
0.0470078 -0.148316 -0.00402254 0.776471 0.776471 0.815686 0
0.0492125 -0.0458506 -0.00263094 0.776471 0.776471 0.815686 0
0.0414651 -0.081539 -0.0037759 0.776471 0.776471 0.815686 0
0.0464555 -0.0145005 0.00402656 0.776471 0.776471 0.815686 0
0.0396875 -0.0432401 0.00210231 0.776471 0.776471 0.815686 0
0.0422229 -0.0369942 -0.00421345 0.776471 0.776471 0.815686 0
0.00503665 -0.0047625 -0.00181753 0.776471 0.776471 0.815686 0
0.0442003 -0.129862 0.00535507 0.776471 0.776471 0.815686 0
0.0314396 -0.0061618 -0.000826004 0.776471 0.776471 0.815686 0
0.0396875 -0.0197919 -0.00181551 0.776471 0.776471 0.815686 0
0.0188642 -0.0047625 0.00127143 0.776471 0.776471 0.815686 0
0.0429446 -0.0968614 0.00463009 0.776471 0.776471 0.815686 0
0.049008 -0.0164522 -0.00138387 0.776471 0.776471 0.815686 0
0.0405385 -0.132025 0.00324098 0.776471 0.776471 0.815686 0
0.027562 -0.001179 0.0049168 0.776471 0.776471 0.815686 0
0.0492125 -0.0342928 0.00219466 0.776471 0.776471 0.815686 0
0.0416163 -0.0578167 0.00386323 0.776471 0.776471 0.815686 0
0.0456102 -0.0722409 -0.0048294 0.776471 0.776471 0.815686 0
0.0491187 -0.0248753 -0.00280378 0.776471 0.776471 0.815686 0
0 -0.00197786 0.00216252 0.776471 0.776471 0.815686 0
0.0463118 -0.0990465 0.00442437 0.776471 0.776471 0.815686 0
0.0492125 -0.0787557 0.000869336 0.776471 0.776471 0.815686 0
0.0274626 -0.00494295 0.000978851 0.776471 0.776471 0.815686 0
0.046484 -0.028025 -0.00432491 0.776471 0.776471 0.815686 0
0.0441635 -0.0333824 -0.00533383 0.776471 0.776471 0.815686 0
0.0434833 -0.0333428 -0.00494112 0.776471 0.776471 0.815686 0
0.0396875 -0.0643722 -0.00182114 0.776471 0.776471 0.815686 0
0.00445251 -0.000514398 0.00520227 0.776471 0.776471 0.815686 0
0.0422291 -0.0314606 -0.00421703 0.776471 0.776471 0.815686 0
0 -0.00296698 -0.00257548 0.776471 0.776471 0.815686 0
0.0492125 -0.112607 0.00158073 0.776471 0.776471 0.815686 0
0.044526 -0.0976783 -0.00545536 0.776471 0.776471 0.815686 0
0.0137506 0.00129872 0.00474944 0.776471 0.776471 0.815686 0
0.0407997 -0.072825 -0.00339175 0.776471 0.776471 0.815686 0
0.04768 -0.0871949 0.00363443 0.776471 0.776471 0.815686 0
0.0396875 -0.100599 -0.000826004 0.776471 0.776471 0.815686 0
0.0465038 -0.103978 0.00431349 0.776471 0.776471 0.815686 0
0.00105934 0.000453438 0.00523747 0.776471 0.776471 0.815686 0
0.0424715 -0.084659 -0.00435699 0.776471 0.776471 0.815686 0
0.0492125 -0.0621369 -0.000209089 0.776471 0.776471 0.815686 0
0.0492125 -0.0319578 0.00240682 0.776471 0.776471 0.815686 0
0 -0.00269568 -0.00107521 0.776471 0.776471 0.815686 0
0.0459062 -0.0620233 -0.00465852 0.776471 0.776471 0.815686 0
0.0447107 -0.0974936 0.00534874 0.776471 0.776471 0.815686 0
0.008744 -0.0047625 -3.84316e-05 0.776471 0.776471 0.815686 0
0.0408508 -0.0754818 -0.00342125 0.776471 0.776471 0.815686 0
0.0396875 -0.103368 -0.0025387 0.776471 0.776471 0.815686 0
0.0399544 -0.0221081 -0.00290373 0.776471 0.776471 0.815686 0
0.0488946 -0.0837464 0.00293315 0.776471 0.776471 0.815686 0
0.0396875 -0.084572 0.00107791 0.776471 0.776471 0.815686 0
0.0492125 -0.104367 0.00257894 0.776471 0.776471 0.815686 0
0.0492125 -0.09929 -0.00117941 0.776471 0.776471 0.815686 0
0.0456778 -0.081333 -0.00479038 0.776471 0.776471 0.815686 0
0.047884 -0.0932823 0.00351665 0.776471 0.776471 0.815686 0
0.0396875 -0.107482 -0.000288512 0.776471 0.776471 0.815686 0
0.0483449 -0.0381684 -0.00325056 0.776471 0.776471 0.815686 0
0.0482188 -0.0809425 -0.00332336 0.776471 0.776471 0.815686 0
0.0420192 -0.144674 0.00409584 0.776471 0.776471 0.815686 0
0.0419069 -0.0136807 -0.00452944 0.776471 0.776471 0.815686 0
0.0401138 -0.00340952 0.00408918 0.776471 0.776471 0.815686 0
0.039979 -0.0557629 -0.00291793 0.776471 0.776471 0.815686 0
0.044765 -0.0700543 0.00531742 0.776471 0.776471 0.815686 0
0.0492125 -0.0578356 -0.000789324 0.776471 0.776471 0.815686 0
0.0449777 -0.126485 -0.0051946 0.776471 0.776471 0.815686 0
0.0405385 -0.118731 -0.00324098 0.776471 0.776471 0.815686 0
0.0411367 -0.0599553 0.00358632 0.776471 0.776471 0.815686 0
0.0160253 -0.00156413 -0.00459621 0.776471 0.776471 0.815686 0
0.040408 -0.0908371 0.00316562 0.776471 0.776471 0.815686 0
0.0492125 -0.0693018 0.00134807 0.776471 0.776471 0.815686 0
0.0492125 -0.0917964 -0.000714709 0.776471 0.776471 0.815686 0
0.0391091 -0.0152205 0.000130575 0.776471 0.776471 0.815686 0
0.0450261 -0.123542 -0.00516665 0.776471 0.776471 0.815686 0
0.044659 -0.0928284 -0.0053786 0.776471 0.776471 0.815686 0
0.0400086 -0.07239 0.00293504 0.776471 0.776471 0.815686 0
0.0396875 -0.0653453 0.000130575 0.776471 0.776471 0.815686 0
0.0396875 -0.138173 -0.000771809 0.776471 0.776471 0.815686 0
0.0471015 -0.0891257 0.0039684 0.776471 0.776471 0.815686 0
0.0473008 -0.0458774 0.00385335 0.776471 0.776471 0.815686 0
0.0396875 -0.0679777 -0.000124941 0.776471 0.776471 0.815686 0
0.0396875 -0.106151 -0.00144584 0.776471 0.776471 0.815686 0
0.0441754 -0.0797183 0.00534073 0.776471 0.776471 0.815686 0
0.0425427 -0.161841 0.00439808 0.776471 0.776471 0.815686 0
0.044113 -0.0827004 0.00530469 0.776471 0.776471 0.815686 0
0.0424571 -0.0833159 -0.00434863 0.776471 0.776471 0.815686 0
0.0480686 -0.087785 -0.00341004 0.776471 0.776471 0.815686 0
0.0396875 -0.136482 0.000130575 0.776471 0.776471 0.815686 0
0.0481461 -0.0696671 -0.00336532 0.776471 0.776471 0.815686 0
0.0396875 -0.0498049 -0.00240527 0.776471 0.776471 0.815686 0
0.041645 -0.00814642 -0.00518776 0.776471 0.776471 0.815686 0
0.00139493 0.00264804 0.00397042 0.776471 0.776471 0.815686 0
0.0440906 -0.149168 0.00529178 0.776471 0.776471 0.815686 0
0.0430744 -0.00508924 0.00346347 0.776471 0.776471 0.815686 0
0.0145971 0.0047625 -0.00112787 0.776471 0.776471 0.815686 0
0.0407997 -0.0784503 0.00339175 0.776471 0.776471 0.815686 0
0.0435696 -0.0888544 0.00499095 0.776471 0.776471 0.815686 0
0.0489914 -0.018581 0.00285599 0.776471 0.776471 0.815686 0
0.017977 0.000514398 -0.00520227 0.776471 0.776471 0.815686 0
0.0492125 -0.0381684 0.00250992 0.776471 0.776471 0.815686 0
0.0455393 -0.0528504 -0.00487034 0.776471 0.776471 0.815686 0
0.0396875 -0.096493 0.0024451 0.776471 0.776471 0.815686 0
0.0397252 -0.173544 0.00237038 0.776471 0.776471 0.815686 0
0.0012574 -0.00433702 0.00299528 0.776471 0.776471 0.815686 0
0.00466453 0.0047625 6.75451e-05 0.776471 0.776471 0.815686 0
0.0430744 -0.117886 -0.00470505 0.776471 0.776471 0.815686 0
0.032931 0.002144 -0.00349077 0.776471 0.776471 0.815686 0
0.045817 -0.0477277 0.00471005 0.776471 0.776471 0.815686 0
0.0396875 -0.0498049 0.00182114 0.776471 0.776471 0.815686 0
0.0396875 -0.0745156 0.00240527 0.776471 0.776471 0.815686 0
0.0483449 -0.143829 -0.00325056 0.776471 0.776471 0.815686 0
0.0396875 -0.0922666 -0.000288512 0.776471 0.776471 0.815686 0
0.0407928 -0.112553 0.0033878 0.776471 0.776471 0.815686 0
0.0492125 -0.0215239 -0.00182114 0.776471 0.776471 0.815686 0
0.042852 -0.0128099 -0.00520227 0.776471 0.776471 0.815686 0
0.0492125 -0.0480795 -0.00246906 0.776471 0.776471 0.815686 0
0.0492125 -0.0568328 0.00106671 0.776471 0.776471 0.815686 0
0.0492125 -0.0553476 0.00258622 0.776471 0.776471 0.815686 0
0.0425046 -0.114752 0.0043761 0.776471 0.776471 0.815686 0
0.0154412 -0.0047625 0.00139939 0.776471 0.776471 0.815686 0
0.0420916 -0.0245065 -0.00413763 0.776471 0.776471 0.815686 0
0.047147 -0.0438848 -0.00394215 0.776471 0.776471 0.815686 0
0.0463324 -0.0265369 0.00441248 0.776471 0.776471 0.815686 0
0.0195659 -0.0047625 0.000573296 0.776471 0.776471 0.815686 0
0.0413838 -0.0574218 0.003729 0.776471 0.776471 0.815686 0
0.0315823 -0.00460318 0.00359243 0.776471 0.776471 0.815686 0
0.0454167 -0.0330967 -0.00494112 0.776471 0.776471 0.815686 0
0.0474519 -0.075622 -0.00376612 0.776471 0.776471 0.815686 0
0.0424903 -0.129701 0.0043678 0.776471 0.776471 0.815686 0
0.0424715 -0.0964498 -0.00435699 0.776471 0.776471 0.815686 0
0.0440584 -0.0418107 0.00527318 0.776471 0.776471 0.815686 0
0.039707 -0.173615 -0.00211714 0.776471 0.776471 0.815686 0
0.0492125 -0.0849933 -0.00266642 0.776471 0.776471 0.815686 0
0.0396875 -0.096426 0.000130575 0.776471 0.776471 0.815686 0
0.0400086 -0.0699992 0.00293504 0.776471 0.776471 0.815686 0
0.00065544 0.000693153 -0.00509907 0.776471 0.776471 0.815686 0
0.0492125 -0.047858 -0.0020055 0.776471 0.776471 0.815686 0
0.0420192 -0.0711345 0.00409584 0.776471 0.776471 0.815686 0
0.00953286 -0.0047625 0.00240527 0.776471 0.776471 0.815686 0
0.0409413 -0.0320318 -0.00347353 0.776471 0.776471 0.815686 0
0.0075725 -0.00436132 0.00298125 0.776471 0.776471 0.815686 0
0.0489914 -0.0939571 0.0028773 0.776471 0.776471 0.815686 0
0.0489914 -0.123798 0.0028773 0.776471 0.776471 0.815686 0
0.0325727 0.00364163 0.00263105 0.776471 0.776471 0.815686 0
0.0478907 -0.0340991 0.00351278 0.776471 0.776471 0.815686 0
0.0469169 -0.123617 -0.00407501 0.776471 0.776471 0.815686 0
0.0414931 -0.0983928 -0.00379207 0.776471 0.776471 0.815686 0
0.041645 -0.146365 -0.00387978 0.776471 0.776471 0.815686 0
0.0481123 -0.112783 -0.00338484 0.776471 0.776471 0.815686 0
0.0126194 -0.0047625 0.00048059 0.776471 0.776471 0.815686 0
0.0456102 -0.1778 0.000714709 0.776471 0.776471 0.815686 0
0.047218 -0.00968996 0.00155999 0.776471 0.776471 0.815686 0
0.0368739 -0.00208241 -0.00464733 0.776471 0.776471 0.815686 0
0.0408962 -0.0539363 -0.00344746 0.776471 0.776471 0.815686 0
0.0396875 -0.119965 -0.00182114 0.776471 0.776471 0.815686 0
0.0490576 -0.172568 0.000130575 0.776471 0.776471 0.815686 0
0.0253234 0.0047625 -0.00102972 0.776471 0.776471 0.815686 0
0.0409413 -0.166651 -0.00347353 0.776471 0.776471 0.815686 0
0.0454167 -0.122697 -0.00494112 0.776471 0.776471 0.815686 0
0.0423086 -0.138757 0.0042629 0.776471 0.776471 0.815686 0
0.048672 -0.165222 0.0030617 0.776471 0.776471 0.815686 0
0.0448025 -0.104551 -0.00529574 0.776471 0.776471 0.815686 0
0.0261504 -0.00482815 -0.00188318 0.776471 0.776471 0.815686 0
0.0485235 -0.130565 -0.00314744 0.776471 0.776471 0.815686 0
0.0416992 -0.0377824 -0.00391108 0.776471 0.776471 0.815686 0
0.0396875 -0.164422 -0.0016614 0.776471 0.776471 0.815686 0
0.0442554 -0.103226 0.0053869 0.776471 0.776471 0.815686 0
0.0406362 -0.174259 0.00325056 0.776471 0.776471 0.815686 0
0.0396875 -0.0787916 0.00246991 0.776471 0.776471 0.815686 0
0.00545325 0.00185349 0.00442915 0.776471 0.776471 0.815686 0
0.0492125 -0.0846459 0.000782451 0.776471 0.776471 0.815686 0
0.0413838 -0.0172975 -0.00381168 0.776471 0.776471 0.815686 0
0.0396875 -0.0407248 0.00182114 0.776471 0.776471 0.815686 0
0.0250412 -0.00288542 -0.00383336 0.776471 0.776471 0.815686 0
0.0407997 -0.0570006 0.00339175 0.776471 0.776471 0.815686 0
0.0439197 -0.113399 0.00519308 0.776471 0.776471 0.815686 0
0.0452082 -0.0659999 -0.00506151 0.776471 0.776471 0.815686 0
0.0396875 -0.0604069 0.000130575 0.776471 0.776471 0.815686 0
0.0261599 -0.00345213 -0.0035407 0.776471 0.776471 0.815686 0
0.0482169 -0.0130711 -0.0028409 0.776471 0.776471 0.815686 0
0 0.00073926 0.00121246 0.776471 0.776471 0.815686 0
0.0422229 -0.166913 -0.00421345 0.776471 0.776471 0.815686 0
0.0477656 -0.0916824 -0.00358499 0.776471 0.776471 0.815686 0
0.0410075 -0.0645085 0.00351171 0.776471 0.776471 0.815686 0
0.0396875 -0.0264838 8.57302e-08 0.776471 0.776471 0.815686 0
0.0433355 -0.0677533 -0.00485583 0.776471 0.776471 0.815686 0
0.0409344 -0.15727 0.00346955 0.776471 0.776471 0.815686 0
0.0457262 -0.0922666 -0.00476246 0.776471 0.776471 0.815686 0
0.0461149 -0.0832811 0.00453806 0.776471 0.776471 0.815686 0
0.0492125 -0.136482 -0.00117941 0.776471 0.776471 0.815686 0
0.0463192 -0.0893052 -0.0044201 0.776471 0.776471 0.815686 0
0.0431022 -0.108202 -0.00472114 0.776471 0.776471 0.815686 0
0.0473008 -0.0145585 0.00355747 0.776471 0.776471 0.815686 0
0.0437386 -0.086554 -0.00508855 0.776471 0.776471 0.815686 0
0.040227 -0.104486 0.00306113 0.776471 0.776471 0.815686 0
0.0492125 -0.0800893 0.00240682 0.776471 0.776471 0.815686 0
0.0492125 -0.0559194 -0.00155999 0.776471 0.776471 0.815686 0
0.0492125 -0.111246 0.00138165 0.776471 0.776471 0.815686 0
0.0396875 -0.0964153 -0.00261912 0.776471 0.776471 0.815686 0
0.0492125 -0.0821379 -0.00262653 0.776471 0.776471 0.815686 0
0.0323469 -0.0065426 -0.00277154 0.776471 0.776471 0.815686 0
0.0245735 -0.00272438 0.00392634 0.776471 0.776471 0.815686 0
0.00360723 -0.0047625 -0.000714709 0.776471 0.776471 0.815686 0
0.0470482 -0.0774734 -0.00399919 0.776471 0.776471 0.815686 0
0.0432149 -0.152282 -0.00478618 0.776471 0.776471 0.815686 0
0.0425155 -0.0558389 -0.0043824 0.776471 0.776471 0.815686 0
0.0491187 -0.0352647 -0.00280378 0.776471 0.776471 0.815686 0
0.00739631 0.00352153 -0.00346611 0.776471 0.776471 0.815686 0
0.0447107 -0.126288 0.00534874 0.776471 0.776471 0.815686 0
0.0454932 -0.0839969 0.00489699 0.776471 0.776471 0.815686 0
0.0396875 -0.0490574 0.00232061 0.776471 0.776471 0.815686 0
0.0221826 -0.00165261 0.00454513 0.776471 0.776471 0.815686 0
0.0396875 -0.0834806 -0.000970969 0.776471 0.776471 0.815686 0
0.0407997 -0.162129 0.00339175 0.776471 0.776471 0.815686 0
0.0492125 -0.0722354 -0.00212692 0.776471 0.776471 0.815686 0
0.0463192 -0.0624137 -0.0044201 0.776471 0.776471 0.815686 0
0.0339521 -0.000919688 -0.00490177 0.776471 0.776471 0.815686 0
0.0409413 -0.131875 -0.00347353 0.776471 0.776471 0.815686 0
0.0396875 -0.021814 -0.000771809 0.776471 0.776471 0.815686 0
0.0424903 -0.0474666 -0.0043678 0.776471 0.776471 0.815686 0
0.0191941 -0.00167978 -0.00452944 0.776471 0.776471 0.815686 0
0.0468808 -0.102671 0.00409584 0.776471 0.776471 0.815686 0
0.0483257 -0.0451995 -0.00326162 0.776471 0.776471 0.815686 0
0.0237721 0.000453438 0.00523747 0.776471 0.776471 0.815686 0
0.0396875 -0.0468824 0.000975858 0.776471 0.776471 0.815686 0
0.0401217 -0.109577 -0.00300034 0.776471 0.776471 0.815686 0
0.0423086 -0.0449307 0.0042629 0.776471 0.776471 0.815686 0
0.0145645 -0.00208774 0.0042939 0.776471 0.776471 0.815686 0
0.00445251 -0.00266655 -0.00395973 0.776471 0.776471 0.815686 0
0.0492125 -0.0337238 0.00107759 0.776471 0.776471 0.815686 0
0.0456102 -0.122069 0.0048294 0.776471 0.776471 0.815686 0
0.0463192 -0.051655 -0.0044201 0.776471 0.776471 0.815686 0
0.0439197 -0.014655 -0.00548235 0.776471 0.776471 0.815686 0
0.0492125 -0.0995885 0.00138016 0.776471 0.776471 0.815686 0
0.0196676 -0.00389487 -0.00325056 0.776471 0.776471 0.815686 0
0.0411364 -0.0384379 -0.00358615 0.776471 0.776471 0.815686 0
0.0403751 -0.0975377 0.00314661 0.776471 0.776471 0.815686 0
0.0439197 -0.17238 0.00472564 0.776471 0.776471 0.815686 0
0.0396875 -0.0209873 -0.000124941 0.776471 0.776471 0.815686 0
0.0482079 -0.169448 -0.00163642 0.776471 0.776471 0.815686 0
0.0492125 -0.121851 0.00131451 0.776471 0.776471 0.815686 0
0.0398538 -0.108588 -0.00284566 0.776471 0.776471 0.815686 0
0.00380471 -0.000337882 0.00530419 0.776471 0.776471 0.815686 0
0.0415951 -0.0967482 -0.00385101 0.776471 0.776471 0.815686 0
0.0447613 -0.038641 0.00531955 0.776471 0.776471 0.815686 0
0.0393896 -0.0105352 0.00396499 0.776471 0.776471 0.815686 0
0.0492125 -0.0482019 -0.00240527 0.776471 0.776471 0.815686 0
0.0483313 -0.114369 0.00325841 0.776471 0.776471 0.815686 0
0.0339621 -0.0034156 0.00479567 0.776471 0.776471 0.815686 0
0.0492125 -0.0747133 0.00197786 0.776471 0.776471 0.815686 0
0.0396875 -0.0891799 -0.00065256 0.776471 0.776471 0.815686 0
0.0486098 -0.0885004 -0.00309757 0.776471 0.776471 0.815686 0
0 -0.00117086 -0.00260003 0.776471 0.776471 0.815686 0
0.0432149 -0.0552606 -0.00478618 0.776471 0.776471 0.815686 0
0.0404056 -0.112975 -0.00316422 0.776471 0.776471 0.815686 0
0.0420798 -0.0938431 -0.00413084 0.776471 0.776471 0.815686 0
0.0473008 -0.167758 -0.00385335 0.776471 0.776471 0.815686 0
0.0396875 -0.0450127 -0.000228299 0.776471 0.776471 0.815686 0
0.0473008 -0.141293 0.00385335 0.776471 0.776471 0.815686 0
0.0464658 -0.114579 -0.00433541 0.776471 0.776471 0.815686 0
0.0447108 -0.11036 -0.00534869 0.776471 0.776471 0.815686 0
0.0396875 -0.134679 -0.000714709 0.776471 0.776471 0.815686 0
0.0424903 -0.0714972 0.0043678 0.776471 0.776471 0.815686 0
0.0484816 -0.0486664 -0.00317162 0.776471 0.776471 0.815686 0
0.0402791 -0.0869546 0.00309122 0.776471 0.776471 0.815686 0
0.0439728 -0.0204121 -0.00522373 0.776471 0.776471 0.815686 0
0.0236329 -0.000130696 0.0054238 0.776471 0.776471 0.815686 0
0.0396875 -0.120422 -0.0011146 0.776471 0.776471 0.815686 0
0.0492125 -0.0486936 0.00240682 0.776471 0.776471 0.815686 0
0.0433355 -0.155079 0.00485583 0.776471 0.776471 0.815686 0
0.0160253 0.00208774 -0.0042939 0.776471 0.776471 0.815686 0
0.0449683 -0.0888854 -0.00520001 0.776471 0.776471 0.815686 0
0.0183453 0.0047625 -0.00222513 0.776471 0.776471 0.815686 0
0.0492125 -0.118731 -0.00117941 0.776471 0.776471 0.815686 0
0.0405445 -0.0466887 0.00324444 0.776471 0.776471 0.815686 0
0.0424571 -0.096493 -0.00434863 0.776471 0.776471 0.815686 0
0.0471015 -0.124287 0.0039684 0.776471 0.776471 0.815686 0
0.0492125 -0.0673285 0.00182114 0.776471 0.776471 0.815686 0
0.0439197 -0.0711345 0.00519308 0.776471 0.776471 0.815686 0
0.0448954 -0.0869196 -0.00524213 0.776471 0.776471 0.815686 0
0.0456102 -0.0719571 0.0048294 0.776471 0.776471 0.815686 0
0.0492125 -0.103255 -0.00107632 0.776471 0.776471 0.815686 0
0.0432072 -0.11853 0.00478173 0.776471 0.776471 0.815686 0
0.0411246 -0.112129 -0.00357932 0.776471 0.776471 0.815686 0
0.0473008 -0.031902 -0.00385335 0.776471 0.776471 0.815686 0
0.0478839 -0.0564366 -0.0035167 0.776471 0.776471 0.815686 0
0.0430263 -0.0542433 -0.00467731 0.776471 0.776471 0.815686 0
0.0482343 -0.0277768 -0.00331441 0.776471 0.776471 0.815686 0
0.040035 -0.127768 0.00295025 0.776471 0.776471 0.815686 0
0.0417222 -0.0625983 0.00392435 0.776471 0.776471 0.815686 0
0.0398433 -0.172568 0.000210118 0.776471 0.776471 0.815686 0
0.0432364 -0.0464741 0.00479858 0.776471 0.776471 0.815686 0
0.0473008 -0.137067 0.00385335 0.776471 0.776471 0.815686 0
0.0399493 -0.0972807 -0.0029008 0.776471 0.776471 0.815686 0
0.0399544 -0.0942183 0.00290373 0.776471 0.776471 0.815686 0
0.041645 -0.138757 -0.00387978 0.776471 0.776471 0.815686 0
0.0421432 -0.0195231 0.00416741 0.776471 0.776471 0.815686 0
0.0473008 -0.0661994 0.00385335 0.776471 0.776471 0.815686 0
0.00445251 0.0047625 0.000714709 0.776471 0.776471 0.815686 0
0.0492125 -0.0598121 -0.0020055 0.776471 0.776471 0.815686 0
0.0433006 -0.156769 0.00483563 0.776471 0.776471 0.815686 0
0.0471015 -0.0882997 0.0039684 0.776471 0.776471 0.815686 0
0.0424715 -0.100102 0.00435699 0.776471 0.776471 0.815686 0
0.0448827 -0.159305 0.00524946 0.776471 0.776471 0.815686 0
0.0465039 -0.105478 -0.00431344 0.776471 0.776471 0.815686 0
0.0396875 -0.0747808 0.00156563 0.776471 0.776471 0.815686 0
0.0396875 -0.0670128 0.00167978 0.776471 0.776471 0.815686 0
0.00186066 -0.00412728 0.00311637 0.776471 0.776471 0.815686 0
0.0366807 -0.0103457 -0.00261912 0.776471 0.776471 0.815686 0
0.00295679 -0.0047625 0.00038131 0.776471 0.776471 0.815686 0
0.0421522 -0.0532634 0.00417263 0.776471 0.776471 0.815686 0
0.0492125 -0.0945566 -0.000975858 0.776471 0.776471 0.815686 0
0.0438243 -0.0330967 0.005138 0.776471 0.776471 0.815686 0
0.0396875 -0.033942 -0.000975858 0.776471 0.776471 0.815686 0
0.0396875 -0.100889 0.000659202 0.776471 0.776471 0.815686 0
0.0293736 -0.0053795 -0.00271784 0.776471 0.776471 0.815686 0
0.0413838 -0.159032 0.003729 0.776471 0.776471 0.815686 0
0.0396875 -0.0612522 0.000975858 0.776471 0.776471 0.815686 0
0.0417222 -0.0817249 0.00392435 0.776471 0.776471 0.815686 0
0.0471016 -0.0305927 -0.00396835 0.776471 0.776471 0.815686 0
0.0411364 -0.0456104 -0.00358615 0.776471 0.776471 0.815686 0
0.0492125 -0.117041 -0.00182114 0.776471 0.776471 0.815686 0
0.0409668 -0.1023 -0.00348827 0.776471 0.776471 0.815686 0
0.0018977 0.00414408 -0.00310668 0.776471 0.776471 0.815686 0
0.045792 -0.00689296 0.00234416 0.776471 0.776471 0.815686 0
0.048672 -0.112446 0.0030617 0.776471 0.776471 0.815686 0
0.0454167 -0.0561436 -0.00494112 0.776471 0.776471 0.815686 0
0.0492125 -0.144674 -0.000810094 0.776471 0.776471 0.815686 0
0.0405268 -0.0458879 0.00323418 0.776471 0.776471 0.815686 0
0.0439197 -0.0170364 0.00528457 0.776471 0.776471 0.815686 0
0.0416992 -0.0508477 -0.00391108 0.776471 0.776471 0.815686 0
0.0441808 -0.0274409 0.00534385 0.776471 0.776471 0.815686 0
0.0432069 -0.0874497 -0.00478156 0.776471 0.776471 0.815686 0
0.0492125 -0.0254892 0.00250992 0.776471 0.776471 0.815686 0
0.0415692 -0.118915 0.00383604 0.776471 0.776471 0.815686 0
0.0430744 -0.0698114 -0.00470505 0.776471 0.776471 0.815686 0
0.0451237 -0.0851265 -0.00511027 0.776471 0.776471 0.815686 0
0.00503665 0.0047625 0.00182114 0.776471 0.776471 0.815686 0
0.0396875 -0.119577 -0.00155999 0.776471 0.776471 0.815686 0
0.0407997 -0.045776 -0.00339175 0.776471 0.776471 0.815686 0
0.0278593 0.00409572 0.00302285 0.776471 0.776471 0.815686 0
0.0432797 -0.0289422 -0.00482361 0.776471 0.776471 0.815686 0
0.0396875 -0.135864 0.00216252 0.776471 0.776471 0.815686 0
0.00233709 0.000345414 -0.00529984 0.776471 0.776471 0.815686 0
0.0396875 -0.103536 -0.00267095 0.776471 0.776471 0.815686 0
0.0450261 -0.125687 0.00516665 0.776471 0.776471 0.815686 0
0.0413838 -0.160734 0.003729 0.776471 0.776471 0.815686 0
0.0396875 -0.0789352 -0.000444638 0.776471 0.776471 0.815686 0
0.0405445 -0.0646198 0.00324444 0.776471 0.776471 0.815686 0
0.0396875 -0.0782964 -0.000416064 0.776471 0.776471 0.815686 0
0.0492125 -0.0191267 0.00138016 0.776471 0.776471 0.815686 0
0.0464555 -0.0467349 -0.00434137 0.776471 0.776471 0.815686 0
0.0401835 -0.0336245 -0.00303598 0.776471 0.776471 0.815686 0
0.0439728 -0.0533835 -0.00522373 0.776471 0.776471 0.815686 0
0.0489905 -0.112534 0.00287783 0.776471 0.776471 0.815686 0
0.00166902 0.00094312 -0.00495475 0.776471 0.776471 0.815686 0
0.0474519 -0.0746254 -0.00376612 0.776471 0.776471 0.815686 0
0.0465038 -0.13324 0.00431349 0.776471 0.776471 0.815686 0
0.0492125 -0.0626817 0.00158073 0.776471 0.776471 0.815686 0
0.0230487 -0.00336932 0.00355398 0.776471 0.776471 0.815686 0
0.0439356 -0.0883013 0.00520227 0.776471 0.776471 0.815686 0
0.0442864 -0.0243578 -0.00540478 0.776471 0.776471 0.815686 0
0.00455634 0.00161652 0.00456596 0.776471 0.776471 0.815686 0
0.0424715 -0.0553352 0.00435699 0.776471 0.776471 0.815686 0
0.0336782 -0.00351183 -0.00466861 0.776471 0.776471 0.815686 0
0.043287 -0.028888 -0.0048278 0.776471 0.776471 0.815686 0
0 -0.00377106 -0.000130575 0.776471 0.776471 0.815686 0
0.0492125 -0.0828528 0.00138016 0.776471 0.776471 0.815686 0
0.0492125 -0.120508 0.000782451 0.776471 0.776471 0.815686 0
0.0466885 -0.0958852 -0.00420687 0.776471 0.776471 0.815686 0
0.0441808 -0.085692 -0.00534385 0.776471 0.776471 0.815686 0
0.0422228 -0.00836796 0.00496639 0.776471 0.776471 0.815686 0
0.0433057 -0.00546354 -0.00351171 0.776471 0.776471 0.815686 0
0.0433355 -0.0229718 -0.00485583 0.776471 0.776471 0.815686 0
0.0492125 -0.0345049 0.000716182 0.776471 0.776471 0.815686 0
0.0420349 -0.064981 0.00410489 0.776471 0.776471 0.815686 0
0.0424903 -0.0392195 -0.0043678 0.776471 0.776471 0.815686 0
0.0424903 -0.0380257 0.0043678 0.776471 0.776471 0.815686 0
0.00449299 -0.00057213 -0.00516894 0.776471 0.776471 0.815686 0
0.047147 -0.0869196 -0.00394215 0.776471 0.776471 0.815686 0
0.0407997 -0.089209 0.00339175 0.776471 0.776471 0.815686 0
0.0434833 -0.0364779 0.00494112 0.776471 0.776471 0.815686 0
0.041645 -0.0612266 0.00387978 0.776471 0.776471 0.815686 0
0.0349815 -0.00829399 -0.00283392 0.776471 0.776471 0.815686 0
0.0482139 -0.0467924 -0.00332619 0.776471 0.776471 0.815686 0
0.0492125 -0.0886025 -0.00118155 0.776471 0.776471 0.815686 0
0.00107138 0.00389487 0.00325056 0.776471 0.776471 0.815686 0
0.0492125 -0.0543998 -5.21763e-05 0.776471 0.776471 0.815686 0
0.0396875 -0.125116 0.00182114 0.776471 0.776471 0.815686 0
0.0293551 -0.00537455 -0.000708061 0.776471 0.776471 0.815686 0
0.0433355 -0.0153458 -0.00509141 0.776471 0.776471 0.815686 0
0.0492125 -0.113219 -0.00145826 0.776471 0.776471 0.815686 0
0.0423199 -0.0831487 0.00426944 0.776471 0.776471 0.815686 0
0.0401748 -0.0644662 0.00303097 0.776471 0.776471 0.815686 0
0.044113 -0.0442978 0.00530469 0.776471 0.776471 0.815686 0
0.0441808 -0.016055 0.00548096 0.776471 0.776471 0.815686 0
0.0396875 -0.0654591 -0.000975858 0.776471 0.776471 0.815686 0
0.0450034 -0.047471 -0.00517973 0.776471 0.776471 0.815686 0
0 0.000453438 0.00351171 0.776471 0.776471 0.815686 0
0.0396875 -0.038334 0.00182114 0.776471 0.776471 0.815686 0
0.0404967 -0.0551736 -0.00321683 0.776471 0.776471 0.815686 0
0.0222035 0.00156738 0.00459433 0.776471 0.776471 0.815686 0
0.0411364 -0.0838635 -0.00358615 0.776471 0.776471 0.815686 0
0.041622 -0.102412 0.0038665 0.776471 0.776471 0.815686 0
0.0389162 -0.0145005 -0.000717028 0.776471 0.776471 0.815686 0
0.0405385 -0.108622 0.00324098 0.776471 0.776471 0.815686 0
0.0439197 -0.0660628 0.00519308 0.776471 0.776471 0.815686 0
0.0396875 -0.135637 -0.0011146 0.776471 0.776471 0.815686 0
0.0424715 -0.117967 -0.00435699 0.776471 0.776471 0.815686 0
0.00381476 0.00313507 0.00368923 0.776471 0.776471 0.815686 0
0.0473008 -0.0808362 -0.00385335 0.776471 0.776471 0.815686 0
0.0396875 -0.0958176 -0.00202142 0.776471 0.776471 0.815686 0
0.0465473 -0.0395095 -0.00428839 0.776471 0.776471 0.815686 0
0.0387734 -0.0140508 -0.00250031 0.776471 0.776471 0.815686 0
0.0492125 -0.0648144 -0.0010614 0.776471 0.776471 0.815686 0
0.0492125 -0.0622971 -0.00192182 0.776471 0.776471 0.815686 0
0.0424868 -0.107725 -0.00436583 0.776471 0.776471 0.815686 0
0 0.00232319 -0.000165747 0.776471 0.776471 0.815686 0
0.0396875 -0.112651 -0.0017086 0.776471 0.776471 0.815686 0
0.0492125 -0.162425 0.00182114 0.776471 0.776471 0.815686 0
0 0.00258646 -1.09802e-05 0.776471 0.776471 0.815686 0
0.0365733 -0.0101924 0.000130575 0.776471 0.776471 0.815686 0
0.0458714 -0.0993009 -0.00467862 0.776471 0.776471 0.815686 0
0.0100439 0.0047625 -0.00213113 0.776471 0.776471 0.815686 0
0.0492125 -0.0872651 0.000184746 0.776471 0.776471 0.815686 0
0.0469221 -0.107482 0.00407198 0.776471 0.776471 0.815686 0
0.00645756 -0.00223007 0.00421173 0.776471 0.776471 0.815686 0
0.0411245 -0.116224 0.00357927 0.776471 0.776471 0.815686 0
0.0399544 -0.0403157 -0.00290373 0.776471 0.776471 0.815686 0
0.0492125 -0.042656 -0.00144564 0.776471 0.776471 0.815686 0
0.040408 -0.0502635 0.00316562 0.776471 0.776471 0.815686 0
0.0458743 -0.0909189 0.00467694 0.776471 0.776471 0.815686 0
0.0492125 -0.149162 -0.00144564 0.776471 0.776471 0.815686 0
0.0455199 -0.0252962 0.00488156 0.776471 0.776471 0.815686 0
0.0492125 -0.112553 0.00158073 0.776471 0.776471 0.815686 0
0.0470078 -0.135637 -0.00402254 0.776471 0.776471 0.815686 0
0.0487214 -0.0145005 -0.000585222 0.776471 0.776471 0.815686 0
0.0396933 -0.00266655 0.00392122 0.776471 0.776471 0.815686 0
0.0327558 0.00319397 0.00296774 0.776471 0.776471 0.815686 0
0.0347078 -0.00205205 0.00530525 0.776471 0.776471 0.815686 0
0.0482969 -0.106381 0.00327823 0.776471 0.776471 0.815686 0
0.0458714 -0.0604069 0.00467862 0.776471 0.776471 0.815686 0
0.0456102 -0.113701 0.0048294 0.776471 0.776471 0.815686 0
0.0448444 -0.0770271 -0.00527154 0.776471 0.776471 0.815686 0
0.0405385 -0.111382 -0.00324098 0.776471 0.776471 0.815686 0
0.0492125 -0.0688932 -0.00266642 0.776471 0.776471 0.815686 0
0 0.000412959 0.00335793 0.776471 0.776471 0.815686 0
0.0109536 0.0028456 -0.00385635 0.776471 0.776471 0.815686 0
0.0458155 -0.0720432 0.00471087 0.776471 0.776471 0.815686 0
0.0418291 -0.0520783 -0.00398607 0.776471 0.776471 0.815686 0
0.0396875 -0.120161 0.00240527 0.776471 0.776471 0.815686 0
0.0432149 -0.128968 -0.00478618 0.776471 0.776471 0.815686 0
0.0492125 -0.0954292 0.00130246 0.776471 0.776471 0.815686 0
0.046484 -0.131995 -0.00432491 0.776471 0.776471 0.815686 0
0.0407276 -0.0237986 -0.00335016 0.776471 0.776471 0.815686 0
0.0428723 -0.110339 -0.0045884 0.776471 0.776471 0.815686 0
0.0492125 -0.0487835 -0.000412959 0.776471 0.776471 0.815686 0
0.0417305 -0.0743267 0.00392914 0.776471 0.776471 0.815686 0
0.0437087 -0.117125 0.00507129 0.776471 0.776471 0.815686 0
0.0492125 -0.0600462 0.000460314 0.776471 0.776471 0.815686 0
0.0396875 -0.103784 -0.00122796 0.776471 0.776471 0.815686 0
0.0482188 -0.116805 -0.00332336 0.776471 0.776471 0.815686 0
0.0117989 -0.0047625 -0.000622115 0.776471 0.776471 0.815686 0
0.027014 -0.000520039 -0.00527235 0.776471 0.776471 0.815686 0
