ply
format ascii 1.0
comment Created by Open3D
element vertex 847
property float32 x
property float32 y
property float32 z
property float32 red
property float32 green
property float32 blue
property uint8 segmentation
end_header
-0.0102305 0.0127 -0.0104803 0.792157 0.819608 0.933333 2
0.0520752 0.00314422 0.0772287 0 0.752941 0.752941 2
-0.00938595 0.00635 0.0197532 0.792157 0.819608 0.933333 0
0.00548001 0.00152235 -0.0307536 0.792157 0.819608 0.933333 0
-0.0142255 -0.000254 0.0462666 0 0.752941 0.752941 0
-0.0153284 0.000889043 0.0444572 0 0.752941 0.752941 0
0.000541691 -1.04953e-17 -0.0216017 0.792157 0.819608 0.933333 0
0.0481759 -0.000254 0.0579748 0 0.752941 0.752941 2
0.00720984 0.0127 -0.0148861 0.792157 0.819608 0.933333 0
0.00579749 0.00592045 -0.0291186 0.792157 0.819608 0.933333 0
0.0446523 0.00473477 0.042694 0 0.752941 0.752941 2
0.00594549 0.0127 -0.0221555 0.792157 0.819608 0.933333 0
0.00782039 1.10101e-05 0.00360943 0.792157 0.819608 0.933333 0
-0.0160919 0.0114354 0.0488135 0 0.752941 0.752941 0
0.00840889 0.000959288 -0.0156467 0.792157 0.819608 0.933333 0
-0.00783169 0.00529344 0.0693879 0 0.752941 0.752941 0
0.0349601 0.00838008 0.0463531 0 0.752941 0.752941 2
0.0638786 0.00484285 0.0897924 0 0.752941 0.752941 2
0.00890485 0.00626618 -0.00313384 0.792157 0.819608 0.933333 0
0.0411352 0.012954 0.0448666 0 0.752941 0.752941 2
-0.013819 0.00605343 0.0381389 0.701961 0.811765 0.909804 0
0.0191184 0.00635 0.0169778 0.792157 0.819608 0.933333 2
-0.014433 0.0124231 -0.00836353 0.792157 0.819608 0.933333 2
-0.0121178 0.00169495 -0.00193869 0.792157 0.819608 0.933333 2
-0.0214796 0.0108175 -0.0278319 0.792157 0.819608 0.933333 2
0.0258442 0.00412812 0.0303957 0.792157 0.819608 0.933333 2
-0.0155845 0.012954 0.0577559 0 0.752941 0.752941 0
-0.020599 0.0109603 -0.025276 0.792157 0.819608 0.933333 2
0.00869318 0.00721942 -0.0142057 0.792157 0.819608 0.933333 0
0.0519775 0.0104861 0.0769894 0 0.752941 0.752941 2
0.0131641 0.00647037 0.00452086 0.792157 0.819608 0.933333 2
-0.0113394 0.00223751 0.0261427 0.792157 0.819608 0.933333 0
-0.0158356 0.0128242 0.0933965 0 0.752941 0.752941 0
0.0384205 0.000684136 0.0512737 0 0.752941 0.752941 2
-0.00796354 0 0.00357545 0.792157 0.819608 0.933333 0
0.0450568 -0.000206622 0.0449228 0 0.752941 0.752941 2
-0.0070018 0.000236013 0.0546025 0 0.752941 0.752941 0
0.0381762 0.0128211 0.0351757 0 0.752941 0.752941 2
-0.0110722 0.00774123 0.0374801 0.792157 0.819608 0.933333 0
-0.0105192 -0.00018317 0.108803 0 0.752941 0.752941 0
-0.0176662 0.007838 0.0646058 0 0.752941 0.752941 0
-0.0176148 0.0109237 0.0819921 0 0.752941 0.752941 0
0.00321806 0.00929525 -0.0414334 0.792157 0.819608 0.933333 0
-0.00757245 -0.000254 0.102737 0 0.752941 0.752941 0
0.0435783 -0.000254 0.0466967 0 0.752941 0.752941 2
0.0596073 0.012954 0.080382 0 0.752941 0.752941 2
-0.0182173 0.0152746 -0.0315533 0.792157 0.819608 0.933333 2
-0.0173806 0.000383366 0.0624661 0 0.752941 0.752941 0
0.00700187 0 -0.00970349 0.792157 0.819608 0.933333 0
0.0535178 0.00733277 0.0569842 0 0.752941 0.752941 2
0.0331106 -0.000254 0.0387425 0 0.752941 0.752941 2
0.00244643 0.0127 -0.0118586 0.792157 0.819608 0.933333 0
-0.0253624 0.035494 -0.043383 0.792157 0.819608 0.933333 2
-0.00907829 0.00634713 0.0161865 0.792157 0.819608 0.933333 0
-0.00887809 7.13417e-05 0.00434502 0.792157 0.819608 0.933333 0
-0.0196305 0.0129809 -0.0252625 0.792157 0.819608 0.933333 2
0.0533649 0.000117822 0.0794681 0 0.752941 0.752941 2
-0.0244939 0.0254045 -0.0365804 0.792157 0.819608 0.933333 2
-0.0145139 0.00614192 0.10539 0 0.752941 0.752941 0
-0.00802345 0.0123718 0.0759596 0 0.752941 0.752941 0
0.0508521 -0.000254 0.0701443 0 0.752941 0.752941 2
-0.0155905 0.00978966 0.099771 0 0.752941 0.752941 0
0.0203801 0.00635 0.0178533 0.792157 0.819608 0.933333 2
-0.0145589 -0.000254 0.0643449 0 0.752941 0.752941 0
-0.0067494 0.00345517 0.0546359 0 0.752941 0.752941 0
-0.0144671 -0.000254 0.0786342 0 0.752941 0.752941 0
0.0441262 0.012954 0.0469639 0 0.752941 0.752941 2
-0.0245377 0.0343149 -0.0405229 0.792157 0.819608 0.933333 2
0.0270351 0.0099767 0.0363359 0 0.752941 0.752941 2
-0.00050134 0 0.016076 0.792157 0.819608 0.933333 0
0.0437916 0.00341857 0.0414868 0 0.752941 0.752941 2
-0.0174804 0.00659857 0.0839546 0 0.752941 0.752941 0
0.00951405 0.0118177 -0.0076081 0.792157 0.819608 0.933333 0
-5.24767e-18 0.0150301 -0.0392005 0.792157 0.819608 0.933333 0
0.0561602 0.00678441 0.0620146 0 0.752941 0.752941 2
0.0226909 0.0127 0.0265004 0.690196 0.807843 0.909804 2
-0.00408657 -5.24767e-18 -0.00361809 0.792157 0.819608 0.933333 0
-0.00871554 0.00635 0.024412 0.792157 0.819608 0.933333 0
0.0362941 0.00749566 0.048242 0 0.752941 0.752941 2
-0.0129536 -0.000254 0.0534117 0 0.752941 0.752941 0
-0.0120015 0.012954 0.0534293 0 0.752941 0.752941 0
-0.0143796 0.0124747 0.104618 0 0.752941 0.752941 0
-0.00892194 -5.24767e-18 0.0267937 0.690196 0.807843 0.909804 0
0.0611477 -0.000254 0.0808013 0 0.752941 0.752941 2
-0.00180209 0.00315873 0.0298331 0.792157 0.819608 0.933333 0
0.050702 0.00513929 0.0520602 0 0.752941 0.752941 2
0.00188566 0.0127 -0.0279843 0.792157 0.819608 0.933333 0
-0.0154213 0.0128678 0.0500095 0 0.752941 0.752941 0
-0.0177242 0.00635486 0.080382 0 0.752941 0.752941 0
0.0580745 0.000101576 0.0898229 0 0.752941 0.752941 2
-0.00961583 0.00635 0.0287667 0.792157 0.819608 0.933333 0
-0.00655536 -0.000231564 0.0464729 0 0.752941 0.752941 0
-0.0142255 0.000187661 -0.0246393 0.733333 0.752941 0.847059 2
-0.0136672 0.00290955 0.107578 0 0.752941 0.752941 0
-0.0174707 0.00194453 0.0840964 0 0.752941 0.752941 0
-0.00783058 0.00646415 0.0741564 0 0.752941 0.752941 0
0.00746056 0.0127 0.0157304 0.792157 0.819608 0.933333 2
-0.00928204 0.00390221 -0.016077 0.733333 0.752941 0.847059 2
-0.00445204 0.00499875 0.0399108 0.72549 0.811765 0.917647 0
0.00609992 0.00145652 -0.027561 0.792157 0.819608 0.933333 0
0.0335619 -0.000254 0.038146 0 0.752941 0.752941 2
-0.0122032 0 0.040366 0.560784 0.796078 0.878431 0
0.0513676 0.0118716 0.0754527 0 0.752941 0.752941 2
-0.0203432 0.000612401 -0.0262383 0.792157 0.819608 0.933333 2
0.0560644 0.012954 0.0838517 0 0.752941 0.752941 2
-5.24767e-18 0.00354007 -0.0341041 0.792157 0.819608 0.933333 0
-0.0032767 5.24767e-18 0.0224495 0.690196 0.807843 0.909804 0
0.0349391 0.012954 0.0422748 0 0.752941 0.752941 2
0.0436613 0.012954 0.0535162 0 0.752941 0.752941 2
0.0429354 0.00170286 0.0586756 0 0.752941 0.752941 2
0.0517766 0.012954 0.0676339 0 0.752941 0.752941 2
-0.0055537 -5.24767e-18 -0.0053593 0.792157 0.819608 0.933333 0
-0.0128659 1.53482e-10 -0.0193869 0.678431 0.694118 0.764706 2
-0.0169669 0.0129011 0.0746908 0 0.752941 0.752941 0
0.0529318 0.00246289 0.0793261 0 0.752941 0.752941 2
0.00711263 0.00823397 -0.0223456 0.792157 0.819608 0.933333 0
0.0294168 0.012954 0.034358 0 0.752941 0.752941 2
-0.0124524 -0.000254 0.103227 0 0.752941 0.752941 0
0.00539085 0.00382628 -0.0312127 0.792157 0.819608 0.933333 0
0.0628642 0.00842837 0.0772119 0 0.752941 0.752941 2
0.00440658 0.0127 0.00535837 0.690196 0.807843 0.909804 2
0.0060907 0.0127 -0.0101227 0.792157 0.819608 0.933333 0
-0.0242666 0.023289 -0.0359206 0.792157 0.819608 0.933333 2
0.0409696 0.00139875 0.0553742 0 0.752941 0.752941 2
-0.0125984 0.00198829 0.0326299 0.792157 0.819608 0.933333 0
0.018696 0.00635 0.0165166 0.792157 0.819608 0.933333 2
-0.0079183 -0.000254 0.0950407 0 0.752941 0.752941 0
-0.0118438 -0.000254 0.0808419 0 0.752941 0.752941 0
-0.00748491 0.0125919 0.0876126 0 0.752941 0.752941 0
0.0605635 0.0088603 0.0715002 0 0.752941 0.752941 2
-0.0178362 0.0119317 0.0753926 0 0.752941 0.752941 0
0.0472666 -0.000254 0.0611438 0 0.752941 0.752941 2
-0.0128091 0.012954 0.0796104 0 0.752941 0.752941 0
0.0323979 0.0122868 0.0427068 0 0.752941 0.752941 2
0.0245982 0.00635 0.0264715 0.792157 0.819608 0.933333 2
-0.00565675 0.00701339 0.0982448 0 0.752941 0.752941 0
-0.0215379 0.0175974 -0.0373048 0.792157 0.819608 0.933333 2
0.00271509 0.0278749 -0.044981 0.792157 0.819608 0.933333 0
0.00682337 0.00674425 -0.0238353 0.792157 0.819608 0.933333 0
0.0557009 0.0124152 0.0863363 0 0.752941 0.752941 2
-0.000354501 0.00533576 -0.00949383 0.792157 0.819608 0.933333 0
-0.016364 0.000729766 0.0511508 0 0.752941 0.752941 0
-0.00159317 0.0107042 -0.00938562 0.792157 0.819608 0.933333 2
-0.0137579 0.00044462 -0.00596438 0.792157 0.819608 0.933333 2
0.00465501 0.00908334 0.0148852 0.792157 0.819608 0.933333 2
0.00943335 0.00635 0.0102747 0.792157 0.819608 0.933333 2
0.0610348 0.00345517 0.072593 0 0.752941 0.752941 2
0.0429099 0.0121014 0.040383 0 0.752941 0.752941 2
-0.00990163 0.00334099 0.0141136 0.792157 0.819608 0.933333 0
0.0484234 0.00733277 0.0689636 0 0.752941 0.752941 2
-0.0131843 0.012954 0.0785995 0 0.752941 0.752941 0
-0.00879553 0.012954 0.104409 0 0.752941 0.752941 0
-0.00231698 0.0127 -0.00343801 0.792157 0.819608 0.933333 1
-0.0130346 0.012954 0.0577559 0 0.752941 0.752941 0
0.0401426 0.00852363 0.0365245 0 0.752941 0.752941 2
-0.0162824 0.00658634 0.0953581 0 0.752941 0.752941 0
0.0203652 0.00635 0.0268518 0.792157 0.819608 0.933333 2
-0.00776069 0.00635 0.00546242 0.792157 0.819608 0.933333 0
-0.0176301 0.00206749 0.0817692 0 0.752941 0.752941 0
-0.0165968 -0.000253085 0.0701434 0 0.752941 0.752941 0
-0.00738515 0.00594399 0.0847486 0 0.752941 0.752941 0
0.00297075 0.0164404 -0.0434666 0.792157 0.819608 0.933333 0
-0.0214659 0.00261311 -0.0305557 0.792157 0.819608 0.933333 2
-0.00749961 0.00635 0.0129227 0.792157 0.819608 0.933333 0
-0.0173859 0.00644781 0.085336 0 0.752941 0.752941 0
0.019495 0.00635 0.0242975 0.792157 0.819608 0.933333 2
0.00493438 0.00989521 0.0151021 0.792157 0.819608 0.933333 2
0.00862194 0.00927043 -0.0145726 0.792157 0.819608 0.933333 0
0.00438099 0 -0.0251198 0.792157 0.819608 0.933333 0
-0.00458523 0.00635 0.0264627 0.792157 0.819608 0.933333 0
0.04089 0.00762198 0.0375114 0 0.752941 0.752941 2
0.0500962 0.012954 0.0672827 0 0.752941 0.752941 2
0.0428465 0.00506013 0.0401612 0 0.752941 0.752941 2
0.0112832 0.0126833 0.00201984 0.792157 0.819608 0.933333 2
-0.02315 0.029559 -0.040097 0.792157 0.819608 0.933333 2
-0.0249788 0.0235855 -0.0389262 0.792157 0.819608 0.933333 2
0.0508267 0.00690137 0.0742378 0 0.752941 0.752941 2
0.0596073 0.000959288 0.0908647 0 0.752941 0.752941 2
0.0612944 0.00237464 0.0732369 0 0.752941 0.752941 2
0.00338973 0.0120458 -0.0415185 0.792157 0.819608 0.933333 0
-0.00869047 0.0116195 0.0420225 0.792157 0.819608 0.933333 0
-0.0117332 -0.000254 0.0497365 0 0.752941 0.752941 0
0.0570788 -0.000254 0.0758588 0 0.752941 0.752941 2
0.0020272 0.0127 -0.00452925 0.792157 0.819608 0.933333 2
0.0173083 0.0127 0.0153493 0.690196 0.807843 0.909804 2
0.00367426 0.00703402 0.014098 0.792157 0.819608 0.933333 2
0.0401345 0.012099 0.0539365 0 0.752941 0.752941 2
-0.00542729 0.0127 -0.00121765 0.792157 0.819608 0.933333 2
0.0590565 0.000547265 0.0683185 0 0.752941 0.752941 2
-0.0233897 0.0251077 -0.0405121 0.792157 0.819608 0.933333 2
-0.0227908 0.0231818 -0.0394748 0.792157 0.819608 0.933333 2
0.0047826 0.0127 0.0106146 0.792157 0.819608 0.933333 2
0.009525 0.00215014 -0.00893186 0.792157 0.819608 0.933333 0
0.0217678 0.0127 0.0201127 0.690196 0.807843 0.909804 2
0.0485322 0.00290955 0.0691953 0 0.752941 0.752941 2
-0.0119564 -0.000254 0.0949318 0 0.752941 0.752941 0
-0.0119146 0.012954 0.0722562 0 0.752941 0.752941 0
0.052924 0.012954 0.064463 0 0.752941 0.752941 2
0.0110507 0.00981947 4.22388e-05 0.792157 0.819608 0.933333 2
-0.0165656 0.0103859 -0.0135696 0.792157 0.819608 0.933333 2
-0.0131389 -0.000254 0.0438713 0 0.752941 0.752941 0
-0.0118438 0.012954 0.0671733 0 0.752941 0.752941 0
-0.0122032 -0.000254 0.0615474 0 0.752941 0.752941 0
-0.0130121 0.00392163 0.0345633 0.792157 0.819608 0.933333 0
0.0520466 -0.000254 0.0572642 0 0.752941 0.752941 2
0.0403504 0.00784136 0.0367989 0 0.752941 0.752941 2
0.0278714 0.0106587 0.0373392 0 0.752941 0.752941 2
0.0386398 -0.000254 0.0421071 0 0.752941 0.752941 2
-0.00259788 0 -0.006409 0.792157 0.819608 0.933333 0
0.00818 0.0106107 -0.0168486 0.792157 0.819608 0.933333 0
-0.0169056 0.00623026 -0.0145564 0.792157 0.819608 0.933333 2
0.000177061 0.0371375 -0.0507789 0.792157 0.819608 0.933333 0
0.0380634 0.00181389 0.0508241 0 0.752941 0.752941 2
-0.00853857 0.0104881 0.109676 0 0.752941 0.752941 0
0.0536428 -0.000254 0.0769501 0 0.752941 0.752941 2
0.0490984 0.0102722 0.0494199 0 0.752941 0.752941 2
-1.04953e-17 0.0118044 -0.0271974 0.792157 0.819608 0.933333 0
-0.00921908 0.000728848 0.109729 0 0.752941 0.752941 0
0.000437809 0 -0.0243897 0.792157 0.819608 0.933333 0
-0.00747027 0 0.000700479 0.792157 0.819608 0.933333 0
0.00493438 0.0127 0.0121578 0.792157 0.819608 0.933333 2
-0.0149864 1.43897e-06 0.0453921 0 0.752941 0.752941 0
-0.00630883 0.00934958 -0.0109272 0.792157 0.819608 0.933333 2
0.046204 0.00795038 0.0645691 0 0.752941 0.752941 2
0.0226909 0.00635 0.0229258 0.792157 0.819608 0.933333 2
0.0631842 0.0036252 0.0780539 0 0.752941 0.752941 2
0.0095705 0.00733277 -0.00246819 0.792157 0.819608 0.933333 2
-0.00693985 0.00524933 0.056214 0 0.752941 0.752941 0
0.012256 0.0127 0.00582246 0.792157 0.819608 0.933333 2
0.00270464 0.0207627 -0.0448571 0.792157 0.819608 0.933333 0
0.0577387 0.0128765 0.0889894 0 0.752941 0.752941 2
0.0452294 0.00681875 0.0627222 0 0.752941 0.752941 2
0.0377747 0.00687589 0.0503953 0 0.752941 0.752941 2
0.0381154 0.00429723 0.0339405 0 0.752941 0.752941 2
-0.0134584 2.49448e-05 -0.00701127 0.792157 0.819608 0.933333 2
-0.00151343 3.75619e-06 0.00438033 0.792157 0.819608 0.933333 1
-0.00925847 0.00603398 0.00513941 0.792157 0.819608 0.933333 0
-0.00777234 0.0129384 0.0915189 0 0.752941 0.752941 0
0 0.00664494 -0.021612 0.792157 0.819608 0.933333 0
0.0482374 0.012954 0.0625815 0 0.752941 0.752941 2
-0.0150928 0.0123141 0.044047 0 0.752941 0.752941 0
0.0308171 0.00855413 0.0408799 0 0.752941 0.752941 2
0.00494568 0.00908498 -0.0335054 0.792157 0.819608 0.933333 0
-0.017391 1.53482e-10 -0.019368 0.631373 0.643137 0.698039 2
0.0476988 0.000547605 0.0474375 0 0.752941 0.752941 2
0.050538 0.0109053 0.0735854 0 0.752941 0.752941 2
0.00249274 0.0266269 -0.046138 0.792157 0.819608 0.933333 0
-0.0172373 0.00122543 0.0873307 0 0.752941 0.752941 0
-0.0161803 0.00128857 0.0494199 0 0.752941 0.752941 0
-0.0167999 0.0081782 0.0540793 0 0.752941 0.752941 0
0.0628439 0.00459421 0.0771582 0 0.752941 0.752941 2
0.00206526 0.00241509 -0.0369402 0.792157 0.819608 0.933333 0
-0.000117974 0.00635 0.0153347 0.792157 0.819608 0.933333 0
0.0522847 -0.000254 0.0634771 0 0.752941 0.752941 2
-0.0153735 0.00365315 0.0446565 0 0.752941 0.752941 0
-0.00572373 0 0.012149 0.792157 0.819608 0.933333 0
-0.0176636 0.0127515 -0.0246499 0.792157 0.819608 0.933333 2
0.00440891 0.0127 -0.024616 0.792157 0.819608 0.933333 0
-0.0247805 0.0274009 -0.037412 0.792157 0.819608 0.933333 2
-0.00549386 0.0101125 0.0991054 0 0.752941 0.752941 0
0.00325026 0.0127 -0.00213239 0.792157 0.819608 0.933333 1
-0.0215842 0.00430786 -0.0281354 0.792157 0.819608 0.933333 2
-0.00511791 0.00635 0.00935015 0.792157 0.819608 0.933333 0
0.0514176 0.00105544 0.0756186 0 0.752941 0.752941 2
-0.011165 0.00526219 0.0250429 0.792157 0.819608 0.933333 0
0.0564466 7.77248e-06 0.0637389 0 0.752941 0.752941 2
0.0564073 0.00726176 0.0625193 0 0.752941 0.752941 2
0.0098771 0.0127 0.00483995 0.792157 0.819608 0.933333 2
-0.0166578 0.000959288 0.0925347 0 0.752941 0.752941 0
0.0453171 0.0081044 0.0628769 0 0.752941 0.752941 2
-0.00836235 0.00262257 -0.014484 0.733333 0.752941 0.847059 2
-0.0107761 -0.000254 0.0967577 0 0.752941 0.752941 0
0.0450963 0.012954 0.0526742 0 0.752941 0.752941 2
0.0365833 0.00499047 0.0486515 0 0.752941 0.752941 2
0.000445472 0.0127 -0.0192303 0.792157 0.819608 0.933333 0
-0.00656579 -9.45722e-05 0.0487603 0 0.752941 0.752941 0
0.000765794 0.0135706 -0.0334148 0.792157 0.819608 0.933333 0
-0.0058028 0.00495107 0.0974732 0 0.752941 0.752941 0
0.00952404 0.00305047 -0.00984399 0.792157 0.819608 0.933333 0
0.00614406 0 0.00530133 0.792157 0.819608 0.933333 0
0.0346148 0.012954 0.0334909 0 0.752941 0.752941 2
0.063439 -0.000234174 0.0887587 0 0.752941 0.752941 2
0.0417349 0.0118758 0.038657 0 0.752941 0.752941 2
0.0349465 0.00673954 0.0463339 0 0.752941 0.752941 2
0.0540515 -0.000254 0.0668454 0 0.752941 0.752941 2
0.0105602 0.0127 0.00738225 0.792157 0.819608 0.933333 2
0.0155458 0.00635 0.0200678 0.792157 0.819608 0.933333 2
-0.00559512 0.00137851 0.0985704 0 0.752941 0.752941 0
0.0217678 0.010065 0.0156026 0.792157 0.819608 0.933333 2
0.00959154 0.0123741 0.0184577 0.792157 0.819608 0.933333 2
0.0556155 -0.000254 0.0708552 0 0.752941 0.752941 2
-0.020599 0.00495107 -0.025276 0.792157 0.819608 0.933333 2
-0.00785729 0.00301279 0.0707684 0 0.752941 0.752941 0
-0.00708039 5.24767e-18 -0.00361809 0.792157 0.819608 0.933333 0
0.0514013 0.012954 0.0575292 0 0.752941 0.752941 2
0.0283707 0.00806971 0.0232211 0.792157 0.819608 0.933333 2
-0.0153366 0.00701679 0.101096 0 0.752941 0.752941 0
0.0032639 0.0198807 -0.0421666 0.792157 0.819608 0.933333 0
-0.0117596 -5.24767e-18 0.0427477 0.560784 0.796078 0.878431 0
-0.0155823 0.00344439 0.0458473 0 0.752941 0.752941 0
0.0472796 0.0128225 0.0479236 0 0.752941 0.752941 2
-0.0178921 0.011473 0.0724288 0 0.752941 0.752941 0
-0.0161587 0.00151961 0.0492721 0 0.752941 0.752941 0
-0.0156929 0.0023663 -0.0110367 0.792157 0.819608 0.933333 2
-0.00780057 0.0116179 0.0686126 0 0.752941 0.752941 0
-0.017843 0.00495107 -0.0309049 0.792157 0.819608 0.933333 2
-0.0200424 0.00437242 -0.0236604 0.792157 0.819608 0.933333 2
0.0579972 0.012954 0.074847 0 0.752941 0.752941 2
0.0498366 0.00427388 0.0506107 0 0.752941 0.752941 2
-0.0177657 0.00611308 0.0794038 0 0.752941 0.752941 0
0.0329894 0.0026028 0.0437098 0 0.752941 0.752941 2
-0.020113 0.0188221 -0.0327489 0.792157 0.819608 0.933333 2
0.0160496 0.0127 0.0191711 0.690196 0.807843 0.909804 2
0.00603335 0.00675377 -0.0279039 0.792157 0.819608 0.933333 0
-0.0135002 0.00475215 0.0367397 0.701961 0.811765 0.909804 0
-0.0110647 0.00563276 0.109533 0 0.752941 0.752941 0
-0.00601239 0.0127 -0.000941535 0.792157 0.819608 0.933333 2
-0.0130841 0.012954 0.0821981 0 0.752941 0.752941 0
-0.00917923 0.000704061 0.10972 0 0.752941 0.752941 0
-0.00601239 0.0127 0.00466032 0.792157 0.819608 0.933333 2
-0.0182173 0.00691355 -0.0315533 0.792157 0.819608 0.933333 2
-0.00679311 0.000283288 0.053224 0 0.752941 0.752941 0
0.0403438 0.012954 0.0437474 0 0.752941 0.752941 2
-0.00403183 0.0046327 -0.00858961 0.792157 0.819608 0.933333 0
-0.0132255 0.0129518 0.105504 0 0.752941 0.752941 0
0.0341802 -0.000254 0.0337559 0 0.752941 0.752941 2
-0.0104589 2.67356e-05 0.0256029 0.792157 0.819608 0.933333 0
0 0.00814722 -0.0403814 0.792157 0.819608 0.933333 0
-0.0075789 0.0109053 0.109382 0 0.752941 0.752941 0
-0.0173231 0.0021681 0.0593016 0 0.752941 0.752941 0
-0.0159243 0.00708589 0.0477982 0 0.752941 0.752941 0
0.0165462 0.00635 0.0176861 0.792157 0.819608 0.933333 2
0.000427649 0.0113154 -0.0423959 0.792157 0.819608 0.933333 0
0.0203092 0.00732402 0.0137268 0.792157 0.819608 0.933333 2
0.009525 0.00453184 -0.00328986 0.792157 0.819608 0.933333 0
0.00185481 0.00458594 0.0191192 0.792157 0.819608 0.933333 0
0.00623514 0 -0.0136953 0.792157 0.819608 0.933333 0
0.017251 0.0127 0.0224495 0.792157 0.819608 0.933333 2
0.0492337 0.0057227 0.049628 0 0.752941 0.752941 2
-0.0127566 0.0114411 0.0408853 0.792157 0.819608 0.933333 0
-0.00958969 0.00381003 0.00713608 0.792157 0.819608 0.933333 0
0.00747739 0.00951961 -0.0204671 0.792157 0.819608 0.933333 0
-0.0178867 0.00993358 0.0715942 0 0.752941 0.752941 0
0.0487643 0.0128149 0.050193 0 0.752941 0.752941 2
-0.0186512 0.00147461 -0.0196229 0.792157 0.819608 0.933333 2
0.0285056 0.00206905 0.0381 0 0.752941 0.752941 2
0.0532338 0.012954 0.066511 0 0.752941 0.752941 2
0.035668 0.012954 0.0356356 0 0.752941 0.752941 2
-0.0174804 0.0110094 0.0839546 0 0.752941 0.752941 0
-0.0175709 0.00646684 0.0826335 0 0.752941 0.752941 0
-0.0164392 -0.000231564 0.0838955 0 0.752941 0.752941 0
-0.00546677 0 0.0284575 0.690196 0.807843 0.909804 0
0.00917232 0.00635 0.0130167 0.792157 0.819608 0.933333 2
-0.015821 0.00782117 0.047209 0 0.752941 0.752941 0
-0.0107833 0.012954 0.0727929 0 0.752941 0.752941 0
0.00566825 0.0127 -0.0118586 0.792157 0.819608 0.933333 0
-0.0166596 -0.000231564 0.0653202 0 0.752941 0.752941 0
0.0556155 0.012954 0.0772287 0 0.752941 0.752941 2
0.00523082 0.00513929 -0.0320369 0.792157 0.819608 0.933333 0
-0.00634998 0.00733277 0.0939006 0 0.752941 0.752941 0
0.0270351 0.00564941 0.0271902 0.792157 0.819608 0.933333 2
-0.0118716 0.012954 0.0452797 0 0.752941 0.752941 0
0.00119565 0.0329003 -0.0493914 0.792157 0.819608 0.933333 0
0.00424904 0.00811862 -0.0370931 0.792157 0.819608 0.933333 0
0.046508 4.76823e-05 0.0462666 0 0.752941 0.752941 2
-0.00187554 0.00180257 0.0300788 0.792157 0.819608 0.933333 0
-0.0101725 0.0120962 0.0012506 0.792157 0.819608 0.933333 2
-0.00534034 0.00615558 0.0999164 0 0.752941 0.752941 0
-0.0214313 0.00893833 -0.0276915 0.792157 0.819608 0.933333 2
0.0226176 0.00895374 0.0310378 0.690196 0.807843 0.909804 2
0.0554393 0.00204881 0.0605568 0 0.752941 0.752941 2
-0.00608461 0.00635 0.00774007 0.792157 0.819608 0.933333 0
-0.012263 0.012954 0.0682645 0 0.752941 0.752941 0
0.0530663 0.00590219 0.0561604 0 0.752941 0.752941 2
-0.00601239 0.00231667 0.10835 0 0.752941 0.752941 0
0.0107824 0.0127 0.0150873 0.792157 0.819608 0.933333 2
-0.0177981 0.000684851 0.0760379 0 0.752941 0.752941 0
-0.00572373 0 0.0108676 0.792157 0.819608 0.933333 0
0.0139686 0.0101125 0.00479474 0.792157 0.819608 0.933333 2
-0.0164589 1.53482e-10 -0.0220865 0.678431 0.694118 0.764706 2
0.0456676 0.00973302 0.0635255 0 0.752941 0.752941 2
-0.00223812 0.0127 -0.00808665 0.792157 0.819608 0.933333 2
-0.00469868 0.0125941 -0.000595894 0.792157 0.819608 0.933333 1
0.0588184 0.012954 0.0841647 0 0.752941 0.752941 2
0.00799676 0.0073385 -0.0177923 0.792157 0.819608 0.933333 0
-0.0121067 -0.000254 0.0763088 0 0.752941 0.752941 0
0.0356769 -0.000254 0.0377303 0 0.752941 0.752941 2
-0.0132684 0.00300179 -0.00400008 0.792157 0.819608 0.933333 2
0.0241099 0.0081044 0.0184577 0.792157 0.819608 0.933333 2
0.0394052 0.0108474 0.0528993 0 0.752941 0.752941 2
-0.0162548 0.00495437 0.0955531 0 0.752941 0.752941 0
0.0532204 -0.000136333 0.0580229 0 0.752941 0.752941 2
0.0149019 0.00810286 0.00621149 0.792157 0.819608 0.933333 2
-0.00869047 3.74182e-05 -0.00088014 0.792157 0.819608 0.933333 0
0.0210808 0.0081044 0.0147051 0.792157 0.819608 0.933333 2
0.0563 0.00922625 0.0884712 0 0.752941 0.752941 2
-0.0157017 0.00915036 0.0465285 0 0.752941 0.752941 0
0.0448979 0.00555116 0.0430385 0 0.752941 0.752941 2
0.052192 0.00385391 0.0546025 0 0.752941 0.752941 2
0.060379 0.00495107 0.0909711 0 0.752941 0.752941 2
0.0308335 -0.000254 0.0355489 0 0.752941 0.752941 2
-0.00879553 0.0101683 0.0405072 0.792157 0.819608 0.933333 0
0.0488897 0.00394857 0.0699567 0 0.752941 0.752941 2
0.00607288 0.00219395 -0.0277003 0.792157 0.819608 0.933333 0
-0.00509974 0.00588605 0.0428709 0.619608 0.803922 0.890196 0
0.009525 0.00391848 -0.00811297 0.792157 0.819608 0.933333 0
0.033011 0.011281 0.0437387 0 0.752941 0.752941 2
0.0159388 0.00899554 0.00774007 0.792157 0.819608 0.933333 2
-0.00988132 0.00400392 0.00020572 0.792157 0.819608 0.933333 2
-0.0157787 0.012954 0.065953 0 0.752941 0.752941 0
0.00101275 -5.24767e-18 0.00500386 0.792157 0.819608 0.933333 0
0.0522268 0.00804033 0.0775999 0 0.752941 0.752941 2
0.029836 0.0127 0.0303663 0.560784 0.796078 0.878431 2
0.0453682 0.012954 0.0501707 0 0.752941 0.752941 2
0.00840069 0.000959288 0.00448681 0.792157 0.819608 0.933333 0
0.00851239 2.61424e-07 -0.000176669 0.792157 0.819608 0.933333 0
0.0461911 0.0128678 0.0627824 0 0.752941 0.752941 2
0.0599104 -0.000206323 0.0899747 0 0.752941 0.752941 2
0.0363793 -0.000254 0.03622 0 0.752941 0.752941 2
0.0547358 0.012954 0.0629065 0 0.752941 0.752941 2
-0.0195951 0.00557513 -0.0339398 0.792157 0.819608 0.933333 2
0.00531775 0 0.00101418 0.792157 0.819608 0.933333 0
-0.0149786 -0.000254 0.0758376 0 0.752941 0.752941 0
-0.0129411 0.00147461 0.0342096 0.792157 0.819608 0.933333 0
-0.00893449 -0.000239751 0.0745357 0 0.752941 0.752941 0
-0.0245838 0.0335315 -0.0399907 0.792157 0.819608 0.933333 2
0.0448979 0.012945 0.0450757 0 0.752941 0.752941 2
0.0548439 3.04514e-05 0.083183 0 0.752941 0.752941 2
-0.0022922 0.000168714 0.0298956 0.792157 0.819608 0.933333 0
0.00439995 -5.24767e-18 -0.0042705 0.792157 0.819608 0.933333 0
0.0287081 0.0109053 0.0235911 0.792157 0.819608 0.933333 2
0.009525 0.00691355 -0.00774101 0.792157 0.819608 0.933333 0
-0.00909196 -0.000254 0.0927966 0 0.752941 0.752941 0
0.00744255 0.00635 0.00945284 0.792157 0.819608 0.933333 2
0.0286476 0.00148498 0.0382702 0 0.752941 0.752941 2
0.00340336 0.0203962 -0.0414483 0.792157 0.819608 0.933333 0
-0.00601239 0.00635 0.028434 0.792157 0.819608 0.933333 0
-0.0142255 -0.000254 0.0858942 0 0.752941 0.752941 0
-0.0108451 0.00304513 0.0230581 0.792157 0.819608 0.933333 0
0.00798146 0.007667 0.0175063 0.792157 0.819608 0.933333 2
0.0210057 0.00635 0.0232211 0.792157 0.819608 0.933333 2
-0.0177981 0.00441936 -0.0171467 0.792157 0.819608 0.933333 2
0.0103632 0.0075871 -0.00110047 0.792157 0.819608 0.933333 2
-0.00884801 0.012954 0.0470382 0 0.752941 0.752941 0
0.00504382 0.00580422 -0.033 0.792157 0.819608 0.933333 0
0.0425356 0.00575569 0.0579704 0 0.752941 0.752941 2
-0.01708 0.0104861 0.0567714 0 0.752941 0.752941 0
-0.0101416 0.00484285 0.0171199 0.792157 0.819608 0.933333 0
-0.0133006 0.012954 0.0771457 0 0.752941 0.752941 0
-0.0130058 0.012954 0.0746379 0 0.752941 0.752941 0
-0.00932037 0.012954 0.0637101 0 0.752941 0.752941 0
-0.0178578 0.00256937 0.0688737 0 0.752941 0.752941 0
0.0568433 0.012954 0.0768029 0 0.752941 0.752941 2
-0.00361835 0.0120962 0.00893092 0.792157 0.819608 0.933333 2
0.000598599 0.0318979 -0.0490836 0.792157 0.819608 0.933333 0
0.00576867 0.0127 0.00463161 0.792157 0.819608 0.933333 2
-0.0127489 0.012954 0.0763654 0 0.752941 0.752941 0
-0.0170602 0.010387 0.056565 0 0.752941 0.752941 0
-0.0076516 0.00227176 0.064901 0 0.752941 0.752941 0
0.0296766 0.00586452 0.0395047 0 0.752941 0.752941 2
0 0.0068506 -0.0378933 0.792157 0.819608 0.933333 0
0.0412346 0.00598135 0.0379664 0 0.752941 0.752941 2
0.00321806 0.0142968 -0.0347114 0.792157 0.819608 0.933333 0
0.00478549 0.0130375 -0.0340897 0.792157 0.819608 0.933333 0
0.0119732 0.00852363 0.00156846 0.792157 0.819608 0.933333 2
-0.0178929 0.00745535 0.0725396 0 0.752941 0.752941 0
-0.00695932 0.00890884 0.0891372 0 0.752941 0.752941 0
-0.0082499 0 0.00101209 0.792157 0.819608 0.933333 0
-0.0170127 0.0123422 0.0581409 0 0.752941 0.752941 0
0.0550533 0.00212037 0.085204 0 0.752941 0.752941 2
-0.00829906 0.012954 0.0503321 0 0.752941 0.752941 0
-0.0142977 0.0013613 0.0404235 0.701961 0.811765 0.909804 0
-0.00825233 7.79629e-05 0.0737734 0 0.752941 0.752941 0
0.0410616 0.012954 0.0468316 0 0.752941 0.752941 2
-5.24767e-18 0.0156054 -0.0429457 0.792157 0.819608 0.933333 0
-0.0135015 0.0127 -0.0120672 0.792157 0.819608 0.933333 2
0.0110781 0.01086 8.60649e-05 0.792157 0.819608 0.933333 2
0.00293392 0.0127 0.00144017 0.792157 0.819608 0.933333 1
0.00851784 0.0053661 -0.0151087 0.792157 0.819608 0.933333 0
0 0.00386958 -0.0196495 0.792157 0.819608 0.933333 0
-0.0227908 0.0263864 -0.0394748 0.792157 0.819608 0.933333 2
0.0206013 0.0093027 0.0140897 0.792157 0.819608 0.933333 2
-0.0189842 0.0163366 -0.0316157 0.792157 0.819608 0.933333 2
-0.0174436 0.00691355 -0.0302131 0.792157 0.819608 0.933333 2
0.0617745 0.00105472 0.0744278 0 0.752941 0.752941 2
0.0163174 0.0127 0.0158028 0.690196 0.807843 0.909804 2
-0.0076516 0.00572982 0.064901 0 0.752941 0.752941 0
-0.00783306 0.00761285 0.0738427 0 0.752941 0.752941 0
0.009525 0.0110306 -0.0079122 0.792157 0.819608 0.933333 0
0.0450963 0.012954 0.05099 0 0.752941 0.752941 2
-0.0118326 0.00719407 0.0367397 0.792157 0.819608 0.933333 0
0.0361508 0.012954 0.0446565 0 0.752941 0.752941 2
0.00567017 0.011925 -0.0296089 0.792157 0.819608 0.933333 0
-0.00921326 0.00964602 0.00309216 0.792157 0.819608 0.933333 2
-0.00517033 0.0126875 0.103489 0 0.752941 0.752941 0
0.0518262 0.0037516 0.076619 0 0.752941 0.752941 2
-0.0210258 0.00522752 -0.0337726 0.792157 0.819608 0.933333 2
0.00746289 1.3367e-05 -0.0160132 0.792157 0.819608 0.933333 0
0.00948688 0.000823832 -0.0100168 0.792157 0.819608 0.933333 0
0.00440891 0.0127 -0.0161954 0.792157 0.819608 0.933333 0
-0.0119146 0.012954 0.10404 0 0.752941 0.752941 0
-0.00595738 8.69292e-05 0.0466987 0 0.752941 0.752941 0
0.0199145 0.00635 0.0260221 0.792157 0.819608 0.933333 2
0.0367662 0.011696 0.0489087 0 0.752941 0.752941 2
-0.00736837 0.00660592 0.0605568 0 0.752941 0.752941 0
0.000318352 0.0275773 -0.0476797 0.792157 0.819608 0.933333 0
0.009486 0.00929525 -0.0101227 0.792157 0.819608 0.933333 0
0.000836351 0.0127 0.00569813 0.792157 0.819608 0.933333 2
-0.0168156 0.0128754 0.0814026 0 0.752941 0.752941 0
0.0476261 0.012954 0.0592133 0 0.752941 0.752941 2
0.0514176 0.00307953 0.0756186 0 0.752941 0.752941 2
0.0072036 0.0127 0.0153493 0.792157 0.819608 0.933333 2
-0.0155741 0.00890367 -0.0106921 0.792157 0.819608 0.933333 2
-0.00795347 0.00848123 -0.0137758 0.792157 0.819608 0.933333 2
0.0269286 0.0101199 0.0216286 0.792157 0.819608 0.933333 2
0.0359445 0.00261311 0.031348 0 0.752941 0.752941 2
0.0457408 0.0120123 0.0443381 0 0.752941 0.752941 2
0.0501179 0.0105887 0.0726357 0 0.752941 0.752941 2
-0.0107449 0.012954 0.0810554 0 0.752941 0.752941 0
0.0520897 0.00206749 0.0772643 0 0.752941 0.752941 2
0.0473468 0.012954 0.0581751 0 0.752941 0.752941 2
0.0655828 0.0105082 0.0867555 0 0.752941 0.752941 2
-0.00466634 0.0127 -0.00284513 0.792157 0.819608 0.933333 2
-0.0166896 0.00376022 0.0922906 0 0.752941 0.752941 0
0.00841265 0.00929525 -0.0156505 0.792157 0.819608 0.933333 0
0.0577272 0.012954 0.0722562 0 0.752941 0.752941 2
-0.00319755 5.24767e-18 0.0117966 0.690196 0.807843 0.909804 0
-0.0174471 0.00852363 0.0844414 0 0.752941 0.752941 0
-0.00517033 0.00635 0.0296249 0.792157 0.819608 0.933333 0
0.00702384 0.0108934 -0.0228029 0.792157 0.819608 0.933333 0
-0.0177909 0.00163135 -0.017126 0.792157 0.819608 0.933333 2
-0.0206238 0.00177105 -0.0296048 0.792157 0.819608 0.933333 2
0.00720984 0.00635 0.00855722 0.792157 0.819608 0.933333 2
0.00979495 0.00639074 0.0180283 0.792157 0.819608 0.933333 2
0.00244643 0.0127 0.00498259 0.792157 0.819608 0.933333 2
0.0222717 0.00635 0.0201504 0.792157 0.819608 0.933333 2
0 0.0200129 -0.0420114 0.792157 0.819608 0.933333 0
0.0560962 0.00495107 0.0618837 0 0.752941 0.752941 2
0.0556155 0.012954 0.0760379 0 0.752941 0.752941 2
0.0589636 -0.000254 0.0822914 0 0.752941 0.752941 2
0.0478794 0.012954 0.05171 0 0.752941 0.752941 2
0.0310373 0.0119093 0.0411398 0 0.752941 0.752941 2
-0.00588954 0.00635 0.0184663 0.792157 0.819608 0.933333 0
-0.0125894 0.012954 0.103365 0 0.752941 0.752941 0
-0.0141713 -0.000254 0.051619 0 0.752941 0.752941 0
0.0596073 0.012954 0.0855663 0 0.752941 0.752941 2
-0.012526 -0.000254 0.0646937 0 0.752941 0.752941 0
0.0476225 0.00948147 0.0471483 0 0.752941 0.752941 2
0.0623203 0.00109902 0.0906848 0 0.752941 0.752941 2
-0.00988132 -0.000254 0.0505971 0 0.752941 0.752941 0
-0.0102227 0.0127 -0.00213239 0.792157 0.819608 0.933333 2
-0.00767884 0.00588578 0.0655797 0 0.752941 0.752941 0
-0.0143043 0.0112163 -0.00700667 0.792157 0.819608 0.933333 2
0.0310269 0.0128013 0.0400747 0 0.752941 0.752941 2
0.046508 0.012954 0.0494199 0 0.752941 0.752941 2
-0.00487889 0.00947772 0.102354 0 0.752941 0.752941 0
-0.0156438 0.00521161 -0.0108943 0.792157 0.819608 0.933333 2
0.0158376 0.00635 0.013414 0.792157 0.819608 0.933333 2
-0.0141121 0.00110724 0.0395766 0.701961 0.811765 0.909804 0
-0.00601488 0.0127 -0.00726944 0.792157 0.819608 0.933333 2
-0.00522176 0.00826251 0.0434656 0.619608 0.803922 0.890196 0
-0.00627975 0.00149279 0.05103 0 0.752941 0.752941 0
-0.00599047 1.53482e-10 -0.00792443 0.658824 0.67451 0.737255 2
0.0340142 0.00439304 0.0450757 0 0.752941 0.752941 2
0.0190515 0.00635 0.0249453 0.792157 0.819608 0.933333 2
0.00235461 0.0276181 -0.0436951 0.792157 0.819608 0.933333 0
-0.000960033 0.00592335 0.0264641 0.792157 0.819608 0.933333 0
-0.00647151 0.0127 -0.00789749 0.792157 0.819608 0.933333 2
0.0020272 0.0127 -0.0178795 0.792157 0.819608 0.933333 0
0.00377453 0.00729106 -0.0395368 0.792157 0.819608 0.933333 0
-0.0164233 0.0103825 0.0510872 0 0.752941 0.752941 0
-0.0150565 0.00715454 0.0428485 0 0.752941 0.752941 0
0.024294 0.00818776 0.0186707 0.792157 0.819608 0.933333 2
-0.0250954 0.0354413 -0.0434666 0.792157 0.819608 0.933333 2
-0.0154164 0.0129535 0.0922906 0 0.752941 0.752941 0
0.00150365 0.0247975 -0.0467765 0.792157 0.819608 0.933333 0
-0.00743564 0.00971448 0.0613634 0 0.752941 0.752941 0
-0.0079012 -0.000254 0.101046 0 0.752941 0.752941 0
-0.011228 0.00237688 -0.0194474 0.733333 0.752941 0.847059 2
0.0550068 0.00633189 0.0850711 0 0.752941 0.752941 2
-0.0173233 0.00205093 0.0862493 0 0.752941 0.752941 0
0.0645623 0.00106713 0.0819921 0 0.752941 0.752941 2
-0.0104247 0.00601742 -0.0180561 0.733333 0.752941 0.847059 2
6.47246e-05 0.0243155 -0.0466199 0.792157 0.819608 0.933333 0
0.00291066 0.0253487 -0.0439857 0.792157 0.819608 0.933333 0
-0.0075199 0.0055083 0.0827637 0 0.752941 0.752941 0
0.0181504 0.0127 0.0189918 0.690196 0.807843 0.909804 2
0.0155954 0.00635 0.0130685 0.792157 0.819608 0.933333 2
0.00337677 0.00522376 -0.0395689 0.792157 0.819608 0.933333 0
-0.015282 0.00418756 0.0441344 0 0.752941 0.752941 0
-0.00656579 0 0.0319191 0.690196 0.807843 0.909804 0
-0.00909196 1.53482e-10 -0.00825057 0.647059 0.662745 0.721569 2
0.0405895 -0.000202123 0.0386556 0 0.752941 0.752941 2
0 0.0328105 -0.0482926 0.792157 0.819608 0.933333 0
0.0579972 -0.000254 0.0768095 0 0.752941 0.752941 2
0.009525 0.00947287 -0.00863147 0.792157 0.819608 0.933333 0
-0.00779237 0.0038386 0.0776744 0 0.752941 0.752941 0
-0.00945581 0.0097212 0.0398931 0.792157 0.819608 0.933333 0
-0.0133445 0.012954 0.047785 0 0.752941 0.752941 0
0.0286452 0.000959288 0.0382596 0 0.752941 0.752941 2
0.0218558 0.012598 0.0294337 0.792157 0.819608 0.933333 2
0.0047165 5.24767e-18 -0.0198819 0.792157 0.819608 0.933333 0
0.0143549 0.0127 0.00965924 0.792157 0.819608 0.933333 2
-0.011077 0 0.0340099 0.690196 0.807843 0.909804 0
0.0300004 0.0102923 0.0398931 0 0.752941 0.752941 2
-0.00024063 0.00210349 -0.00950395 0.792157 0.819608 0.933333 0
0.0649759 0.00733277 0.083183 0 0.752941 0.752941 2
-0.0178931 0.011422 0.0744278 0 0.752941 0.752941 0
0.00124021 0.0127 -0.0164437 0.792157 0.819608 0.933333 0
-0.0241715 0.0228139 -0.0356447 0.792157 0.819608 0.933333 2
0.0544247 0.000959288 0.0586572 0 0.752941 0.752941 2
0.0067112 0.0057227 -0.0244129 0.792157 0.819608 0.933333 0
-0.00145788 0.00140846 0.0286818 0.792157 0.819608 0.933333 0
0.048425 0.0101916 0.0483835 0 0.752941 0.752941 2
0.0412536 0.00852363 0.0379915 0 0.752941 0.752941 2
0.000468152 0.0138496 -0.0339398 0.792157 0.819608 0.933333 0
-0.0117118 -0.000254 0.0634771 0 0.752941 0.752941 0
-0.0177151 0.00997054 0.0805271 0 0.752941 0.752941 0
0.0608764 0.0103028 0.0722159 0 0.752941 0.752941 2
0.0326703 0.012954 0.0328955 0 0.752941 0.752941 2
-0.0171671 0.0081044 0.0576775 0 0.752941 0.752941 0
0.0444092 -0.000254 0.0492118 0 0.752941 0.752941 2
0.0252464 0.0127 0.0288298 0.690196 0.807843 0.909804 2
0.061989 -0.000254 0.0875783 0 0.752941 0.752941 2
-0.00112613 0.00635 0.0218346 0.792157 0.819608 0.933333 0
0.00178118 0.0127 -0.00958161 0.792157 0.819608 0.933333 0
-0.0106529 0.012954 0.0553742 0 0.752941 0.752941 0
-0.0100968 0.00272033 0.0166464 0.792157 0.819608 0.933333 0
-0.0154647 0.0111293 -0.0103744 0.792157 0.819608 0.933333 2
-0.0110045 0.012954 0.080382 0 0.752941 0.752941 0
0.0424633 0.00531105 0.0578428 0 0.752941 0.752941 2
0.0167328 0.00635 0.0114306 0.792157 0.819608 0.933333 2
-0.0146899 0.0106223 -0.0254437 0.733333 0.752941 0.847059 2
-0.00610904 0.000366447 0.0967025 0 0.752941 0.752941 0
-0.0142025 0.00614192 0.106581 0 0.752941 0.752941 0
0.0591881 -0.000231564 0.0709715 0 0.752941 0.752941 2
0.00798146 0.0127 0.0089437 0.690196 0.807843 0.909804 2
0.0035467 0.00177105 -0.0359379 0.792157 0.819608 0.933333 0
-0.012263 0.012954 0.0777386 0 0.752941 0.752941 0
0.00145694 0.0057227 0.0199353 0.792157 0.819608 0.933333 0
0.0548439 0.012954 0.0771457 0 0.752941 0.752941 2
-0.0239921 0.0158008 -0.0367196 0.792157 0.819608 0.933333 2
0.0270351 0.012576 0.0225407 0.792157 0.819608 0.933333 2
-0.0167761 0.008028 0.0915189 0 0.752941 0.752941 0
-0.00653189 0.00620441 -0.0113136 0.752941 0.776471 0.87451 2
-0.00946209 0.0127 -6.97687e-05 0.792157 0.819608 0.933333 2
0.00370111 0.0104422 -0.0399149 0.792157 0.819608 0.933333 0
-0.014886 -0.000254 0.0566884 0 0.752941 0.752941 0
-0.0147993 0.00135643 0.1039 0 0.752941 0.752941 0
0.0304501 0.0127 0.0315528 0.560784 0.796078 0.878431 2
-0.00386958 0 -0.0053593 0.792157 0.819608 0.933333 0
0.00105246 0.0127 -0.00761799 0.792157 0.819608 0.933333 2
0.0392019 0.0128638 0.036675 0 0.752941 0.752941 2
0.000836351 0.0179354 -0.0379059 0.792157 0.819608 0.933333 0
-0.00771622 0.00124514 0.066511 0 0.752941 0.752941 0
-0.012015 0.0124259 -0.00240652 0.792157 0.819608 0.933333 2
0 0.0055537 -0.0256038 0.792157 0.819608 0.933333 0
-0.00782229 0.0104317 0.0752085 0 0.752941 0.752941 0
-0.00448271 0.000851004 0.0400262 0.592157 0.8 0.886275 0
-0.00509268 0.00138336 0.0429041 0.72549 0.811765 0.917647 0
0.0550525 0.000589526 0.0600092 0 0.752941 0.752941 2
-0.00964968 0.012954 0.0968946 0 0.752941 0.752941 0
0.00951472 0.000898477 -0.00648508 0.792157 0.819608 0.933333 0
0.0448979 0.012954 0.0462666 0 0.752941 0.752941 2
-0.0142025 0.012954 0.0855663 0 0.752941 0.752941 0
0.0345187 0.012954 0.0323039 0 0.752941 0.752941 2
0.0173162 0.0127 0.0238028 0.792157 0.819608 0.933333 2
-0.00853857 0.00635 0.0343883 0.792157 0.819608 0.933333 0
0.0516629 0.0124214 0.0755914 0 0.752941 0.752941 2
0.0234625 0.00635 0.0232211 0.792157 0.819608 0.933333 2
-0.010303 0.0127 -0.0105528 0.792157 0.819608 0.933333 2
0.00542791 0.00766547 -0.0310219 0.792157 0.819608 0.933333 0
0.0509471 0.0121743 0.0742749 0 0.752941 0.752941 2
-0.0110722 0.012954 0.0901581 0 0.752941 0.752941 0
-0.0152279 0.00644781 0.0438259 0 0.752941 0.752941 0
-0.0110045 0.012954 0.0910997 0 0.752941 0.752941 0
-0.013196 -0.000254 0.0455447 0 0.752941 0.752941 0
-0.0107761 0.0117806 0.000368372 0.792157 0.819608 0.933333 2
0.0553421 0.00278314 0.0603707 0 0.752941 0.752941 2
-0.0219342 0.00287544 -0.0303235 0.792157 0.819608 0.933333 2
-0.0144224 0.0122624 0.105127 0 0.752941 0.752941 0
-0.0158703 0.00278343 0.0474903 0 0.752941 0.752941 0
0.00177565 0 -0.00494008 0.792157 0.819608 0.933333 0
-0.0236771 0.0105774 -0.0344049 0.792157 0.819608 0.933333 2
0.00467426 0.0081044 -0.0349032 0.792157 0.819608 0.933333 0
0.0242801 0.00635 0.0234374 0.792157 0.819608 0.933333 2
-0.00349398 0.0125446 -0.00831234 0.792157 0.819608 0.933333 2
-0.020177 0.0107373 -0.0240513 0.792157 0.819608 0.933333 2
0.0485322 0.00905315 0.0691953 0 0.752941 0.752941 2
0.0331754 0.00963121 0.028484 0.709804 0.811765 0.913725 2
0.0338531 -0.000254 0.040631 0 0.752941 0.752941 2
6.22616e-05 0.0127759 -0.0305017 0.792157 0.819608 0.933333 0
-0.0189002 0.0143422 -0.0327362 0.792157 0.819608 0.933333 2
0.0222717 0.00635 0.0248055 0.792157 0.819608 0.933333 2
-0.00612881 0.00860896 0.0395312 0.792157 0.819608 0.933333 0
0.0484234 0.00971448 0.0689636 0 0.752941 0.752941 2
-0.0110722 -0.000254 0.0842794 0 0.752941 0.752941 0
0.01989 0.00635678 0.014694 0.792157 0.819608 0.933333 2
0.061898 0.00513929 0.074734 0 0.752941 0.752941 2
-0.0108525 0.00167969 0.0231081 0.792157 0.819608 0.933333 0
-0.0158356 0.012795 -0.0263754 0.792157 0.819608 0.933333 2
0.00794877 0.0101342 -0.0180395 0.792157 0.819608 0.933333 0
-0.0248438 0.0223946 -0.0385666 0.792157 0.819608 0.933333 2
0.0453171 -0.000231564 0.0607732 0 0.752941 0.752941 2
0.0020272 0.0127 0.00569813 0.792157 0.819608 0.933333 2
0.000138973 0.00607632 0.0228739 0.792157 0.819608 0.933333 0
0.0223013 0.0126274 0.0297961 0.792157 0.819608 0.933333 2
0.0562767 0.00357369 0.0622525 0 0.752941 0.752941 2
0.0577272 0.0123752 0.0656899 0 0.752941 0.752941 2
-0.0174035 0.00499142 0.0601376 0 0.752941 0.752941 0
0.00185481 0 0.0161692 0.792157 0.819608 0.933333 0
-0.0145264 0.00740141 -0.00765126 0.792157 0.819608 0.933333 2
-0.00588954 0.0127 0.00178581 0.792157 0.819608 0.933333 2
0.0343987 0.012954 0.0424849 0 0.752941 0.752941 2
-0.0119452 0.00392083 0.0295774 0.792157 0.819608 0.933333 0
-0.00993402 -0.000254 0.0717451 0 0.752941 0.752941 0
-0.0201924 0.00256937 -0.024096 0.792157 0.819608 0.933333 2
-0.00917593 -0.000254 0.0839546 0 0.752941 0.752941 0
0.0344762 0.00256937 0.0295946 0 0.752941 0.752941 2
-0.0141443 -0.000254 0.0933895 0 0.752941 0.752941 0
0.00705682 0.00844247 -0.022633 0.792157 0.819608 0.933333 0
0.0103741 0.0127 0.0150873 0.792157 0.819608 0.933333 2
0.00654208 0 -0.0075792 0.792157 0.819608 0.933333 0
-0.00050134 0 0.00654922 0.792157 0.819608 0.933333 0
0.00122715 0.0141028 -0.0343892 0.792157 0.819608 0.933333 0
0.00928833 0.0115002 0.0185641 0.792157 0.819608 0.933333 2
0.00210216 0.0133203 -0.0430473 0.792157 0.819608 0.933333 0
0.00386263 0.0171068 -0.0390831 0.792157 0.819608 0.933333 0
0.0627401 -0.000254 0.0817919 0 0.752941 0.752941 2
-0.00977886 0.012954 0.0553845 0 0.752941 0.752941 0
0.0496613 0.012954 0.0592133 0 0.752941 0.752941 2
0.0579841 0.012954 0.0779087 0 0.752941 0.752941 2
-0.00748704 0.0101167 0.0833512 0 0.752941 0.752941 0
-0.00938063 0.00635 0.0331974 0.792157 0.819608 0.933333 0
-0.00742404 0.0128415 0.0540638 0 0.752941 0.752941 0
0.0553869 0.00400079 0.0861577 0 0.752941 0.752941 2
-0.00869047 0.00635 0.0186619 0.792157 0.819608 0.933333 0
0.00893561 0.0122875 -0.0119125 0.792157 0.819608 0.933333 0
0.060379 0.0121077 0.0712745 0 0.752941 0.752941 2
0.0152033 0.0120417 0.00672396 0.792157 0.819608 0.933333 2
0.0403056 0.00256937 0.0367397 0 0.752941 0.752941 2
0.0569834 0.00427651 0.0636962 0 0.752941 0.752941 2
-0.00740784 -9.92313e-05 0.0546547 0 0.752941 0.752941 0
0.0282581 -0.000254 0.0351003 0 0.752941 0.752941 2
-0.00946209 1.53482e-10 -0.00970349 0.658824 0.67451 0.737255 2
0.0300004 0.00860819 0.0398931 0 0.752941 0.752941 2
-0.0060658 -0.000254 0.106104 0 0.752941 0.752941 0
0 0.00496082 -0.0263754 0.792157 0.819608 0.933333 0
-0.0170281 0.00454337 0.0562305 0 0.752941 0.752941 0
0.00402011 0.00635 0.0129227 0.792157 0.819608 0.933333 2
0.0511838 0.0100012 0.0750462 0 0.752941 0.752941 2
-0.00933608 -0.000254 0.0710742 0 0.752941 0.752941 0
-0.0145014 0.000260107 -0.00861802 0.792157 0.819608 0.933333 2
-0.00656579 2.92257e-05 -0.00574303 0.792157 0.819608 0.933333 0
0.0377528 0.00160929 0.0335074 0 0.752941 0.752941 2
0.0341802 0.012954 0.0423721 0 0.752941 0.752941 2
-0.00595017 0 0.00311839 0.792157 0.819608 0.933333 0
-0.0178812 0.00983562 0.0707522 0 0.752941 0.752941 0
-0.0117954 0.00816273 -0.00138026 0.792157 0.819608 0.933333 2
-5.24767e-18 0.0289814 -0.0443883 0.792157 0.819608 0.933333 0
-0.00953815 0.00182586 0.0049287 0.792157 0.819608 0.933333 0
-0.0149522 0.00038636 -0.025898 0.772549 0.796078 0.901961 2
0.0624245 -0.000254 0.0817912 0 0.752941 0.752941 2
-0.0165758 1.53482e-10 -0.0180395 0.631373 0.643137 0.698039 2
-0.0111823 0.0123422 -0.000803243 0.792157 0.819608 0.933333 2
0.034566 0.00608149 0.0297019 0 0.752941 0.752941 2
-0.020404 0.0148709 -0.0291763 0.792157 0.819608 0.933333 2
0.0251438 0.00729998 0.033795 0.690196 0.807843 0.909804 2
0.00387143 5.24767e-18 -0.0109474 0.792157 0.819608 0.933333 0
-0.00213165 0.000712919 0.0307855 0.792157 0.819608 0.933333 0
0.0530957 0.00256937 0.0562141 0 0.752941 0.752941 2
0.00345682 0.0145531 -0.041173 0.792157 0.819608 0.933333 0
0.0465607 0.00154424 0.0652754 0 0.752941 0.752941 2
-0.0178572 0.0057227 0.0760379 0 0.752941 0.752941 0
0 0.0144779 -0.039894 0.792157 0.819608 0.933333 0
0.0387689 0.00303466 0.0347675 0 0.752941 0.752941 2
-0.0170737 0.000268816 0.0863363 0 0.752941 0.752941 0
0.00272247 0.0127 -0.016077 0.792157 0.819608 0.933333 0
0.0203801 0.00685146 0.0285509 0.792157 0.819608 0.933333 2
-0.0154164 -0.000254 0.0808419 0 0.752941 0.752941 0
-0.00853857 0.0128093 0.0718098 0 0.752941 0.752941 0
-0.00475491 0.00558448 0.0412785 0.72549 0.811765 0.917647 0
-0.0146923 0.000198003 -0.00942086 0.792157 0.819608 0.933333 2
0.0286452 0.00929525 0.0382674 0 0.752941 0.752941 2
0.0330188 0.00766547 0.0283062 0.596078 0.8 0.886275 2
-5.24767e-18 0.00614192 -0.0345251 0.792157 0.819608 0.933333 0
0.000558302 0.0127 0.00835083 0.792157 0.819608 0.933333 2
-0.0171005 0.00498417 0.0569842 0 0.752941 0.752941 0
0.0178749 0.00968026 0.0262561 0.792157 0.819608 0.933333 2
0.00299904 0.015414 -0.0432027 0.792157 0.819608 0.933333 0
-0.00744448 0.012631 0.0884277 0 0.752941 0.752941 0
-0.0229807 0.0200129 -0.0389499 0.792157 0.819608 0.933333 2
-0.0124413 -0.000254 0.0479371 0 0.752941 0.752941 0
-0.00793693 -0.000254 0.0449518 0 0.752941 0.752941 0
0.0522552 0.0117945 0.0547275 0 0.752941 0.752941 2
-0.01784 0.00852363 0.0768095 0 0.752941 0.752941 0
-0.0166072 -0.000248331 0.077468 0 0.752941 0.752941 0
0.0239286 0.0127 0.0257849 0.690196 0.807843 0.909804 2
-0.00691509 0.00614192 0.109039 0 0.752941 0.752941 0
0.0402168 0.00215153 0.0541833 0 0.752941 0.752941 2
0.0155458 0.0127 0.0101218 0.792157 0.819608 0.933333 2
0.000387905 0.0380632 -0.0497764 0.792157 0.819608 0.933333 0
-0.0178876 0.00741037 0.0717344 0 0.752941 0.752941 0
0.00359968 0.013287 -0.0404373 0.792157 0.819608 0.933333 0
0.00229618 0.0127 0.00739443 0.792157 0.819608 0.933333 2
0.0274543 0.0127 0.0298687 0.690196 0.807843 0.909804 2
-0.00952944 0.00635 0.0239031 0.792157 0.819608 0.933333 0
-0.0227677 0.00616367 -0.0315703 0.792157 0.819608 0.933333 2
-0.0198898 0.0117346 -0.0232221 0.792157 0.819608 0.933333 2
0.00985229 0.0111601 -0.00198534 0.792157 0.819608 0.933333 2
-0.00860032 -0.000147757 0.0744278 0 0.752941 0.752941 0
0.0504056 0.0047588 0.0732861 0 0.752941 0.752941 2
0.00666146 0.000770919 -0.0244954 0.792157 0.819608 0.933333 0
0.0298341 0.00111256 0.0307855 0.792157 0.819608 0.933333 2
-0.0136759 0.00383877 0.0375531 0.701961 0.811765 0.909804 0
-0.0225797 0.023904 -0.0347127 0.792157 0.819608 0.933333 2
0.00820241 0.0115693 -0.0167332 0.792157 0.819608 0.933333 0
-0.00869047 0.012954 0.0438849 0 0.752941 0.752941 0
-0.00722461 0.00813193 0.00618242 0.792157 0.819608 0.933333 2
0.0591149 0.00519337 0.0681856 0 0.752941 0.752941 2
0.00337869 0.0154709 -0.0415754 0.792157 0.819608 0.933333 0
-0.0134539 0.0125584 -0.00607173 0.792157 0.819608 0.933333 2
-0.0171275 6.41608e-05 0.0626452 0 0.752941 0.752941 0
0.00822424 0.00635 0.00460616 0.792157 0.819608 0.933333 2
0.0388233 0.000187661 0.0353695 0 0.752941 0.752941 2
-0.0188743 5.94919e-05 -0.0223417 0.792157 0.819608 0.933333 2
-0.013731 0.0127 -0.0190332 0.792157 0.819608 0.933333 2
0.0581562 0.00248871 0.0660918 0 0.752941 0.752941 2
-0.0246409 0.0232842 -0.037007 0.792157 0.819608 0.933333 2
0.00702384 0.00584106 -0.0228029 0.792157 0.819608 0.933333 0
0.0231775 0.00635 0.0229258 0.792157 0.819608 0.933333 2
-0.00598958 0 0.00537984 0.792157 0.819608 0.933333 0
-0.0100802 0.012954 0.0564418 0 0.752941 0.752941 0
-0.0082499 -0.000165862 0.0841268 0 0.752941 0.752941 0
0.0236351 0.00635 0.0203461 0.792157 0.819608 0.933333 2
-0.00703167 0.0113239 0.0569747 0 0.752941 0.752941 0
-0.00740784 -0.000254 0.0465853 0 0.752941 0.752941 0
-0.0206303 0.00858101 -0.0253668 0.792157 0.819608 0.933333 2
-0.0178923 0.00307957 0.0724559 0 0.752941 0.752941 0
0.0470496 0.00852363 0.0462666 0 0.752941 0.752941 2
0.054461 0.00711984 0.083511 0 0.752941 0.752941 2
0.0502901 0.00733277 0.0730251 0 0.752941 0.752941 2
0.00137477 0 -0.00401098 0.792157 0.819608 0.933333 1
-0.0130346 0.012954 0.0722256 0 0.752941 0.752941 0
-0.0201491 0.0158897 -0.0348992 0.792157 0.819608 0.933333 2
0.00244643 0.0127 -0.016077 0.792157 0.819608 0.933333 0
-0.0174428 0.000187661 0.0792539 0 0.752941 0.752941 0
