ply
format ascii 1.0
comment Created by Open3D
element vertex 658
property float32 x
property float32 y
property float32 z
property float32 red
property float32 green
property float32 blue
property float32 volume
property uint8 segmentation
end_header
0.000219424 0.0124147 -0.0238827 0.001462 0.000466 0.013866 1.04527e-05 0
0.00306436 0.0116634 -0.0078942 0.001462 0.000466 0.013866 6.12471e-06 0
0.0035688 0.0124341 -0.0242739 0.001462 0.000466 0.013866 1.18187e-05 0
-0.00245493 0.00526303 -0.0112541 0.001462 0.000466 0.013866 3.40685e-05 0
0.00825734 0.0128058 -0.00709007 0.001462 0.000466 0.013866 1.99599e-05 0
0.00801644 0.0154933 -0.0155842 0.001462 0.000466 0.013866 2.89495e-06 0
0.00586584 0.0135796 -0.0109683 0.001462 0.000466 0.013866 5.16362e-06 0
0.00926983 0.0155575 -0.00756901 0.001462 0.000466 0.013866 2.14856e-06 0
0.00889291 0.0138543 -0.0152827 0.001462 0.000466 0.013866 4.92429e-06 0
0.00473275 0.0114455 -0.0145785 0.001462 0.000466 0.013866 1.85413e-05 0
0.000928009 0.0157583 -0.0251516 0.001462 0.000466 0.013866 3.43011e-06 0
-0.00120018 0.0110148 -0.0270346 0.001462 0.000466 0.013866 2.14716e-05 0
0.00036218 0.00577508 -0.00515675 0.001462 0.000466 0.013866 4.3235e-06 0
0.00258839 0.00489337 -0.0288729 0.001462 0.000466 0.013866 1.75828e-05 0
0.0019474 0.011073 -0.0208922 0.001462 0.000466 0.013866 1.87432e-05 0
0.00473462 0.0107428 -0.0228327 0.001462 0.000466 0.013866 1.98322e-05 0
-0.00279168 -0.00145535 -0.0187489 0.001462 0.000466 0.013866 2.19102e-06 0
0.00350069 -0.000518494 -0.0322633 0.001462 0.000466 0.013866 3.17394e-06 0
0.00334032 -0.000290967 -0.0378365 0.001462 0.000466 0.013866 1.19874e-06 0
0.000210384 -0.000783174 -0.0118902 0.001462 0.000466 0.013866 5.84052e-06 0
-0.000456181 0.00368243 -0.0407956 0.001462 0.000466 0.013866 2.57612e-06 0
0.00171715 0.00140307 -0.029652 0.001462 0.000466 0.013866 8.01942e-06 0
-0.00310222 0.00603814 -0.0148664 0.001462 0.000466 0.013866 9.81743e-06 0
0.00587234 0.00389208 -0.0183723 0.001462 0.000466 0.013866 3.49491e-05 0
0.00775378 0.0133936 -0.0214265 0.001462 0.000466 0.013866 7.96376e-06 0
0.0016233 0.00222533 -0.0249521 0.001462 0.000466 0.013866 7.89791e-06 0
-0.00402325 -0.000818426 -0.0172383 0.001462 0.000466 0.013866 1.00626e-06 0
0.00143876 -0.00173408 -0.0324115 0.001462 0.000466 0.013866 3.28143e-06 0
0.00374075 0.00395501 -0.0223248 0.001462 0.000466 0.013866 4.89007e-06 0
-0.00165031 -0.0029549 -0.0116991 0.001462 0.000466 0.013866 2.1926e-06 0
0.0056743 0.0151881 -0.0244769 0.001462 0.000466 0.013866 1.03536e-06 0
0.00574068 0.00608512 -0.0311131 0.001462 0.000466 0.013866 1.48265e-05 0
0.00857133 0.0105963 -0.0300652 0.001462 0.000466 0.013866 1.36687e-06 0
0.00220535 0.00821765 -0.0279767 0.001462 0.000466 0.013866 2.95921e-05 0
0.00338263 -0.000189192 -0.0334156 0.001462 0.000466 0.013866 2.97429e-06 0
0.000984665 0.00224809 -0.0388641 0.001462 0.000466 0.013866 8.04165e-06 0
-0.00382242 0.00736898 -0.0208703 0.001462 0.000466 0.013866 5.77439e-06 0
0.00276707 0.00721422 -0.0173484 0.001462 0.000466 0.013866 6.82419e-05 0
0.0058298 -0.000720608 -0.0329977 0.001462 0.000466 0.013866 5.18484e-07 0
0.00160283 0.00212042 -0.0330009 0.001462 0.000466 0.013866 9.55576e-06 0
-0.00124951 0.000455546 -0.0149524 0.001462 0.000466 0.013866 1.33911e-05 0
-0.000151299 -0.000755813 -0.0100969 0.001462 0.000466 0.013866 1.09e-05 0
0.000635475 0.00727715 -0.0213009 0.001462 0.000466 0.013866 1.96893e-05 0
-0.00393189 0.010358 -0.0211593 0.001462 0.000466 0.013866 5.75506e-06 0
0.0058978 0.0102783 -0.0245052 0.001462 0.000466 0.013866 1.95397e-06 0
0.00849211 0.0132947 -0.0291884 0.001462 0.000466 0.013866 9.02748e-07 0
0.0076486 0.0131882 -0.0314509 0.001462 0.000466 0.013866 9.30741e-07 0
0.00829584 0.0124608 -0.0195559 0.001462 0.000466 0.013866 4.51483e-06 0
0.00448145 0.00223234 -0.027112 0.001462 0.000466 0.013866 1.40745e-05 0
-0.0025854 0.00338564 -0.0161773 0.001462 0.000466 0.013866 2.41583e-05 0
0.0100422 0.0125935 -0.0208 0.001462 0.000466 0.013866 2.31843e-06 0
0.0035653 0.000379403 -0.0280192 0.001462 0.000466 0.013866 5.27878e-06 0
0.000652259 -0.000201403 -0.0138912 0.001462 0.000466 0.013866 3.74321e-06 0
0.00877261 0.0113492 -0.0279878 0.001462 0.000466 0.013866 4.18223e-06 0
0.00155202 -0.00208549 -0.0302357 0.001462 0.000466 0.013866 4.52205e-06 0
0.0061047 0.0155714 -0.0223242 0.001462 0.000466 0.013866 2.92644e-06 0
-0.00169083 0.00730605 -0.0169178 0.001462 0.000466 0.013866 1.89271e-05 0
0.00729596 0.00467933 -0.0347638 0.001462 0.000466 0.013866 1.36476e-06 0
0.00584303 0.0120848 -0.0191844 0.001462 0.000466 0.013866 7.25825e-06 0
0.00647955 0.0146165 -0.0179765 0.001462 0.000466 0.013866 5.4965e-06 0
0.0077639 0.0143839 -0.0292725 0.001462 0.000466 0.013866 8.29278e-07 0
0.00595618 0.00840584 -0.0250855 0.001462 0.000466 0.013866 2.12473e-05 0
-0.0012005 0.0007481 -0.0362223 0.001462 0.000466 0.013866 4.73485e-06 0
0.00432789 0.00612419 -0.0353177 0.001462 0.000466 0.013866 1.99148e-05 0
0.00993843 0.00965798 -0.0265467 0.001462 0.000466 0.013866 1.50626e-06 0
0.00470648 0.00456148 -0.0331727 0.001462 0.000466 0.013866 1.55044e-05 0
-0.00134084 0.00294746 -0.0346276 0.001462 0.000466 0.013866 7.71089e-06 0
0.00703905 0.00509104 -0.0235853 0.001462 0.000466 0.013866 1.52886e-05 0
0.00762777 0.0140142 -0.0311545 0.001462 0.000466 0.013866 6.04411e-07 0
0.00930975 0.0103505 -0.0252484 0.001462 0.000466 0.013866 2.45036e-06 0
0.00562301 0.0144704 -0.0312184 0.001462 0.000466 0.013866 4.49675e-06 0
-0.000774921 0.00357184 -0.0301981 0.001462 0.000466 0.013866 1.88346e-05 0
0.00304023 0.0135351 -0.0326979 0.001462 0.000466 0.013866 2.47117e-06 0
0.00535764 0.00940941 -0.030217 0.001462 0.000466 0.013866 2.04897e-05 0
0.000642138 0.000186899 -0.028445 0.001462 0.000466 0.013866 1.2963e-05 0
0.00529492 0.00117801 -0.0241982 0.001462 0.000466 0.013866 1.93513e-05 0
0.00102007 -0.00244699 -0.0169367 0.001462 0.000466 0.013866 5.68233e-06 0
-0.000575977 -0.00242097 -0.016836 0.001462 0.000466 0.013866 3.41763e-06 0
2.45735e-05 -0.00240178 -0.024992 0.001462 0.000466 0.013866 6.12523e-06 0
0.00714883 -0.00188466 -0.0247032 0.001462 0.000466 0.013866 3.36959e-06 0
-0.000830139 -0.00136858 -0.028068 0.001462 0.000466 0.013866 4.26386e-06 0
0.00723693 -0.000667914 -0.0272654 0.001462 0.000466 0.013866 1.97525e-06 0
-0.00174002 0.000903808 -0.0262772 0.001462 0.000466 0.013866 8.78122e-06 0
0.00815307 0.00118502 -0.0263581 0.001462 0.000466 0.013866 6.03376e-06 0
0.0103553 -0.00133614 -0.0147384 0.001462 0.000466 0.013866 2.95717e-06 0
0.00876799 0.0138163 -0.01735 0.001462 0.000466 0.013866 8.56879e-07 0
0.00980732 0.00413482 -0.0164504 0.001462 0.000466 0.013866 1.13988e-05 0
0.00839677 -0.00214496 -0.0157498 0.001462 0.000466 0.013866 3.84448e-06 0
0.00939684 0.00905323 -0.0123206 0.001462 0.000466 0.013866 1.18318e-05 0
0.0114865 0.00749995 -0.00570284 0.001462 0.000466 0.013866 1.46236e-05 0
0.00654904 0.00928981 -0.0161579 0.001462 0.000466 0.013866 1.71981e-05 0
0.0100073 0.00694071 -0.0150994 0.001462 0.000466 0.013866 5.88268e-06 0
0.0114534 0.0110313 -0.0124641 0.001462 0.000466 0.013866 6.06339e-06 0
0.00968939 0.00995657 -0.0102195 0.001462 0.000466 0.013866 9.30535e-06 0
0.0102663 0.0146765 -0.0140494 0.001462 0.000466 0.013866 7.63244e-07 0
0.0111428 0.0130375 -0.0137479 0.001462 0.000466 0.013866 3.18773e-06 0
0.01084 0.00654301 -0.00871518 0.001462 0.000466 0.013866 1.80841e-05 0
0.00903349 -0.000940084 -0.0179284 0.001462 0.000466 0.013866 3.14502e-06 0
0.0105843 0.0116606 -0.0189294 0.001462 0.000466 0.013866 9.92066e-07 0
0.010992 -0.000131262 -0.016917 0.001462 0.000466 0.013866 1.76303e-06 0
0.0101603 0.00510786 -0.014368 0.001462 0.000466 0.013866 6.74343e-06 0
0.00828137 0.00127053 -0.0148956 0.001462 0.000466 0.013866 1.29397e-05 0
0.00434639 0.00102779 -0.0168175 0.001462 0.000466 0.013866 3.64286e-05 0
-0.0124544 -0.000219113 0.0142562 0.001462 0.000466 0.013866 6.77413e-07 0
-0.0133032 0.00418934 0.0160653 0.001462 0.000466 0.013866 7.18527e-07 0
-0.0129362 0.00045764 0.0122872 0.001462 0.000466 0.013866 6.84244e-07 0
-0.0120983 0.00248182 0.0114031 0.001462 0.000466 0.013866 3.61492e-06 0
-0.0133566 0.00230049 0.00991055 0.001462 0.000466 0.013866 9.82984e-07 0
-0.0112133 0.00579711 0.0196644 0.001462 0.000466 0.013866 7.48475e-06 0
-0.00312649 0.0042975 0.00998995 0.001462 0.000466 0.013866 1.94064e-05 0
-0.00104692 0.00189429 0.0127062 0.001462 0.000466 0.013866 1.2295e-05 0
-0.00814883 0.00997755 0.0180707 0.001462 0.000466 0.013866 1.03853e-06 0
-0.00265032 0.00547032 0.013102 0.001462 0.000466 0.013866 1.66458e-05 0
-0.00982987 0.00915009 0.0138319 0.001462 0.000466 0.013866 1.58141e-06 0
-0.00129722 -0.000225739 0.0151504 0.001462 0.000466 0.013866 7.5306e-06 0
-0.0103349 0.00374824 0.0183473 0.001462 0.000466 0.013866 1.49937e-05 0
-0.00326684 0.00820822 0.00788901 0.001462 0.000466 0.013866 8.35307e-06 0
-0.00783159 0.00258838 0.016695 0.001462 0.000466 0.013866 1.79552e-05 0
-0.0134807 0.00459345 0.0180736 0.001462 0.000466 0.013866 1.60537e-06 0
-0.0127786 0.00574753 0.011458 0.001462 0.000466 0.013866 1.20494e-06 0
-0.00974082 0.00917378 0.0183752 0.001462 0.000466 0.013866 2.34078e-06 0
-0.0124867 0.0062344 0.0133922 0.001462 0.000466 0.013866 6.13826e-07 0
0.00046809 -0.000183937 0.0156989 0.001462 0.000466 0.013866 6.13229e-06 0
-0.00588957 -0.000927286 0.00970754 0.001462 0.000466 0.013866 1.39318e-05 0
-0.0077623 -0.003193 0.010658 0.001462 0.000466 0.013866 1.87224e-06 0
-0.00837527 0.00933371 0.0164767 0.001462 0.000466 0.013866 2.10405e-06 0
-0.0125487 0.00207719 0.0166764 0.001462 0.000466 0.013866 4.05981e-06 0
-0.012973 0.000531334 0.0162437 0.001462 0.000466 0.013866 1.6193e-06 0
-0.0104955 0.0075799 0.0133505 0.001462 0.000466 0.013866 3.29697e-06 0
-0.013489 0.00124151 0.011412 0.001462 0.000466 0.013866 3.93686e-07 0
-0.00998907 -0.00244351 0.00933334 0.001462 0.000466 0.013866 2.44085e-06 0
-0.00274335 0.000734233 0.0083479 0.001462 0.000466 0.013866 8.04079e-06 0
-0.00162273 -0.00160712 0.0103808 0.001462 0.000466 0.013866 7.22983e-06 0
-0.00811634 -0.000177796 0.00838287 0.001462 0.000466 0.013866 8.51581e-06 0
0.00185035 0.00477137 0.0178426 0.001462 0.000466 0.013866 7.96163e-06 0
-0.00659496 0.00604602 0.0160421 0.001462 0.000466 0.013866 1.83217e-05 0
-0.0100454 0.000917325 0.0150241 0.001462 0.000466 0.013866 5.47629e-06 0
-0.00992972 -0.00139986 0.0143929 0.001462 0.000466 0.013866 4.47343e-06 0
-0.00880875 0.00437497 0.0143712 0.001462 0.000466 0.013866 4.72101e-06 0
-0.00745114 0.00231054 0.0103373 0.001462 0.000466 0.013866 1.89312e-05 0
-0.00597481 0.0054315 0.0106641 0.001462 0.000466 0.013866 2.10325e-05 0
-0.00987153 0.00173233 0.0127278 0.001462 0.000466 0.013866 6.97159e-06 0
-0.0083952 0.0048533 0.0130545 0.001462 0.000466 0.013866 1.39103e-05 0
-0.00938206 -0.00308737 0.0129529 0.001462 0.000466 0.013866 2.42517e-06 0
-0.00404403 0.00678793 0.0164209 0.001462 0.000466 0.013866 8.8e-06 0
-0.00800584 0.00146327 0.0229026 0.001462 0.000466 0.013866 1.28976e-05 0
-0.00786784 -0.00121773 0.0273136 0.001462 0.000466 0.013866 1.07164e-05 0
-0.00899245 -0.000908052 0.0310565 0.001462 0.000466 0.013866 9.88994e-06 0
-0.0129443 0.00787579 0.0266178 0.001462 0.000466 0.013866 1.34081e-06 0
-0.00582264 0.00823226 0.0326762 0.001462 0.000466 0.013866 4.46021e-06 0
-0.00262444 0.00320846 0.0171788 0.001462 0.000466 0.013866 8.76941e-06 0
0.00118027 0.00206845 0.0202337 0.001462 0.000466 0.013866 1.13526e-05 0
-0.00292931 0.00235277 0.0250841 0.001462 0.000466 0.013866 1.1119e-05 0
-0.0131241 0.0089312 0.0296585 0.001462 0.000466 0.013866 1.34081e-06 0
-0.0147949 0.00443789 0.0261842 0.001462 0.000466 0.013866 5.95494e-07 0
0.0026602 0.00712308 0.022187 0.001462 0.000466 0.013866 2.66113e-06 0
-0.0121786 0.00637694 0.0340254 0.001462 0.000466 0.013866 8.74393e-06 0
-0.0127667 0.00445111 0.0268068 0.001462 0.000466 0.013866 6.10236e-06 0
-0.00616317 0.00861311 0.0282885 0.001462 0.000466 0.013866 3.94633e-06 0
-0.0131141 0.00598951 0.0299946 0.001462 0.000466 0.013866 4.32973e-06 0
-0.0132219 -0.000996766 0.0282195 0.001462 0.000466 0.013866 1.36929e-06 0
-0.00943087 0.000272476 0.0371465 0.001462 0.000466 0.013866 1.58604e-05 0
-0.0014669 -0.000195964 0.026917 0.001462 0.000466 0.013866 4.20321e-06 0
0.00167857 0.0055242 0.0208425 0.001462 0.000466 0.013866 2.48254e-06 0
-0.00195471 0.0057696 0.0278454 0.001462 0.000466 0.013866 8.24469e-06 0
-0.00399491 0.00829116 0.0296688 0.001462 0.000466 0.013866 2.04154e-06 0
-0.00357011 0.00838743 0.0282102 0.001462 0.000466 0.013866 3.95902e-06 0
-0.00184582 0.000830156 0.0311243 0.001462 0.000466 0.013866 9.02868e-06 0
-0.00641017 0.00219135 0.0252515 0.001462 0.000466 0.013866 2.88545e-05 0
-0.00165283 0.00329483 0.0268422 0.001462 0.000466 0.013866 7.87227e-06 0
-0.00549903 -0.00162523 0.0293811 0.001462 0.000466 0.013866 1.36314e-05 0
-0.0130791 0.00420424 0.028224 0.001462 0.000466 0.013866 5.01821e-07 0
-0.00629249 0.00856653 0.0311247 0.001462 0.000466 0.013866 2.17364e-06 0
-0.00601017 0.00854402 0.0260909 0.001462 0.000466 0.013866 7.57745e-06 0
-0.00227061 0.00124181 0.033612 0.001462 0.000466 0.013866 7.77285e-06 0
-0.00833413 -0.000924664 0.0345545 0.001462 0.000466 0.013866 2.11017e-05 0
-0.0101908 0.00837822 0.0316785 0.001462 0.000466 0.013866 6.60315e-06 0
-0.00961388 0.00436826 0.0243865 0.001462 0.000466 0.013866 1.42283e-05 0
-0.00777276 0.00865884 0.0304979 0.001462 0.000466 0.013866 4.20167e-06 0
0.00155436 0.00881147 0.0235149 0.001462 0.000466 0.013866 2.473e-06 0
-0.00482001 -0.000187319 0.0171483 0.001462 0.000466 0.013866 1.16517e-05 0
-0.00130395 0.00760867 0.0320179 0.001462 0.000466 0.013866 3.49524e-06 0
-0.013279 0.0022168 0.029244 0.001462 0.000466 0.013866 2.86994e-06 0
-0.00257896 -0.000764877 0.0291519 0.001462 0.000466 0.013866 8.40641e-06 0
0.00162237 0.00549118 0.0229193 0.001462 0.000466 0.013866 5.48407e-06 0
-0.00311523 0.00584357 0.0250093 0.001462 0.000466 0.013866 1.46742e-05 0
-0.0105839 0.0080077 0.0199021 0.001462 0.000466 0.013866 5.92128e-06 0
0.00213104 0.00269469 0.0257716 0.001462 0.000466 0.013866 3.2695e-06 0
-0.00376662 0.000537557 0.0217272 0.001462 0.000466 0.013866 1.39117e-05 0
-0.003294 0.00629077 0.0325141 0.001462 0.000466 0.013866 7.0859e-06 0
-0.00103566 0.00387384 0.0298927 0.001462 0.000466 0.013866 1.2078e-05 0
-0.0116889 0.00754631 0.0301993 0.001462 0.000466 0.013866 6.91271e-06 0
-0.00765422 0.00096634 0.0208777 0.001462 0.000466 0.013866 2.65603e-05 0
-0.00229628 0.00637325 0.030646 0.001462 0.000466 0.013866 7.04515e-06 0
-0.01215 0.00237145 0.0259942 0.001462 0.000466 0.013866 6.44648e-06 0
-0.0101999 0.00455922 0.0363519 0.001462 0.000466 0.013866 2.80739e-05 0
-0.0112164 0.000229309 0.0277188 0.001462 0.000466 0.013866 4.84281e-06 0
-0.0106697 0.00721203 0.0255667 0.001462 0.000466 0.013866 5.62817e-06 0
-0.0112096 0.00364017 0.0220376 0.001462 0.000466 0.013866 5.79162e-06 0
-0.0115091 0.0064909 0.0271585 0.001462 0.000466 0.013866 6.91271e-06 0
-0.0120329 0.000321524 0.0295515 0.001462 0.000466 0.013866 7.60157e-06 0
0.00233304 0.00692228 0.0243339 0.001462 0.000466 0.013866 4.01423e-06 0
-0.00951863 -0.00185255 0.0219229 0.001462 0.000466 0.013866 6.91037e-06 0
-0.0121049 0.00859692 0.0250259 0.001462 0.000466 0.013866 2.73161e-06 0
-0.0133139 0.00400208 0.0310146 0.001462 0.000466 0.013866 1.23921e-05 0
-0.00870515 -0.00303295 0.0239567 0.001462 0.000466 0.013866 6.91037e-06 0
-0.0140353 0.000183636 0.0261857 0.001462 0.000466 0.013866 1.36929e-06 0
-0.0137456 0.00164337 0.0236453 0.001462 0.000466 0.013866 1.36929e-06 0
-0.00661676 0.00625235 0.0357947 0.001462 0.000466 0.013866 1.29863e-05 0
-0.00827847 0.00847897 0.0252292 0.001462 0.000466 0.013866 8.16653e-06 0
-0.00939119 0.00716905 0.0236073 0.001462 0.000466 0.013866 8.58888e-06 0
-0.00911633 -0.00283315 0.0342394 0.001462 0.000466 0.013866 9.31059e-06 0
-0.0119964 -0.00304312 0.0365252 0.001462 0.000466 0.013866 6.82262e-06 0
-0.00124013 0.00393954 0.0196806 0.001462 0.000466 0.013866 1.1288e-05 0
-0.00440858 0.00106138 0.0361418 0.001462 0.000466 0.013866 1.3849e-05 0
0.00206022 0.00350335 0.0280686 0.001462 0.000466 0.013866 6.39663e-06 0
0.00129522 0.00529037 0.0250662 0.001462 0.000466 0.013866 5.31932e-06 0
0.000337217 0.00461273 0.026346 0.001462 0.000466 0.013866 3.23007e-06 0
-0.000741829 0.00739529 0.0202894 0.001462 0.000466 0.013866 6.4273e-06 0
-0.00079803 0.00736227 0.0223661 0.001462 0.000466 0.013866 9.91464e-06 0
-0.0026232 -0.00290009 0.0208525 0.001462 0.000466 0.013866 8.24352e-06 0
-0.0034357 0.000543762 0.0196501 0.001462 0.000466 0.013866 2.46926e-05 0
0.000887036 -0.00293102 0.0207567 0.001462 0.000466 0.013866 2.17383e-06 0
0.00249494 -0.00135826 0.0201074 0.001462 0.000466 0.013866 2.17383e-06 0
0.00460053 0.00177665 0.0197563 0.001462 0.000466 0.013866 3.72597e-06 0
-0.0129193 0.0105242 0.00421687 0.001462 0.000466 0.013866 1.21362e-07 0
-0.0130388 0.0115432 0.00342351 0.001462 0.000466 0.013866 7.14655e-07 0
-0.00797263 0.0122306 0.0074685 0.001462 0.000466 0.013866 4.72278e-06 0
-0.00930822 0.00761926 0.0026523 0.001462 0.000466 0.013866 2.08724e-06 0
-0.00744171 0.00986471 0.00634524 0.001462 0.000466 0.013866 6.77177e-06 0
-0.00914426 0.00480833 0.00377255 0.001462 0.000466 0.013866 7.51413e-06 0
-0.0117072 0.0132506 -0.00150171 0.001462 0.000466 0.013866 3.80607e-06 0
-0.00918879 0.00660027 0.00344566 0.001462 0.000466 0.013866 2.02427e-06 0
-0.0134655 0.00179326 0.00729212 0.001462 0.000466 0.013866 1.03298e-06 0
-0.0120067 0.0107269 0.00618827 0.001462 0.000466 0.013866 3.95341e-07 0
-0.0064018 0.0146772 0.00595459 0.001462 0.000466 0.013866 1.03024e-06 0
-0.00491204 0.0152476 0.0040338 0.001462 0.000466 0.013866 2.23338e-06 0
-0.0106206 0.012294 0.00163002 0.001462 0.000466 0.013866 5.14116e-06 0
-0.0112818 0.00606813 -0.00258187 0.001462 0.000466 0.013866 2.75584e-06 0
-0.0124759 0.00549118 0.000792636 0.001462 0.000466 0.013866 9.84026e-06 0
-0.00250917 0.0103871 0.0101152 0.001462 0.000466 0.013866 1.2789e-05 0
-0.00745422 0.00523077 -0.00237117 0.001462 0.000466 0.013866 3.07241e-06 0
-0.00679982 0.00479486 0.00167911 0.001462 0.000466 0.013866 3.47999e-06 0
-0.00664608 0.0117081 0.00968637 0.001462 0.000466 0.013866 5.13237e-06 0
-0.00819907 0.00601737 -0.00338644 0.001462 0.000466 0.013866 6.29057e-06 0
-0.0103703 0.00739957 0.00660294 0.001462 0.000466 0.013866 7.13855e-06 0
-0.013044 0.00426554 -0.000500299 0.001462 0.000466 0.013866 4.00782e-06 0
-0.00854371 0.00866992 0.00341809 0.001462 0.000466 0.013866 5.8183e-06 0
-0.00882588 0.00248641 0.000498448 0.001462 0.000466 0.013866 2.24386e-06 0
-0.00384256 0.00626381 0.00040234 0.001462 0.000466 0.013866 8.61838e-07 0
-0.0137155 0.010749 0.0032184 0.001462 0.000466 0.013866 3.71252e-07 0
-0.00744492 0.0137883 0.00628059 0.001462 0.000466 0.013866 1.99498e-06 0
-0.0117181 0.00551484 0.00321766 0.001462 0.000466 0.013866 8.99203e-06 0
-0.0107136 0.00729378 -0.00128894 0.001462 0.000466 0.013866 5.68277e-06 0
-0.0111175 0.00937643 0.0028632 0.001462 0.000466 0.013866 1.65702e-06 0
-0.00957832 0.011254 -0.000890449 0.001462 0.000466 0.013866 5.2286e-06 0
-0.0123236 0.011352 -0.00106189 0.001462 0.000466 0.013866 3.51968e-06 0
-0.00344809 0.0149456 0.00752075 0.001462 0.000466 0.013866 1.72803e-06 0
-0.00597331 0.00390985 0.00201866 0.001462 0.000466 0.013866 3.93349e-06 0
-0.0112829 0.00719685 0.00463154 0.001462 0.000466 0.013866 3.4955e-06 0
-0.011237 0.0103954 0.00206984 0.001462 0.000466 0.013866 6.06392e-06 0
-0.0051633 0.0148865 0.00625421 0.001462 0.000466 0.013866 1.78371e-06 0
-0.0134915 0.00831323 -0.00202101 0.001462 0.000466 0.013866 8.5502e-06 0
-0.00768021 0.0140685 0.00504223 0.001462 0.000466 0.013866 8.5174e-07 0
-0.00617244 0.00932192 0.00374864 0.001462 0.000466 0.013866 6.02575e-06 0
-0.0119456 0.00203671 -5.5084e-05 0.001462 0.000466 0.013866 1.42398e-05 0
-0.000155094 0.0122247 0.0158173 0.001462 0.000466 0.013866 4.29577e-07 0
-0.0101947 0.0093554 -0.000450633 0.001462 0.000466 0.013866 5.93288e-06 0
-0.00611517 0.00934222 0.00856311 0.001462 0.000466 0.013866 8.72592e-06 0
-0.00981298 0.00921271 0.00601469 0.001462 0.000466 0.013866 6.47311e-06 0
-0.00101424 0.010008 0.0132305 0.001462 0.000466 0.013866 8.99097e-06 0
0.000903647 0.00988428 0.0145971 0.001462 0.000466 0.013866 8.99097e-06 0
0.000126407 0.0132308 0.0149314 0.001462 0.000466 0.013866 5.66138e-07 0
-0.0125059 0.00431214 0.0101002 0.001462 0.000466 0.013866 3.49732e-06 0
-0.0109536 0.00289568 0.00606526 0.001462 0.000466 0.013866 8.55578e-06 0
-0.00967791 0.00306003 0.00901267 0.001462 0.000466 0.013866 1.03782e-05 0
-0.0100855 0.00489034 0.00770977 0.001462 0.000466 0.013866 6.98279e-06 0
-0.00943856 0.0030527 -0.00112138 0.001462 0.000466 0.013866 3.27882e-06 0
-0.0042272 0.0129777 0.0104961 0.001462 0.000466 0.013866 5.03758e-06 0
-0.00693865 0.0119681 0.00363355 0.001462 0.000466 0.013866 6.05827e-06 0
0.00213583 0.0127481 0.00457538 0.001462 0.000466 0.013866 4.95397e-06 0
-0.00140936 0.00848321 -0.00116432 0.001462 0.000466 0.013866 1.12648e-06 0
-0.00689079 0.0100976 -0.00151425 0.001462 0.000466 0.013866 3.87721e-06 0
0.00695831 0.0145216 0.00305986 0.001462 0.000466 0.013866 8.28246e-06 0
-0.00238217 0.00741882 -0.00308159 0.001462 0.000466 0.013866 1.0516e-06 0
0.00635095 0.0120617 0.00989876 0.001462 0.000466 0.013866 1.09015e-05 0
-0.00224598 0.0135631 0.00265797 0.001462 0.000466 0.013866 5.87349e-06 0
0.00121804 0.0107967 0.000876837 0.001462 0.000466 0.013866 5.87214e-06 0
-0.00204915 0.0127736 0.000910266 0.001462 0.000466 0.013866 2.13887e-06 0
0.00282693 0.0144533 -0.00293342 0.001462 0.000466 0.013866 2.23954e-05 0
-0.00279541 0.0144483 0.00921875 0.001462 0.000466 0.013866 3.47488e-06 0
-0.00378006 0.00702843 -0.00214519 0.001462 0.000466 0.013866 7.74479e-07 0
0.00462952 0.0145211 0.0021365 0.001462 0.000466 0.013866 6.28277e-06 0
-0.00288926 0.00726725 0.00118346 0.001462 0.000466 0.013866 1.73362e-06 0
-0.00335004 0.00932434 0.0016132 0.001462 0.000466 0.013866 2.11725e-06 0
-0.00952281 0.0150586 0.00371119 0.001462 0.000466 0.013866 7.3789e-07 0
0.00886725 0.0145272 0.00276596 0.001462 0.000466 0.013866 3.71177e-06 0
-0.00343204 0.00849876 0.00302457 0.001462 0.000466 0.013866 4.42427e-06 0
0.00127443 0.00981658 0.00533672 0.001462 0.000466 0.013866 8.36046e-06 0
-0.00357719 0.00775247 -0.0038864 0.001462 0.000466 0.013866 2.17808e-06 0
-0.000763537 0.0108035 -0.000109077 0.001462 0.000466 0.013866 4.55809e-06 0
-0.00857367 0.0144135 -0.00434942 0.001462 0.000466 0.013866 1.16077e-05 0
0.00344906 0.0145157 0.00726215 0.001462 0.000466 0.013866 9.03301e-06 0
-0.00381513 0.0106099 -0.00255311 0.001462 0.000466 0.013866 4.84033e-06 0
-0.00878125 0.0129582 0.0023025 0.001462 0.000466 0.013866 7.89291e-06 0
-0.00902277 0.0142698 -0.00199837 0.001462 0.000466 0.013866 6.1561e-06 0
-0.00319683 0.0153067 0.00530033 0.001462 0.000466 0.013866 2.16367e-06 0
-0.00259358 0.0124853 -0.00453954 0.001462 0.000466 0.013866 1.56497e-05 0
-0.00521216 0.0121485 0.00057778 0.001462 0.000466 0.013866 1.3935e-06 0
-0.00725159 0.013928 0.000994444 0.001462 0.000466 0.013866 6.82176e-06 0
-0.00197428 0.0125965 -0.000693065 0.001462 0.000466 0.013866 5.26788e-06 0
-0.00075273 0.0144719 -0.00267949 0.001462 0.000466 0.013866 1.46124e-05 0
0.00590262 0.0145148 0.00658454 0.001462 0.000466 0.013866 9.82851e-06 0
-0.00510787 0.0144772 -0.0057688 0.001462 0.000466 0.013866 2.33556e-05 0
-0.000732742 0.0110141 0.0123446 0.001462 0.000466 0.013866 4.97437e-06 0
-0.00677851 0.0124581 -0.00143131 0.001462 0.000466 0.013866 5.52494e-06 0
-0.00323776 0.0116849 0.00169613 0.001462 0.000466 0.013866 4.98641e-06 0
-0.0112639 0.0139058 -0.00269256 0.001462 0.000466 0.013866 2.06764e-06 0
-0.00222805 0.0153343 0.00432259 0.001462 0.000466 0.013866 4.51405e-06 0
-0.0128879 0.0107559 -0.00218648 0.001462 0.000466 0.013866 7.84623e-06 0
0.0103409 0.0137998 0.00356595 0.001462 0.000466 0.013866 3.81357e-06 0
-0.00640338 0.0121074 -0.000301836 0.001462 0.000466 0.013866 1.56261e-06 0
-0.00280726 0.00809283 -0.000227908 0.001462 0.000466 0.013866 8.29631e-07 0
0.00809192 0.012524 0.00780686 0.001462 0.000466 0.013866 1.96847e-05 0
0.0106213 0.0118034 0.00508217 0.001462 0.000466 0.013866 1.60214e-05 0
-0.000903977 0.0106128 0.00609851 0.001462 0.000466 0.013866 8.10044e-06 0
0.00306215 0.014051 0.00984681 0.001462 0.000466 0.013866 6.42398e-06 0
0.00358696 0.0125711 3.89249e-05 0.001462 0.000466 0.013866 1.62316e-05 0
0.00200495 0.0111246 0.00841563 0.001462 0.000466 0.013866 1.22522e-05 0
0.0022606 0.0127466 0.00297441 0.001462 0.000466 0.013866 1.28889e-06 0
0.00114603 0.014633 0.00455131 0.001462 0.000466 0.013866 5.17407e-06 0
-0.00493504 0.013397 0.00209421 0.001462 0.000466 0.013866 2.63608e-06 0
-0.00504732 0.0110365 0.00201127 0.001462 0.000466 0.013866 3.0045e-06 0
-0.00107738 0.0118577 0.0088379 0.001462 0.000466 0.013866 7.84769e-06 0
-0.00497509 0.00736208 -0.00294999 0.001462 0.000466 0.013866 1.60411e-06 0
0.0102384 0.013804 0.00174104 0.001462 0.000466 0.013866 5.94756e-06 0
-0.0131722 0.0122674 -0.00389988 0.001462 0.000466 0.013866 2.44737e-06 0
-0.0121647 0.0135188 -0.00396614 0.001462 0.000466 0.013866 1.23787e-06 0
-0.0152745 0.0132466 -0.00218915 0.001462 0.000466 0.013866 5.16214e-07 0
-0.0147263 0.0120207 -0.000664485 0.001462 0.000466 0.013866 1.51835e-06 0
-0.00185299 0.00790755 0.00494707 0.001462 0.000466 0.013866 4.72809e-06 0
-0.00101731 0.0135413 0.00490658 0.001462 0.000466 0.013866 5.31974e-06 0
0.000699043 0.0124846 0.0110673 0.001462 0.000466 0.013866 5.95157e-06 0
0.0026568 0.00649231 -0.000458176 0.001462 0.000466 0.013866 1.52117e-06 0
0.00258192 0.0066695 0.00114516 0.001462 0.000466 0.013866 2.60001e-06 0
0.00125266 0.00774457 -0.000449353 0.001462 0.000466 0.013866 3.72997e-06 0
-0.000382965 0.00730927 -0.00152866 0.001462 0.000466 0.013866 1.97542e-06 0
-0.0115712 0.00373311 0.0551759 0.3415 0.062325 0.429425 5.06774e-05 1
-0.00379015 0.000202892 0.0467389 0.3415 0.062325 0.429425 1.77571e-06 1
-0.00306994 0.00178526 0.0503801 0.3415 0.062325 0.429425 1.69611e-07 1
-0.00555143 0.00248716 0.0507912 0.3415 0.062325 0.429425 1.71289e-06 1
-0.00535265 -0.000989739 0.0474564 0.3415 0.062325 0.429425 2.14282e-06 1
-0.00528963 0.003355 0.0498583 0.3415 0.062325 0.429425 2.5156e-06 1
-0.00295941 0.00118851 0.0498753 0.3415 0.062325 0.429425 1.364e-07 1
-0.0123517 0.000386072 0.0481094 0.3415 0.062325 0.429425 1.42713e-05 1
-0.0065863 -0.000408729 0.057757 0.3415 0.062325 0.429425 7.75237e-06 1
-0.00554239 -0.00162334 0.0458997 0.3415 0.062325 0.429425 2.19287e-06 1
-0.00913858 -0.0023651 0.0434391 0.3415 0.062325 0.429425 2.30319e-06 1
-0.00531552 0.00289008 0.0511333 0.3415 0.062325 0.429425 6.84356e-07 1
-0.0109526 -0.00365868 0.0468274 0.3415 0.062325 0.429425 7.06701e-07 1
-0.01383 -0.00143891 0.0446229 0.3415 0.062325 0.429425 5.09695e-06 1
-0.00437029 -0.00126892 0.0442304 0.3415 0.062325 0.429425 1.00409e-06 1
-0.00840728 -0.00294604 0.0491315 0.3415 0.062325 0.429425 5.64781e-06 1
-0.0112046 -0.00225064 0.0445333 0.3415 0.062325 0.429425 6.49032e-06 1
-0.0104107 -0.00157365 0.048793 0.3415 0.062325 0.429425 3.79139e-06 1
-0.0049006 0.000716612 0.058184 0.3415 0.062325 0.429425 2.16753e-06 1
-0.00407837 0.00036453 0.0482671 0.3415 0.062325 0.429425 1.09402e-06 1
-0.00303756 6.00461e-05 0.0501033 0.3415 0.062325 0.429425 1.15335e-07 1
-0.0127326 0.00115674 0.0576456 0.3415 0.062325 0.429425 1.61215e-05 1
-0.00635726 0.00280324 0.0480982 0.3415 0.062325 0.429425 8.97709e-06 1
-0.013598 -0.000195881 0.038914 0.3415 0.062325 0.429425 1.45055e-05 1
-0.00630368 -0.00243968 0.0536459 0.3415 0.062325 0.429425 1.24096e-06 1
-0.00601251 -0.0021894 0.0435931 0.3415 0.062325 0.429425 1.29757e-06 1
-0.0100828 -0.000419618 0.0519932 0.3415 0.062325 0.429425 5.91021e-06 1
-0.00865923 -0.001538 0.0468375 0.3415 0.062325 0.429425 1.09569e-05 1
-0.00724826 -0.00313045 0.0562859 0.3415 0.062325 0.429425 2.42747e-06 1
-0.00357584 0.000427812 0.0456779 0.3415 0.062325 0.429425 7.92905e-07 1
-0.00439602 -0.00108019 0.0459249 0.3415 0.062325 0.429425 1.85156e-06 1
-0.00907735 -0.00294 0.0515222 0.3415 0.062325 0.429425 3.56883e-06 1
-0.0047462 -0.00171541 0.0436117 0.3415 0.062325 0.429425 8.08704e-07 1
-0.00369469 -0.000449672 0.0442966 0.3415 0.062325 0.429425 5.8592e-07 1
-0.00678298 -0.00228606 0.0441866 0.3415 0.062325 0.429425 9.84066e-07 1
-0.00931662 0.000973597 0.0491579 0.3415 0.062325 0.429425 2.08761e-05 1
-0.014231 -8.59756e-05 0.0422751 0.3415 0.062325 0.429425 1.17894e-05 1
-0.00338083 1.95939e-05 0.0437588 0.3415 0.062325 0.429425 9.03661e-07 1
-0.0111769 -0.00296687 0.0516284 0.3415 0.062325 0.429425 1.12214e-06 1
-0.011131 -0.00166328 0.0401677 0.3415 0.062325 0.429425 1.01676e-05 1
-0.0116227 -0.00365264 0.049218 0.3415 0.062325 0.429425 7.4861e-07 1
-0.00529044 -0.00303138 0.0481938 0.3415 0.062325 0.429425 1.28482e-06 1
-0.0051007 -0.00239778 0.0497505 0.3415 0.062325 0.429425 9.19109e-07 1
-0.00254226 -0.000305922 0.0472463 0.3415 0.062325 0.429425 1.89984e-07 1
-0.00278235 0.00239889 0.0435644 0.3415 0.062325 0.429425 2.7585e-06 1
-0.00309583 0.00132034 0.0516551 0.3415 0.062325 0.429425 1.17086e-07 1
-0.00495485 -0.000969171 0.0417677 0.3415 0.062325 0.429425 2.95421e-06 1
-0.00333174 0.000917415 0.051313 0.3415 0.062325 0.429425 1.37959e-07 1
-0.0132256 0.00123346 0.0462435 0.3415 0.062325 0.429425 7.99669e-06 1
-0.00312464 0.00115657 0.0445592 0.3415 0.062325 0.429425 1.11037e-06 1
-0.0137223 -0.00367951 0.0493242 0.3415 0.062325 0.429425 8.4286e-07 1
-0.00524594 0.00309532 0.0521222 0.3415 0.062325 0.429425 3.29967e-06 1
-0.00546364 0.00207044 0.0526355 0.3415 0.062325 0.429425 1.08672e-06 1
-0.00917112 0.0130893 0.0472436 0.3415 0.062325 0.429425 1.87449e-05 1
-0.0152421 0.0116199 0.0527901 0.3415 0.062325 0.429425 4.96671e-06 1
-0.00799794 0.0155441 0.0484077 0.3415 0.062325 0.429425 9.26223e-06 1
-0.00894215 0.0131283 0.049964 0.3415 0.062325 0.429425 1.27205e-05 1
-0.0152707 0.0161573 0.0518738 0.3415 0.062325 0.429425 5.40296e-07 1
-0.0146111 0.0137588 0.0520367 0.3415 0.062325 0.429425 8.51699e-07 1
-0.0164245 0.0127863 0.0513005 0.3415 0.062325 0.429425 6.04725e-07 1
-0.0143831 0.0119121 0.0420408 0.3415 0.062325 0.429425 5.04264e-06 1
-0.014293 0.0137766 0.0506253 0.3415 0.062325 0.429425 8.18446e-06 1
-0.0161065 0.0128041 0.049889 0.3415 0.062325 0.429425 4.59992e-06 1
-0.0177651 0.014601 0.0494557 0.3415 0.062325 0.429425 8.53409e-07 1
-0.0107113 0.00854428 0.037257 0.3415 0.062325 0.429425 1.09633e-05 1
-0.00823181 0.00916976 0.0382596 0.3415 0.062325 0.429425 1.00291e-05 1
-0.0121716 0.00928765 0.0539924 0.3415 0.062325 0.429425 3.87e-05 1
-0.00803758 0.00850044 0.042203 0.3415 0.062325 0.429425 5.73971e-06 1
-0.0085392 0.012124 0.0370268 0.3415 0.062325 0.429425 8.72646e-07 1
-0.00814852 0.0100021 0.0393945 0.3415 0.062325 0.429425 3.00342e-06 1
-0.0087371 0.0117906 0.0535382 0.3415 0.062325 0.429425 1.56732e-05 1
-0.0154255 0.0104988 0.0433897 0.3415 0.062325 0.429425 3.87351e-06 1
-0.00982824 0.00882416 0.0420327 0.3415 0.062325 0.429425 1.17821e-05 1
-0.0123008 0.0137217 0.0448617 0.3415 0.062325 0.429425 1.54822e-05 1
-0.0114895 0.0141407 0.0509245 0.3415 0.062325 0.429425 8.66654e-06 1
-0.0107697 0.0130122 0.0424775 0.3415 0.062325 0.429425 1.10011e-05 1
-0.00827225 0.0121815 0.0419611 0.3415 0.062325 0.429425 6.04817e-06 1
-0.0118248 0.0120981 0.0412252 0.3415 0.062325 0.429425 5.54457e-06 1
-0.00661432 0.0119767 0.042865 0.3415 0.062325 0.429425 1.2366e-05 1
-0.00519702 0.00938953 0.0439516 0.3415 0.062325 0.429425 1.0098e-05 1
-0.00296383 0.00387968 0.0444771 0.3415 0.062325 0.429425 3.06667e-06 1
-0.00405194 0.00677849 0.0396786 0.3415 0.062325 0.429425 6.15278e-06 1
-0.00270141 0.0095279 0.0393496 0.3415 0.062325 0.429425 3.03304e-06 1
-0.00269732 0.00399978 0.0387776 0.3415 0.062325 0.429425 3.33849e-06 1
-0.00201633 0.00296922 0.0402458 0.3415 0.062325 0.429425 1.0659e-06 1
-0.00624555 -0.000227234 0.0373813 0.3415 0.062325 0.429425 1.19107e-05 1
-0.00484768 0.00739018 0.0489388 0.3415 0.062325 0.429425 7.59007e-06 1
-0.00242796 0.00885778 0.0421499 0.3415 0.062325 0.429425 5.51198e-06 1
-0.00654755 0.00664012 0.0442806 0.3415 0.062325 0.429425 1.76345e-05 1
-0.00245816 0.00420301 0.0342484 0.3415 0.062325 0.429425 8.93723e-06 1
-0.00614997 0.0105195 0.0469368 0.3415 0.062325 0.429425 1.66886e-05 1
-0.0033106 0.00149843 0.0458825 0.3415 0.062325 0.429425 1.18036e-06 1
-0.00344228 0.0035409 0.0463049 0.3415 0.062325 0.429425 1.53333e-06 1
-0.0027371 0.00484113 0.0396743 0.3415 0.062325 0.429425 4.59144e-06 1
-0.000559352 0.0041802 0.0362478 0.3415 0.062325 0.429425 2.02448e-06 1
-0.00453245 -0.000863722 0.0393247 0.3415 0.062325 0.429425 5.85098e-06 1
-0.00400023 0.00149299 0.0480391 0.3415 0.062325 0.429425 1.32814e-06 1
-0.00368854 -0.000495183 0.0417863 0.3415 0.062325 0.429425 1.80694e-06 1
-0.00299877 0.000420565 0.0418673 0.3415 0.062325 0.429425 2.06702e-06 1
-0.0025918 -0.00169232 0.0391944 0.3415 0.062325 0.429425 7.1311e-07 1
-0.00593252 0.0106274 0.0450336 0.3415 0.062325 0.429425 2.35605e-06 1
-0.00344677 0.00240197 0.0467155 0.3415 0.062325 0.429425 7.66666e-07 1
-0.00362056 0.0120036 0.0452935 0.3415 0.062325 0.429425 8.73927e-06 1
-0.00593666 0.00459164 0.0469449 0.3415 0.062325 0.429425 5.68503e-06 1
-0.00459613 0.00402258 0.0367782 0.3415 0.062325 0.429425 1.64756e-05 1
-0.00385811 -0.00216631 0.0391757 0.3415 0.062325 0.429425 4.14085e-06 1
-0.00603279 0.0081669 0.0377983 0.3415 0.062325 0.429425 6.60487e-06 1
-0.00377849 0.00610837 0.0424788 0.3415 0.062325 0.429425 9.542e-06 1
-0.00486903 0.00514341 0.048705 0.3415 0.062325 0.429425 1.55499e-06 1
-0.00246789 0.00207654 0.0415059 0.3415 0.062325 0.429425 3.45622e-06 1
-0.0051164 0.00760992 0.0518593 0.3415 0.062325 0.429425 1.80613e-05 1
-0.0171877 0.0107425 0.047078 0.3415 0.062325 0.429425 8.58299e-07 1
-0.0129946 0.0064933 0.0382264 0.3415 0.062325 0.429425 1.00909e-05 1
-0.0161347 0.0125102 0.0485907 0.3415 0.062325 0.429425 5.18025e-06 1
-0.00738525 0.000542174 0.0518664 0.3415 0.062325 0.429425 3.42628e-06 1
-0.00764662 0.000454971 0.0529416 0.3415 0.062325 0.429425 5.21272e-06 1
-0.0121948 0.00594084 0.0418673 0.3415 0.062325 0.429425 3.04599e-05 1
-0.0120955 0.00584829 0.0373529 0.3415 0.062325 0.429425 5.28609e-06 1
-0.00618974 0.0107783 0.0525777 0.3415 0.062325 0.429425 2.14758e-05 1
-0.0170555 0.0106474 0.0520538 0.3415 0.062325 0.429425 1.29438e-05 1
-0.017231 0.00329079 0.0475262 0.3415 0.062325 0.429425 2.12368e-06 1
-0.0152338 0.00780147 0.0424086 0.3415 0.062325 0.429425 2.59045e-05 1
-0.0193259 0.0120101 0.0538938 0.3415 0.062325 0.429425 4.10439e-06 1
-0.0175484 0.00573895 0.0475333 0.3415 0.062325 0.429425 7.30209e-06 1
-0.0166699 0.00252826 0.0445018 0.3415 0.062325 0.429425 5.40207e-06 1
-0.0188745 0.0122455 0.0453463 0.3415 0.062325 0.429425 4.83766e-07 1
-0.0177328 0.00847836 0.0487258 0.3415 0.062325 0.429425 7.89304e-06 1
-0.0180851 0.0100286 0.0583567 0.3415 0.062325 0.429425 7.11111e-06 1
-0.0159048 0.00354437 0.0329437 0.3415 0.062325 0.429425 4.28873e-06 1
-0.0175124 0.0129827 0.0546301 0.3415 0.062325 0.429425 1.32825e-06 1
-0.0169504 0.00219205 0.0491254 0.3415 0.062325 0.429425 1.15987e-05 1
-0.0118979 0.00173987 0.0358927 0.3415 0.062325 0.429425 1.63998e-05 1
-0.0186949 0.014149 0.0531405 0.3415 0.062325 0.429425 8.52008e-07 1
-0.0149318 0.0128089 0.0446864 0.3415 0.062325 0.429425 9.10773e-06 1
-0.0142452 0.0063435 0.0552734 0.3415 0.062325 0.429425 8.20651e-06 1
-0.0057057 -0.00150476 0.0536252 0.3415 0.062325 0.429425 4.38544e-07 1
-0.0169732 0.0107941 0.0457649 0.3415 0.062325 0.429425 5.22751e-06 1
-0.00589694 0.00336711 0.0548605 0.3415 0.062325 0.429425 2.78146e-06 1
-0.00758264 0.00224177 0.0544335 0.3415 0.062325 0.429425 1.03091e-05 1
-0.0151829 0.0124645 0.0384 0.3415 0.062325 0.429425 1.33158e-06 1
-0.0158603 0.00926158 0.0378092 0.3415 0.062325 0.429425 7.7285e-06 1
-0.0169206 0.00930449 0.040677 0.3415 0.062325 0.429425 8.67239e-06 1
-0.0138765 0.00355759 0.0335663 0.3415 0.062325 0.429425 9.24513e-06 1
-0.0169873 0.00497641 0.0445089 0.3415 0.062325 0.429425 1.39069e-05 1
-0.0157727 0.0125972 0.046375 0.3415 0.062325 0.429425 6.52222e-06 1
-0.0136266 0.00258639 0.0438957 0.3415 0.062325 0.429425 1.78717e-05 1
-0.018134 0.00783491 0.0511171 0.3415 0.062325 0.429425 8.49568e-06 1
-0.017578 0.0103616 0.0479954 0.3415 0.062325 0.429425 2.84151e-06 1
-0.00532997 0.00470055 0.0535473 0.3415 0.062325 0.429425 1.16249e-05 1
-0.0183375 0.00495995 0.0520296 0.3415 0.062325 0.429425 6.36159e-06 1
-0.0173765 0.0115632 0.0483351 0.3415 0.062325 0.429425 1.67498e-06 1
-0.00596093 0.00158031 0.0533686 0.3415 0.062325 0.429425 3.07514e-06 1
-0.0181894 0.015082 0.0564154 0.3415 0.062325 0.429425 1.84262e-06 1
-0.0153304 0.0154032 0.0761517 0.3415 0.062325 0.429425 2.73921e-06 1
-0.00494203 0.0127235 0.0593104 0.3415 0.062325 0.429425 3.2436e-06 1
-0.00737192 0.0156941 0.0662202 0.3415 0.062325 0.429425 1.48628e-06 1
-0.0041408 0.0121703 0.0560377 0.3415 0.062325 0.429425 8.50384e-06 1
-0.0175197 0.0123234 0.0633799 0.3415 0.062325 0.429425 1.53253e-05 1
-0.0167944 0.0153797 0.0567708 0.3415 0.062325 0.429425 3.34219e-06 1
-0.0116484 0.0116584 0.0576865 0.3415 0.062325 0.429425 4.37189e-05 1
-0.00693641 0.0152658 0.0642588 0.3415 0.062325 0.429425 6.44546e-07 1
-0.00744274 0.0160538 0.0607061 0.3415 0.062325 0.429425 1.28909e-06 1
-0.0135312 0.0145458 0.0655954 0.3415 0.062325 0.429425 1.76954e-06 1
-0.00787631 0.013636 0.0596008 0.3415 0.062325 0.429425 6.96616e-06 1
-0.00722637 0.0137201 0.0570708 0.3415 0.062325 0.429425 1.30619e-05 1
-0.010796 0.0156247 0.0688279 0.3415 0.062325 0.429425 5.04356e-06 1
-0.0173671 0.0124257 0.0604975 0.3415 0.062325 0.429425 1.63615e-05 1
-0.0046841 0.0104306 0.0653461 0.3415 0.062325 0.429425 3.45989e-06 1
-0.0152935 0.0153698 0.0592165 0.3415 0.062325 0.429425 9.33699e-06 1
-0.0062098 0.0114093 0.0655803 0.3415 0.062325 0.429425 6.52946e-06 1
-0.0109065 0.010722 0.0692311 0.3415 0.062325 0.429425 3.4911e-05 1
-0.00879593 0.0160424 0.0583141 0.3415 0.062325 0.429425 3.13348e-06 1
-0.00740441 0.0146798 0.0709699 0.3415 0.062325 0.429425 2.39387e-06 1
-0.00898975 0.0161121 0.0741808 0.3415 0.062325 0.429425 9.16112e-07 1
-0.00779153 0.015112 0.0731796 0.3415 0.062325 0.429425 3.02193e-06 1
-0.0142942 0.0145274 0.0680563 0.3415 0.062325 0.429425 1.69452e-05 1
-0.0160116 0.0129728 0.0570757 0.3415 0.062325 0.429425 1.44367e-05 1
-0.0203133 0.0113154 0.0615258 0.3415 0.062325 0.429425 8.17948e-06 1
-0.0161893 0.01296 0.0759925 0.3415 0.062325 0.429425 9.00017e-06 1
-0.010033 0.0156431 0.066367 0.3415 0.062325 0.429425 4.7982e-06 1
-0.0143021 0.01074 0.0658343 0.3415 0.062325 0.429425 2.51739e-05 1
-0.00811712 0.0138796 0.076756 0.3415 0.062325 0.429425 1.99807e-06 1
-0.0118329 0.0116844 0.0764912 0.3415 0.062325 0.429425 8.59464e-06 1
-0.00691891 0.0128795 0.0757547 0.3415 0.062325 0.429425 8.11765e-06 1
-0.00446465 0.0116486 0.0794478 0.3415 0.062325 0.429425 2.8373e-06 1
-0.00516958 0.0123671 0.0779586 0.3415 0.062325 0.429425 2.16055e-06 1
-0.0063678 0.0133672 0.0789599 0.3415 0.062325 0.429425 2.55202e-06 1
-0.00842051 -0.00253481 0.068765 0.3415 0.062325 0.429425 1.62074e-05 1
-0.00434654 0.00990518 0.0677146 0.3415 0.062325 0.429425 3.45989e-06 1
-0.00757331 0.000109597 0.0634595 0.3415 0.062325 0.429425 1.78636e-05 1
-0.00942734 -0.000938167 0.0584678 0.3415 0.062325 0.429425 1.69565e-05 1
-0.00663524 0.0108655 0.0704097 0.3415 0.062325 0.429425 1.37253e-05 1
-0.00473575 0.00130707 0.061359 0.3415 0.062325 0.429425 8.12658e-06 1
-0.00855049 0.00687539 0.0742687 0.3415 0.062325 0.429425 5.82037e-05 1
-0.011041 0.00273028 0.0742255 0.3415 0.062325 0.429425 4.99878e-05 1
-0.00579652 0.00979094 0.0633143 0.3415 0.062325 0.429425 9.9345e-06 1
-0.00427081 0.0088122 0.0630801 0.3415 0.062325 0.429425 4.81898e-06 1
-0.00735529 -0.00130407 0.075284 0.3415 0.062325 0.429425 1.15826e-05 1
-0.0106346 0.0106843 0.0754899 0.3415 0.062325 0.429425 2.72487e-05 1
-0.0107381 0.00910245 0.0723546 0.3415 0.062325 0.429425 1.52028e-05 1
-0.00665304 0.00141724 0.075597 0.3415 0.062325 0.429425 2.18592e-05 1
-0.00962145 0.00640463 0.0637797 0.3415 0.062325 0.429425 6.25252e-05 1
-0.0100347 0.00802299 0.0660457 0.3415 0.062325 0.429425 1.69863e-05 1
-0.010059 -0.00262534 0.0712992 0.3415 0.062325 0.429425 6.19231e-06 1
-0.0194787 -0.000813272 0.0690429 0.3415 0.062325 0.429425 8.00404e-07 1
-0.013722 0.00871428 0.0589675 0.3415 0.062325 0.429425 2.27535e-05 1
-0.0185927 -0.00237191 0.067064 0.3415 0.062325 0.429425 4.22093e-07 1
-0.0184109 -0.00202705 0.0559906 0.3415 0.062325 0.429425 1.1873e-06 1
-0.0117267 0.00101048 0.061027 0.3415 0.062325 0.429425 1.54096e-05 1
-0.014276 8.11719e-05 0.0527062 0.3415 0.062325 0.429425 8.42326e-06 1
-0.0152576 -0.00021028 0.0701665 0.3415 0.062325 0.429425 9.22078e-06 1
-0.012149 0.00116471 0.0594482 0.3415 0.062325 0.429425 1.53169e-05 1
-0.0122593 -0.00371719 0.0600654 0.3415 0.062325 0.429425 1.0131e-06 1
-0.0184365 -0.00200029 0.0633774 0.3415 0.062325 0.429425 9.88431e-07 1
-0.0178982 -0.00192953 0.0655695 0.3415 0.062325 0.429425 7.20262e-07 1
-0.0170301 0.000156893 0.0557083 0.3415 0.062325 0.429425 7.61428e-06 1
-0.014981 -0.00161431 0.0610459 0.3415 0.062325 0.429425 1.11989e-05 1
-0.0184274 -0.00237505 0.0603814 0.3415 0.062325 0.429425 7.53652e-07 1
-0.0139244 -0.00376686 0.0578276 0.3415 0.062325 0.429425 9.22665e-07 1
-0.0183662 -0.00220158 0.0708841 0.3415 0.062325 0.429425 6.69241e-07 1
-0.018156 -0.0014463 0.066484 0.3415 0.062325 0.429425 4.11217e-07 1
-0.0189831 -0.00132755 0.0578967 0.3415 0.062325 0.429425 8.25616e-07 1
-0.0190262 -0.000951642 0.0623206 0.3415 0.062325 0.429425 5.36672e-07 1
-0.0192582 0.00043214 0.060874 0.3415 0.062325 0.429425 4.57892e-07 1
-0.0195244 0.00126251 0.0505939 0.3415 0.062325 0.429425 2.08563e-06 1
-0.0188148 0.000868659 0.0484171 0.3415 0.062325 0.429425 9.20957e-07 1
-0.0153461 0.00114957 0.0719657 0.3415 0.062325 0.429425 1.24e-05 1
-0.0207713 0.0017038 0.0582221 0.3415 0.062325 0.429425 2.8154e-07 1
-0.0139974 -0.00144594 0.0674199 0.3415 0.062325 0.429425 7.8064e-06 1
-0.0184706 -0.00270647 0.0688406 0.3415 0.062325 0.429425 4.62393e-07 1
-0.0197518 0.00225977 0.0566888 0.3415 0.062325 0.429425 2.829e-06 1
-0.0196465 0.000585223 0.0578674 0.3415 0.062325 0.429425 2.55969e-06 1
-0.0172805 -0.00297913 0.0654528 0.3415 0.062325 0.429425 7.28103e-07 1
-0.0181334 -0.000686441 0.0605192 0.3415 0.062325 0.429425 3.33562e-06 1
-0.0191843 -0.000685852 0.0635216 0.3415 0.062325 0.429425 9.77786e-07 1
-0.0177736 -0.00330366 0.0707659 0.3415 0.062325 0.429425 1.99405e-07 1
-0.0175209 -0.00263729 0.0618992 0.3415 0.062325 0.429425 1.6686e-06 1
-0.0139004 -0.00145636 0.0692293 0.3415 0.062325 0.429425 9.23694e-06 1
-0.0170534 -0.00266867 0.0710173 0.3415 0.062325 0.429425 1.20003e-06 1
-0.0194163 0.000697931 0.062075 0.3415 0.062325 0.429425 2.94194e-06 1
-0.0182905 0.00851764 0.0636188 0.3415 0.062325 0.429425 2.53012e-05 1
-0.0153114 -0.000201312 0.0665456 0.3415 0.062325 0.429425 8.3394e-06 1
-0.0182704 -0.00277932 0.0661494 0.3415 0.062325 0.429425 5.54371e-07 1
-0.0108839 0.00130326 0.0641339 0.3415 0.062325 0.429425 2.78138e-05 1
-0.0150372 0.00220414 0.0617014 0.3415 0.062325 0.429425 1.72876e-05 1
-0.0169952 0.00378983 0.0672196 0.3415 0.062325 0.429425 1.77885e-05 1
-0.0137748 0.00730552 0.0613471 0.3415 0.062325 0.429425 3.90834e-05 1
-0.0129809 0.00691275 0.067074 0.3415 0.062325 0.429425 2.13064e-05 1
-0.0181021 -0.00145527 0.0701049 0.3415 0.062325 0.429425 7.22496e-07 1
-0.0182166 -0.0031649 0.0697361 0.3415 0.062325 0.429425 3.0365e-07 1
-0.0191984 -0.00129726 0.0671814 0.3415 0.062325 0.429425 7.30644e-07 1
-0.0190989 -0.00163106 0.0699051 0.3415 0.062325 0.429425 1.01911e-06 1
-0.0194938 -0.000655073 0.0663835 0.3415 0.062325 0.429425 5.48401e-07 1
-0.0123048 -0.00273082 0.0684153 0.3415 0.062325 0.429425 1.56119e-06 1
-0.0170868 0.00106024 0.0568131 0.3415 0.062325 0.429425 3.81786e-06 1
-0.0158686 0.00273326 0.0532387 0.3415 0.062325 0.429425 1.28507e-05 1
-0.0159253 0.00363661 0.0543435 0.3415 0.062325 0.429425 5.50779e-06 1
-0.0154375 -0.0024952 0.0551758 0.3415 0.062325 0.429425 3.77134e-06 1
-0.017434 -0.00225886 0.0545458 0.3415 0.062325 0.429425 1.90376e-06 1
-0.01766 0.0025859 0.0513022 0.3415 0.062325 0.429425 5.82215e-06 1
-0.0162725 0.000317509 0.0520762 0.3415 0.062325 0.429425 4.66663e-06 1
-0.0159883 7.65803e-05 0.0484488 0.3415 0.062325 0.429425 5.55692e-06 1
-0.0151144 -0.000770805 0.0503148 0.3415 0.062325 0.429425 6.49759e-06 1
-0.0202052 0.0101757 0.0844806 0.3415 0.062325 0.429425 1.17495e-05 1
-0.0184182 0.0127623 0.073063 0.3415 0.062325 0.429425 1.32766e-05 1
-0.014779 0.00318177 0.0862087 0.3415 0.062325 0.429425 5.93514e-05 1
-0.0184038 0.0129027 0.0759111 0.3415 0.062325 0.429425 3.24092e-06 1
-0.0175381 0.0152075 0.0701604 0.3415 0.062325 0.429425 7.94068e-06 1
-0.0152121 0.00272319 0.0797019 0.3415 0.062325 0.429425 3.79339e-05 1
-0.020587 0.0118109 0.0744784 0.3415 0.062325 0.429425 6.30241e-06 1
-0.0149207 0.00759906 0.0693767 0.3415 0.062325 0.429425 2.98431e-05 1
-0.0149212 0.00624222 0.071316 0.3415 0.062325 0.429425 3.8987e-05 1
-0.0191885 0.00895924 0.0711045 0.3415 0.062325 0.429425 2.07367e-05 1
-0.0170387 0.00243445 0.0709703 0.3415 0.062325 0.429425 9.74344e-06 1
-0.0177617 -0.000144532 0.07579 0.3415 0.062325 0.429425 7.87671e-06 1
-0.0197493 -0.000954613 0.0729123 0.3415 0.062325 0.429425 7.71013e-07 1
-0.0182956 -0.00239907 0.0819311 0.3415 0.062325 0.429425 4.56948e-06 1
-0.0184365 -0.00142171 0.0730455 0.3415 0.062325 0.429425 1.39848e-06 1
-0.0195738 0.00115154 0.0739323 0.3415 0.062325 0.429425 4.49181e-06 1
-0.0189528 -0.00136883 0.0793728 0.3415 0.062325 0.429425 4.34482e-06 1
-0.0195433 0.00114336 0.0785332 0.3415 0.062325 0.429425 7.58524e-06 1
-0.0161462 0.00926691 0.0818148 0.3415 0.062325 0.429425 3.6447e-05 1
-0.0158488 0.00890006 0.0849793 0.3415 0.062325 0.429425 5.14911e-05 1
-0.0164583 0.00697951 0.0871621 0.3415 0.062325 0.429425 1.74121e-05 1
-0.0170755 0.00687561 0.0796052 0.3415 0.062325 0.429425 3.26964e-05 1
-0.00767588 -0.00248799 0.0878085 0.3415 0.062325 0.429425 1.1687e-05 1
-0.010291 0.00326469 0.0882126 0.3415 0.062325 0.429425 5.88461e-05 1
-0.0145129 -0.00280693 0.0933853 0.3415 0.062325 0.429425 2.54508e-06 1
-0.0195835 -0.000866209 0.0894822 0.3415 0.062325 0.429425 4.58989e-07 1
-0.00876644 -0.00264588 0.0918086 0.3415 0.062325 0.429425 5.62161e-06 1
-0.0134224 -0.000260995 0.0972303 0.3415 0.062325 0.429425 4.45078e-06 1
-0.00523187 -0.00180326 0.0888544 0.3415 0.062325 0.429425 3.09503e-06 1
-0.00953455 -0.00262166 0.0819411 0.3415 0.062325 0.429425 7.70831e-06 1
-0.00692508 -0.00124041 0.0848788 0.3415 0.062325 0.429425 9.01832e-06 1
-0.0109932 0.00293142 0.0957448 0.3415 0.062325 0.429425 5.13341e-05 1
-0.0163037 -0.00370958 0.0831117 0.3415 0.062325 0.429425 6.62514e-07 1
-0.00904263 0.000122263 0.0783303 0.3415 0.062325 0.429425 1.26102e-05 1
-0.0179121 -0.00257482 0.0747373 0.3415 0.062325 0.429425 2.29083e-06 1
-0.0168945 -0.00255422 0.0842114 0.3415 0.062325 0.429425 4.32984e-06 1
-0.0134305 0.0014353 0.0769588 0.3415 0.062325 0.429425 3.86792e-05 1
-0.0132206 5.58468e-05 0.0828218 0.3415 0.062325 0.429425 3.3611e-05 1
-0.0142857 0.00167326 0.0914467 0.3415 0.062325 0.429425 1.96839e-05 1
-0.0162871 -0.00241403 0.0930453 0.3415 0.062325 0.429425 3.41307e-06 1
-0.0120271 -0.00145508 0.0921489 0.3415 0.062325 0.429425 2.06654e-05 1
-0.0136988 0.00168302 0.0934214 0.3415 0.062325 0.429425 8.76547e-06 1
-0.0088323 9.96506e-05 0.0822541 0.3415 0.062325 0.429425 1.47359e-05 1
-0.00974488 -0.00259905 0.0780173 0.3415 0.062325 0.429425 6.5964e-06 1
-0.0171713 -0.00265673 0.0766296 0.3415 0.062325 0.429425 4.58167e-06 1
-0.0186063 -0.00321069 0.0733949 0.3415 0.062325 0.429425 3.81431e-07 1
-0.0192249 -0.00210772 0.0746041 0.3415 0.062325 0.429425 1.59666e-06 1
-0.0184529 0.0005717 0.0875983 0.3415 0.062325 0.429425 7.94434e-06 1
