ply
format ascii 1.0
comment Created by Open3D
element vertex 793
property float32 x
property float32 y
property float32 z
property float32 red
property float32 green
property float32 blue
property uint8 segmentation
end_header
-0.0816663 0.0217567 -0.0568508 0.529412 0.54902 0.54902 3
-0.0896269 0.0252347 -0.117939 0.529412 0.54902 0.54902 3
-0.0902144 0.0232457 -0.0936598 0.529412 0.54902 0.54902 3
-0.0414947 0.0155648 0.0924307 0.529412 0.54902 0.54902 3
-0.00902136 0.0087922 -0.0281367 0.00784314 0.239216 0.823529 4
-0.0861151 0.028336 -0.0907839 0.529412 0.54902 0.54902 3
0.0055477 0.00185789 -0.0927772 0.00784314 0.239216 0.823529 4
-0.0377756 0.00826195 0.090479 0.529412 0.54902 0.54902 3
0.00427858 -0.00416583 -0.092757 0.00784314 0.239216 0.823529 4
0.00399454 0.00375454 0.0490877 0.529412 0.54902 0.54902 2
-0.0848908 0.0279647 -0.0524281 0.529412 0.54902 0.54902 3
0.005016 -0.00956245 -0.0525236 0.00784314 0.239216 0.823529 4
-0.00523602 -0.000862646 0.017488 0.898039 0.898039 0.898039 5
-0.0107461 -0.00714594 0.0899687 0.529412 0.54902 0.54902 3
-0.0111841 0.00167905 -0.0782829 0.00784314 0.239216 0.823529 4
-0.0796267 0.0266125 -0.0545946 0.529412 0.54902 0.54902 3
-0.0714997 0.0178982 0.0951102 0.529412 0.54902 0.54902 3
0.000647805 -0.0037832 0.0184919 0.898039 0.898039 0.898039 6
-0.0110729 0.00209983 -0.0848713 0.00784314 0.239216 0.823529 4
-0.0708609 0.0141904 0.0405071 0.529412 0.54902 0.54902 2
-0.076124 0.0316998 0.0500438 0.529412 0.54902 0.54902 2
-0.00721494 0.0102646 -0.0913613 0.00784314 0.239216 0.823529 4
-0.041101 0.0164923 0.0999291 0.529412 0.54902 0.54902 3
-0.081278 0.0206922 0.0205795 0.529412 0.54902 0.54902 3
-0.069783 0.0245358 0.0539237 0.529412 0.54902 0.54902 2
-0.0846459 0.0226946 -0.00570268 0.529412 0.54902 0.54902 3
-0.0460585 0.0172894 0.102061 0.529412 0.54902 0.54902 3
-0.0893083 0.0302669 0.00460759 0.529412 0.54902 0.54902 3
-0.00457983 0.00314911 0.036254 0.898039 0.898039 0.898039 5
-0.0882859 0.0299748 -0.0436388 0.529412 0.54902 0.54902 3
-0.0136538 0.00185377 0.0870611 0.529412 0.54902 0.54902 3
0.00542997 -0.00883185 -0.0367581 0.00784314 0.239216 0.823529 4
0.00362356 -0.00936029 -0.0810035 0.00784314 0.239216 0.823529 4
0.00801315 -0.00122854 -0.0864199 0.00784314 0.239216 0.823529 4
-0.0778487 0.0269925 0.0197965 0.529412 0.54902 0.54902 3
0.00551985 -0.00506052 -0.0126551 0.00784314 0.239216 0.823529 4
-0.0786519 0.027222 -0.0821603 0.529412 0.54902 0.54902 3
-0.00581919 0.00218546 0.0173611 0.898039 0.898039 0.898039 6
-0.00829461 -0.00936302 0.0664861 0.298039 0.298039 0.298039 0
-0.0368244 0.0090302 0.0957758 0.529412 0.54902 0.54902 3
-0.0292037 0.0114338 0.0405071 0.529412 0.54902 0.54902 2
0.00352139 -0.00633785 -0.00885019 0.00784314 0.239216 0.823529 4
-0.0675359 0.0185012 0.0834348 0.529412 0.54902 0.54902 3
-0.0816663 0.0217567 -0.0480073 0.529412 0.54902 0.54902 3
-0.00602306 0.00205527 0.00600977 0.329412 0.458824 0.768627 4
-0.0480856 0.0127679 0.043597 0.529412 0.54902 0.54902 2
-0.0043488 0.00222853 0.0870611 0.529412 0.54902 0.54902 3
-0.0868209 0.0233161 -0.0678767 0.529412 0.54902 0.54902 3
-0.084841 0.0227503 0.0556182 0.529412 0.54902 0.54902 3
0.00544817 0.0065439 0.0713367 0.298039 0.298039 0.298039 0
-0.0826901 0.0221357 0.058369 0.529412 0.54902 0.54902 3
-0.00504536 0.000501073 -0.0935016 0.00784314 0.239216 0.823529 4
-0.0902039 0.029699 -0.0737464 0.529412 0.54902 0.54902 3
-7.64656e-05 -0.0103103 0.089691 0.529412 0.54902 0.54902 3
0.00325158 -0.00353311 0.0713367 0.298039 0.298039 0.298039 0
-0.00920338 0.0098402 0.0870611 0.529412 0.54902 0.54902 3
-0.00447689 0.00443837 0.0272622 0.898039 0.898039 0.898039 6
-0.0646909 0.0156204 0.0487973 0.529412 0.54902 0.54902 2
0.00836229 0.00188614 -0.0691682 0.00784314 0.239216 0.823529 4
-0.00902136 0.00620278 -0.0163211 0.00784314 0.239216 0.823529 4
-0.0917094 0.02443 -0.064515 0.529412 0.54902 0.54902 3
0.0100378 0.00549897 0.0666172 0.298039 0.298039 0.298039 0
-0.0111331 7.97258e-05 -0.0866896 0.00784314 0.239216 0.823529 4
-0.08571 0.0229986 -0.110173 0.529412 0.54902 0.54902 3
-0.0787415 0.0199674 -0.115978 0.529412 0.54902 0.54902 3
0.00844203 0.00730539 -0.0457902 0.00784314 0.239216 0.823529 4
-0.0408824 0.0127608 0.102061 0.529412 0.54902 0.54902 3
-0.0329154 0.00707863 0.0910816 0.529412 0.54902 0.54902 3
0.00527187 0.00992182 -0.0868211 0.00784314 0.239216 0.823529 4
-0.0889322 0.0301595 0.00982437 0.529412 0.54902 0.54902 3
-0.0913689 0.0235756 -0.092757 0.529412 0.54902 0.54902 3
0.00677467 -0.00446573 -0.022798 0.00784314 0.239216 0.823529 4
-0.00946241 0.00329572 -0.0132747 0.00784314 0.239216 0.823529 4
-0.0834951 0.0275659 -0.105389 0.529412 0.54902 0.54902 3
-0.0761411 0.024318 -0.0447984 0.529412 0.54902 0.54902 3
-0.083064 0.0222426 -0.0732971 0.529412 0.54902 0.54902 3
-0.0024907 -0.00916708 -0.0706542 0.00784314 0.239216 0.823529 4
-0.0925017 0.0315644 0.0490877 0.529412 0.54902 0.54902 2
0.00726262 -0.00549829 -0.0311576 0.00784314 0.239216 0.823529 4
-0.0801454 0.0266104 -0.0895549 0.529412 0.54902 0.54902 3
-0.0586413 0.0147441 0.0513456 0.529412 0.54902 0.54902 2
-0.086906 0.0233331 -0.0171406 0.529412 0.54902 0.54902 3
0.0112695 -0.00349281 0.0900611 0.529412 0.54902 0.54902 3
0.00828968 0.00862658 -0.0647122 0.00784314 0.239216 0.823529 4
-0.0870639 0.023352 -0.0389752 0.529412 0.54902 0.54902 3
0.00362356 -0.0034657 -0.0929915 0.00784314 0.239216 0.823529 4
-0.0563988 0.0175363 0.0869801 0.529412 0.54902 0.54902 3
0.00181714 -0.00734852 0.0870611 0.529412 0.54902 0.54902 3
-0.0634373 0.0155945 0.0885249 0.529412 0.54902 0.54902 3
-0.00317425 0.0134028 0.0667351 0.298039 0.298039 0.298039 0
-0.0927594 0.0293691 0.0513847 0.529412 0.54902 0.54902 2
-0.00770176 0.00626678 -0.00757986 0.00784314 0.239216 0.823529 4
-0.0910401 0.0234816 0.0721858 0.529412 0.54902 0.54902 3
-0.091419 0.0235899 -0.0608266 0.529412 0.54902 0.54902 3
-0.081278 0.0269324 -0.0299431 0.529412 0.54902 0.54902 3
-0.0879732 0.0298854 -0.0122241 0.529412 0.54902 0.54902 3
-0.0682193 0.0285472 0.0491758 0.529412 0.54902 0.54902 2
-0.0902374 0.0232523 -0.0220649 0.529412 0.54902 0.54902 3
-0.00234571 -0.0111694 0.0713367 0.298039 0.298039 0.298039 0
-0.000880486 0.00814964 0.0870611 0.529412 0.54902 0.54902 3
-0.0860979 0.0231095 -0.0726996 0.529412 0.54902 0.54902 3
-0.0310963 0.0109182 0.102061 0.529412 0.54902 0.54902 3
-0.0511979 0.0178173 0.0458058 0.529412 0.54902 0.54902 2
-0.0145846 0.00839557 0.050365 0.529412 0.54902 0.54902 2
-0.0455309 0.012038 0.0451482 0.529412 0.54902 0.54902 2
-0.0212955 0.005113 0.0429933 0.529412 0.54902 0.54902 2
-0.00504536 0.00771277 -0.0926179 0.00784314 0.239216 0.823529 4
-0.0726566 0.0139091 0.0399237 0.529412 0.54902 0.54902 2
-0.00937375 0.000678243 -0.00770979 0.00784314 0.239216 0.823529 4
-0.0864138 0.028573 -0.0393467 0.529412 0.54902 0.54902 3
-0.00861663 -0.00805102 -0.0317496 0.00784314 0.239216 0.823529 4
-0.000824396 -0.00897422 -0.0404181 0.00784314 0.239216 0.823529 4
-0.089692 0.0230964 -0.0988274 0.529412 0.54902 0.54902 3
-0.0902374 0.0232523 -0.0962375 0.529412 0.54902 0.54902 3
0.000149467 0.0105076 0.0656799 0.298039 0.298039 0.298039 0
-0.0758618 0.0252953 -0.0103314 0.529412 0.54902 0.54902 3
-0.0812651 0.0269287 0.0398871 0.529412 0.54902 0.54902 3
-0.0449329 0.0128558 0.0539237 0.529412 0.54902 0.54902 2
-0.081278 0.0206922 0.0333528 0.529412 0.54902 0.54902 3
0.0053154 0.0101253 -0.0498137 0.00784314 0.239216 0.823529 4
-0.00615807 0.0105341 0.0870611 0.529412 0.54902 0.54902 3
-0.014875 -0.00118071 0.0900611 0.529412 0.54902 0.54902 3
-0.0755888 0.0262201 0.0781265 0.529412 0.54902 0.54902 3
-0.0425714 0.00963231 0.0980777 0.529412 0.54902 0.54902 3
0.00808999 0.00771277 -0.040515 0.00784314 0.239216 0.823529 4
-0.0801069 0.0203576 0.0304635 0.529412 0.54902 0.54902 3
-0.0693946 0.0245768 0.083802 0.529412 0.54902 0.54902 3
-0.00179569 -0.00339337 0.0245951 0.898039 0.898039 0.898039 5
0.00723639 0.00887903 -0.0391915 0.00784314 0.239216 0.823529 4
-0.00540853 -0.000494228 0.0326036 0.898039 0.898039 0.898039 6
-0.0866973 0.0232807 -0.0713544 0.529412 0.54902 0.54902 3
-0.00902136 0.00333192 0.0641724 0.298039 0.298039 0.298039 0
-0.00581919 0.00293607 -0.002286 0.00784314 0.239216 0.823529 4
-0.0787415 0.0147673 0.0488232 0.529412 0.54902 0.54902 2
-0.0814017 0.0214274 -0.105865 0.529412 0.54902 0.54902 3
0.00620546 0.00328189 -0.00932572 0.00784314 0.239216 0.823529 4
0.000735997 -0.00771787 -0.0160634 0.00784314 0.239216 0.823529 4
-0.00607265 -0.00383235 0.0713367 0.298039 0.298039 0.298039 0
0.00333191 -0.00569717 -0.0926619 0.00784314 0.239216 0.823529 4
-0.0845286 0.0278612 0.0170237 0.529412 0.54902 0.54902 3
-0.0848667 0.0227577 0.00189823 0.529412 0.54902 0.54902 3
0.00329797 0.00222996 0.0870611 0.529412 0.54902 0.54902 3
-0.0220769 0.0105364 0.0524394 0.529412 0.54902 0.54902 2
-0.0866074 0.0289178 0.0553691 0.529412 0.54902 0.54902 3
-0.0419475 0.00945403 0.101925 0.529412 0.54902 0.54902 3
-0.0915943 0.02364 -0.00712868 0.529412 0.54902 0.54902 3
-0.0110101 -0.00353311 -0.0355394 0.00784314 0.239216 0.823529 4
-0.0825735 0.0221024 -0.0195977 0.529412 0.54902 0.54902 3
-0.0112164 0.000562401 -0.079109 0.00784314 0.239216 0.823529 4
0.00785163 -0.00714594 -0.0475966 0.00784314 0.239216 0.823529 4
-0.00860152 0.00928048 -0.0296534 0.00784314 0.239216 0.823529 4
-0.0878467 0.0225692 0.0712162 0.529412 0.54902 0.54902 3
-0.0897322 0.0231079 -0.104301 0.529412 0.54902 0.54902 3
-0.0677041 0.0168136 0.0848844 0.529412 0.54902 0.54902 3
0.00631288 -0.00933028 -0.0579815 0.00784314 0.239216 0.823529 4
-0.0762694 0.0255012 0.0815909 0.529412 0.54902 0.54902 3
-0.083767 0.0224435 -0.105676 0.529412 0.54902 0.54902 3
0.00683958 -0.0089965 -0.066507 0.00784314 0.239216 0.823529 4
-0.0909124 0.0234451 -0.107131 0.529412 0.54902 0.54902 3
-0.00912523 -0.00448383 0.0870611 0.529412 0.54902 0.54902 3
-0.00360211 -0.00492928 0.0900611 0.529412 0.54902 0.54902 3
-0.0787415 0.0199674 -0.0900517 0.529412 0.54902 0.54902 3
-0.0825735 0.0221024 0.0657929 0.529412 0.54902 0.54902 3
-0.00318234 -0.000265312 0.0870611 0.529412 0.54902 0.54902 3
-0.0790282 0.0200494 -0.0262711 0.529412 0.54902 0.54902 3
-0.0765758 0.0227966 0.0371789 0.529412 0.54902 0.54902 3
0.00723639 0.00959951 -0.0732971 0.00784314 0.239216 0.823529 4
-0.00210173 -0.00573804 0.0481007 0.529412 0.54902 0.54902 2
-0.0441524 0.0158042 0.0412345 0.529412 0.54902 0.54902 2
-0.0892505 0.0302504 0.0373636 0.529412 0.54902 0.54902 3
-0.0108278 -0.00213735 0.0900611 0.529412 0.54902 0.54902 3
-0.0857589 0.0230126 -0.0516201 0.529412 0.54902 0.54902 3
0.0045753 0.00990935 -0.088615 0.00784314 0.239216 0.823529 4
-0.0314839 0.00802399 0.0459263 0.529412 0.54902 0.54902 2
-0.00405841 0.013622 0.0872054 0.529412 0.54902 0.54902 3
-0.0796913 0.0217634 -0.117939 0.529412 0.54902 0.54902 3
-0.0878155 0.0298404 -0.0867323 0.529412 0.54902 0.54902 3
-0.0905259 0.0285717 -0.0627384 0.529412 0.54902 0.54902 3
0.00772212 0.00188614 -0.0314885 0.00784314 0.239216 0.823529 4
-0.00461182 0.00904343 -0.0188566 0.00784314 0.239216 0.823529 4
-0.0176646 0.00146125 0.0870611 0.529412 0.54902 0.54902 3
-0.00453728 0.00904217 -0.018782 0.00784314 0.239216 0.823529 4
-0.0316114 0.0132607 0.0481434 0.529412 0.54902 0.54902 2
-0.0869513 0.0233418 -0.116524 0.529412 0.54902 0.54902 3
-0.0764741 0.0231525 -0.033556 0.529412 0.54902 0.54902 3
-0.00465638 -0.00909449 -0.0537641 0.00784314 0.239216 0.823529 4
-0.0758148 0.0254597 -0.109469 0.529412 0.54902 0.54902 3
-0.0848908 0.0227646 -0.105404 0.529412 0.54902 0.54902 3
-0.0114718 -0.00176955 -0.0602416 0.00784314 0.239216 0.823529 4
0.00842449 0.00255944 0.065715 0.298039 0.298039 0.298039 0
-0.0830844 0.0274485 -0.0660715 0.529412 0.54902 0.54902 3
-0.0834951 0.0223657 -0.0819072 0.529412 0.54902 0.54902 3
-0.0787415 0.0199674 -0.0904316 0.529412 0.54902 0.54902 3
-0.0830844 0.0222484 -0.0602416 0.529412 0.54902 0.54902 3
-0.0797112 0.0202445 -0.0448555 0.529412 0.54902 0.54902 3
-0.090103 0.0232138 0.0387007 0.529412 0.54902 0.54902 3
-0.0864054 0.0231973 0.0187162 0.529412 0.54902 0.54902 3
-0.0148042 -0.00169336 0.0870611 0.529412 0.54902 0.54902 3
-0.00721104 -0.00826449 -0.0316744 0.00784314 0.239216 0.823529 4
-0.075772 0.0263991 0.00257235 0.529412 0.54902 0.54902 3
-0.0481431 0.0177332 0.0908916 0.529412 0.54902 0.54902 3
-0.0936977 0.0243821 0.0477328 0.529412 0.54902 0.54902 2
-0.0763357 0.0236368 -0.0252878 0.529412 0.54902 0.54902 3
-0.0114802 -0.00580526 -0.0823292 0.00784314 0.239216 0.823529 4
-0.0876691 0.0297985 -0.0366388 0.529412 0.54902 0.54902 3
-0.0132084 0.0141204 0.0900611 0.529412 0.54902 0.54902 3
-0.000363617 0.0094026 -0.0920424 0.00784314 0.239216 0.823529 4
0.00254876 0.013445 0.0675608 0.298039 0.298039 0.298039 0
-0.0910421 0.0267653 -0.0494489 0.529412 0.54902 0.54902 3
0.000696922 0.0106265 0.0713367 0.298039 0.298039 0.298039 0
-0.0101183 0.00059797 0.0521592 0.529412 0.54902 0.54902 2
-0.0580263 0.016015 0.0401339 0.529412 0.54902 0.54902 2
0.00723639 -0.008658 -0.0573093 0.00784314 0.239216 0.823529 4
-0.0685228 0.0147491 0.0460499 0.529412 0.54902 0.54902 2
-0.013034 0.00328189 0.0539237 0.529412 0.54902 0.54902 2
-0.0377751 0.01222 0.102061 0.529412 0.54902 0.54902 3
-0.0556818 0.0175242 0.0399237 0.529412 0.54902 0.54902 2
-0.0375766 0.0154852 0.0886849 0.529412 0.54902 0.54902 3
-0.00825075 0.00401753 -0.00249417 0.00784314 0.239216 0.823529 4
-0.0896975 0.0303781 -0.112686 0.529412 0.54902 0.54902 3
-0.0768729 0.0217567 -0.0355169 0.529412 0.54902 0.54902 3
-0.0112685 0.00139741 -0.0555428 0.00784314 0.239216 0.823529 4
-0.0794208 0.0266936 -0.0018674 0.529412 0.54902 0.54902 3
-0.0733797 0.024954 0.0752397 0.529412 0.54902 0.54902 3
-0.0773891 0.0199503 -0.0150812 0.529412 0.54902 0.54902 3
-0.00561986 -0.0106421 0.0664657 0.298039 0.298039 0.298039 0
-0.000148751 -0.00385689 0.0565794 0.298039 0.298039 0.298039 0
-0.0779816 0.0312667 0.0444823 0.529412 0.54902 0.54902 2
0.00818541 0.00980995 0.0892803 0.529412 0.54902 0.54902 3
0.00819229 0.00413957 -0.0899148 0.00784314 0.239216 0.823529 4
-0.0813172 0.0207882 0.0276424 0.529412 0.54902 0.54902 3
-0.0866348 0.0294274 -0.09211 0.529412 0.54902 0.54902 3
-0.0249722 0.0103237 0.0434215 0.529412 0.54902 0.54902 2
-0.0762694 0.0265412 -0.0427599 0.529412 0.54902 0.54902 3
-0.0329154 0.00710289 0.0910867 0.529412 0.54902 0.54902 3
-0.034035 0.0122946 0.0539237 0.529412 0.54902 0.54902 2
-0.0112384 0.0145276 0.0893227 0.529412 0.54902 0.54902 3
-0.0118112 0.00685034 0.0664925 0.298039 0.298039 0.298039 0
-0.0690438 0.0292246 0.0439698 0.529412 0.54902 0.54902 2
0.000452933 -0.00832735 -0.0248072 0.00784314 0.239216 0.823529 4
-0.0439202 0.0157378 0.0437263 0.529412 0.54902 0.54902 2
-0.0803092 0.0266555 -0.0709813 0.529412 0.54902 0.54902 3
-0.0910321 0.0268002 -0.0441297 0.529412 0.54902 0.54902 3
-0.000246393 0.0102849 -0.0524555 0.00784314 0.239216 0.823529 4
-0.0911611 0.0263489 -0.0625961 0.529412 0.54902 0.54902 3
-0.0787306 0.0272445 0.0121586 0.529412 0.54902 0.54902 3
-0.000180787 0.00920742 -0.0215612 0.00784314 0.239216 0.823529 4
0.00825816 0.00328189 -0.0443945 0.00784314 0.239216 0.823529 4
-0.0871079 0.0233527 -0.0809202 0.529412 0.54902 0.54902 3
-0.0238163 0.00423854 0.0900611 0.529412 0.54902 0.54902 3
-0.0769903 0.0213461 -0.0678779 0.529412 0.54902 0.54902 3
-0.083309 0.0223126 0.0196452 0.529412 0.54902 0.54902 3
-0.091274 0.0259536 0.0222141 0.529412 0.54902 0.54902 3
-0.0149085 0.00224799 0.0517562 0.529412 0.54902 0.54902 2
0.00682572 0.00945185 -0.0873378 0.00784314 0.239216 0.823529 4
0.00167417 0.00378856 0.0870611 0.529412 0.54902 0.54902 3
-0.0916227 0.0247335 -0.0819185 0.529412 0.54902 0.54902 3
0.00321289 -0.00948377 -0.0549996 0.00784314 0.239216 0.823529 4
-0.0813761 0.0213758 0.0260558 0.529412 0.54902 0.54902 3
-0.0084816 0.00689473 -0.0144816 0.00784314 0.239216 0.823529 4
0.0019719 0.0025375 0.0228536 0.898039 0.898039 0.898039 5
-0.00625444 -0.00910497 -0.060793 0.00784314 0.239216 0.823529 4
-0.00972491 0.000931666 -0.013178 0.00784314 0.239216 0.823529 4
-0.0768064 0.0219897 0.0358768 0.529412 0.54902 0.54902 3
0.00637164 0.00181563 -0.00851575 0.00784314 0.239216 0.823529 4
-0.0316446 0.0137903 0.0900883 0.529412 0.54902 0.54902 3
-0.0850035 0.0217567 0.0838611 0.529412 0.54902 0.54902 3
0.00501931 -0.00483053 0.0646133 0.298039 0.298039 0.298039 0
-0.0774078 0.0268665 -0.116618 0.529412 0.54902 0.54902 3
-0.0083092 0.00528652 -0.00785549 0.00784314 0.239216 0.823529 4
-0.0819011 0.0271104 -0.0394235 0.529412 0.54902 0.54902 3
-0.00353147 0.0050113 0.0320888 0.898039 0.898039 0.898039 6
-0.00923825 0.00976968 -0.0387616 0.00784314 0.239216 0.823529 4
-0.0757848 0.0139483 0.0510321 0.529412 0.54902 0.54902 2
-0.0516062 0.019494 0.0888848 0.529412 0.54902 0.54902 3
0.00818509 -0.0017916 -0.0542467 0.00784314 0.239216 0.823529 4
-0.0112338 -0.00653608 -0.0425881 0.00784314 0.239216 0.823529 4
-0.0615382 0.0180797 0.101516 0.529412 0.54902 0.54902 3
0.00428492 -0.00931858 -0.0436866 0.00784314 0.239216 0.823529 4
-0.00551149 0.00059797 0.054133 0.898039 0.898039 0.898039 5
0.00612902 7.97258e-05 -0.00424265 0.00784314 0.239216 0.823529 4
-0.00357056 -0.00739747 0.0900611 0.529412 0.54902 0.54902 3
-0.0458561 0.0141613 0.0539237 0.529412 0.54902 0.54902 2
-0.00161757 -0.00340896 0.0215387 0.898039 0.898039 0.898039 5
-0.0790319 0.0270685 -0.00583747 0.529412 0.54902 0.54902 3
-0.0902374 0.0232523 0.00792277 0.529412 0.54902 0.54902 3
-0.0407581 0.00963418 0.053152 0.529412 0.54902 0.54902 2
-0.0395641 0.0150131 0.0943613 0.529412 0.54902 0.54902 3
-0.00721494 0.0128127 0.0676033 0.298039 0.298039 0.298039 0
-0.0816129 0.0164588 0.0539095 0.529412 0.54902 0.54902 2
0.00360556 0.00434974 0.0490305 0.529412 0.54902 0.54902 2
-0.043598 0.0104456 0.0486528 0.529412 0.54902 0.54902 2
-0.0761868 0.0241579 0.0123355 0.529412 0.54902 0.54902 3
-0.043255 0.0160678 0.0933038 0.529412 0.54902 0.54902 3
-0.07856 0.0199156 0.0373049 0.529412 0.54902 0.54902 3
-0.00389887 -0.00339554 0.0233117 0.898039 0.898039 0.898039 6
-0.0803771 0.0329151 0.048439 0.529412 0.54902 0.54902 2
-0.081582 0.0332593 0.049157 0.529412 0.54902 0.54902 2
-0.0564872 0.0146486 0.0962849 0.529412 0.54902 0.54902 3
-0.0769961 0.0213256 -0.0988561 0.529412 0.54902 0.54902 3
0.00143988 0.00392679 0.036591 0.898039 0.898039 0.898039 6
-0.0777545 0.0269656 -0.0767686 0.529412 0.54902 0.54902 3
0.00789845 -0.00575019 -0.0442293 0.00784314 0.239216 0.823529 4
-0.0286353 0.0118903 0.0936584 0.529412 0.54902 0.54902 3
-0.0655514 0.0258977 0.0499421 0.529412 0.54902 0.54902 2
-0.0834951 0.0275659 -0.0440773 0.529412 0.54902 0.54902 3
-0.09031 0.0293273 0.0106565 0.529412 0.54902 0.54902 3
-0.0100561 0.00752882 -0.0916537 0.00784314 0.239216 0.823529 4
-0.0636245 0.0157434 0.0443126 0.529412 0.54902 0.54902 2
-0.0797284 0.0265904 -0.0294266 0.529412 0.54902 0.54902 3
-0.0906442 0.0233685 -0.00382193 0.529412 0.54902 0.54902 3
-0.0837741 0.0276456 0.0224235 0.529412 0.54902 0.54902 3
-0.0845286 0.0278612 -0.064265 0.529412 0.54902 0.54902 3
-0.0879954 0.0228032 -0.0693931 0.529412 0.54902 0.54902 3
-0.0853501 0.0280959 -0.0453662 0.529412 0.54902 0.54902 3
-0.00210173 -0.00412586 0.00268544 0.329412 0.458824 0.768627 4
-0.0838216 0.0276591 0.0179085 0.529412 0.54902 0.54902 3
-0.0157201 0.00872002 0.0500626 0.529412 0.54902 0.54902 2
-0.0780758 0.0270574 0.0218353 0.529412 0.54902 0.54902 3
-0.00239211 0.00689012 0.050365 0.529412 0.54902 0.54902 2
-0.0041247 0.00934677 -0.0227175 0.00784314 0.239216 0.823529 4
-0.0816887 0.0217761 -0.0283569 0.529412 0.54902 0.54902 3
-0.0813337 0.0269483 0.0438149 0.529412 0.54902 0.54902 3
0.00173026 -0.0105741 0.0876309 0.529412 0.54902 0.54902 3
0.00140648 -0.00934891 -0.0523101 0.00784314 0.239216 0.823529 4
-0.0833138 0.027514 -0.0790951 0.529412 0.54902 0.54902 3
-0.00587154 0.00356124 -0.002286 0.00784314 0.239216 0.823529 4
-0.0266614 0.0104091 0.0950715 0.529412 0.54902 0.54902 3
-0.00337905 -0.00379466 0.00281345 0.329412 0.458824 0.768627 4
-0.0907208 0.02789 -0.0875378 0.529412 0.54902 0.54902 3
-0.00607924 -0.00767485 -0.0920913 0.00784314 0.239216 0.823529 4
-0.0780082 0.0197579 0.0227806 0.529412 0.54902 0.54902 3
-0.0722459 0.0243515 0.0861314 0.529412 0.54902 0.54902 3
0.00723639 -0.00639532 0.0662076 0.298039 0.298039 0.298039 0
-0.0541818 0.02023 0.100922 0.529412 0.54902 0.54902 3
-0.0767489 0.0221907 -0.0194259 0.529412 0.54902 0.54902 3
0.00364806 -0.0075566 0.0870611 0.529412 0.54902 0.54902 3
-0.00762561 0.00498399 -0.0927331 0.00784314 0.239216 0.823529 4
0.00240642 -0.00941952 -0.0533637 0.00784314 0.239216 0.823529 4
-0.0294549 0.00797156 0.0978526 0.529412 0.54902 0.54902 3
-0.0723548 0.0138638 0.0443076 0.529412 0.54902 0.54902 2
-0.00401277 0.00758295 0.0713367 0.298039 0.298039 0.298039 0
-0.0114941 -0.00394377 -0.0753491 0.00784314 0.239216 0.823529 4
0.00501931 -0.00604778 -0.0133063 0.00784314 0.239216 0.823529 4
0.00611711 -0.00353311 -0.0132747 0.00784314 0.239216 0.823529 4
-0.0238834 0.00879983 0.0399237 0.529412 0.54902 0.54902 2
-0.0210724 0.00868934 0.0951609 0.529412 0.54902 0.54902 3
-0.00643829 0.00840334 -0.014993 0.00784314 0.239216 0.823529 4
-0.074463 0.0284899 0.0539237 0.529412 0.54902 0.54902 2
-0.0794474 0.0201691 -0.105402 0.529412 0.54902 0.54902 3
-0.0592912 0.0206499 0.0957374 0.529412 0.54902 0.54902 3
-0.0110254 -0.000170268 -0.03918 0.00784314 0.239216 0.823529 4
0.00827605 7.97258e-05 -0.0615904 0.00784314 0.239216 0.823529 4
0.00142242 0.00328189 0.0152173 0.898039 0.898039 0.898039 5
-0.0864128 0.0285717 0.00920741 0.529412 0.54902 0.54902 3
-0.0915583 0.0249589 0.0318857 0.529412 0.54902 0.54902 3
-0.0835604 0.0275845 -0.0978052 0.529412 0.54902 0.54902 3
-0.00877946 0.010421 -0.0810787 0.00784314 0.239216 0.823529 4
-0.0840421 0.0277222 -0.0755787 0.529412 0.54902 0.54902 3
-0.00577555 0.0101749 -0.0376665 0.00784314 0.239216 0.823529 4
-0.000399941 -0.00415475 0.000765931 0.898039 0.898039 0.898039 6
-0.03037 0.0100455 0.100529 0.529412 0.54902 0.54902 3
-0.0867543 0.0295372 0.0298693 0.529412 0.54902 0.54902 3
0.00851202 0.00643544 -0.0788718 0.00784314 0.239216 0.823529 4
-0.0757012 0.0258574 -0.0733127 0.529412 0.54902 0.54902 3
-0.0795076 0.0266527 -0.039843 0.529412 0.54902 0.54902 3
-0.00324446 0.00417116 0.0155692 0.898039 0.898039 0.898039 5
-0.0825417 0.0272934 -0.00645973 0.529412 0.54902 0.54902 3
-0.083309 0.0223126 -0.0359766 0.529412 0.54902 0.54902 3
-0.0774746 0.019651 0.0299707 0.529412 0.54902 0.54902 3
0.00761932 -0.00727094 -0.0865781 0.00784314 0.239216 0.823529 4
-0.0912195 0.0261446 0.0061753 0.529412 0.54902 0.54902 3
-0.0214532 0.0109182 0.0900611 0.529412 0.54902 0.54902 3
-0.00947532 0.00453428 -0.092272 0.00784314 0.239216 0.823529 4
0.00428492 -0.00201372 0.0501679 0.529412 0.54902 0.54902 2
-0.0473668 0.0182827 0.0897003 0.529412 0.54902 0.54902 3
-0.0171393 0.00912553 0.050365 0.529412 0.54902 0.54902 2
-0.0703638 0.0195966 0.0539237 0.529412 0.54902 0.54902 2
-0.0819503 0.0219176 -0.0355816 0.529412 0.54902 0.54902 3
-0.0677014 0.0199503 0.0830446 0.529412 0.54902 0.54902 3
-0.0277618 0.00619536 0.0914164 0.529412 0.54902 0.54902 3
-0.076546 0.0229007 -0.0544448 0.529412 0.54902 0.54902 3
-0.0369131 0.00905554 0.0951102 0.529412 0.54902 0.54902 3
-0.004366 0.00940071 -0.0237201 0.00784314 0.239216 0.823529 4
-0.0885037 0.030037 0.0425766 0.529412 0.54902 0.54902 3
-0.00401277 -0.0025322 0.0260558 0.898039 0.898039 0.898039 5
-0.0905635 0.0284404 -0.0253674 0.529412 0.54902 0.54902 3
-0.0533937 0.0127246 0.0881957 0.529412 0.54902 0.54902 3
-0.0910549 0.0267205 -0.112628 0.529412 0.54902 0.54902 3
-0.0855395 0.02815 0.0133733 0.529412 0.54902 0.54902 3
-0.0916227 0.0247335 0.0373049 0.529412 0.54902 0.54902 3
-0.0798812 0.0177615 0.0423135 0.529412 0.54902 0.54902 2
-0.0904927 0.0286882 0.0266236 0.529412 0.54902 0.54902 3
-0.00179569 -0.00786491 -0.0922814 0.00784314 0.239216 0.823529 4
-0.0112958 -0.0045002 -0.0891442 0.00784314 0.239216 0.823529 4
-0.0866973 0.0232807 -0.0292807 0.529412 0.54902 0.54902 3
0.00126988 0.0103158 -0.0634873 0.00784314 0.239216 0.823529 4
0.0133242 0.00188614 0.0890733 0.529412 0.54902 0.54902 3
-0.0235259 0.00916876 0.09638 0.529412 0.54902 0.54902 3
0.00729354 -0.00677562 -0.0349896 0.00784314 0.239216 0.823529 4
-0.0900098 0.0303781 -0.114434 0.529412 0.54902 0.54902 3
-0.00943202 0.00180628 -0.0096619 0.00784314 0.239216 0.823529 4
-0.00479636 -0.0016761 0.0549584 0.898039 0.898039 0.898039 5
-0.0677937 0.0281663 0.0509068 0.529412 0.54902 0.54902 2
-0.00448554 0.00442996 0.00489797 0.898039 0.898039 0.898039 6
-0.0764663 0.0207713 0.0703057 0.529412 0.54902 0.54902 3
-0.0822659 0.0220145 -0.0250213 0.529412 0.54902 0.54902 3
-0.0871079 0.0296382 -0.0330836 0.529412 0.54902 0.54902 3
-0.0911654 0.0263337 0.00659584 0.529412 0.54902 0.54902 3
0.00813336 0.00300888 -0.0407816 0.00784314 0.239216 0.823529 4
0.00173026 -0.00315623 0.057042 0.298039 0.298039 0.298039 0
-0.0380234 0.00885277 0.0509876 0.529412 0.54902 0.54902 2
0.00173026 -0.00288119 0.00792277 0.329412 0.458824 0.768627 4
0.0014911 -0.00503279 0.0520274 0.529412 0.54902 0.54902 2
0.00712996 0.00825322 -0.0327664 0.00784314 0.239216 0.823529 4
-0.0793731 0.0201479 -0.0263303 0.529412 0.54902 0.54902 3
-0.0104178 -0.00840377 -0.0698283 0.00784314 0.239216 0.823529 4
-0.0790349 0.0270626 -0.0931191 0.529412 0.54902 0.54902 3
-0.00943202 -0.00126893 -0.0100726 0.00784314 0.239216 0.823529 4
-0.00176054 -0.00917783 -0.0537444 0.00784314 0.239216 0.823529 4
-0.0870639 0.023352 -0.0281367 0.529412 0.54902 0.54902 3
-0.00610007 0.00388078 -0.0931624 0.00784314 0.239216 0.823529 4
-0.0112405 -0.00685464 -0.0451292 0.00784314 0.239216 0.823529 4
-0.0294893 0.00838155 0.0539237 0.529412 0.54902 0.54902 2
-0.00721494 0.00893419 -0.0212537 0.00784314 0.239216 0.823529 4
0.00395169 0.0116532 0.0713367 0.298039 0.298039 0.298039 0
-0.00788214 4.04888e-05 0.0621768 0.298039 0.298039 0.298039 0
-0.0758588 0.0264239 0.0206431 0.529412 0.54902 0.54902 3
0.00592737 0.00951333 -0.0371688 0.00784314 0.239216 0.823529 4
-0.0571001 0.0137837 0.0878846 0.529412 0.54902 0.54902 3
0.00834693 0.00820186 -0.0505479 0.00784314 0.239216 0.823529 4
0.00556225 -0.00479354 0.0900611 0.529412 0.54902 0.54902 3
-0.0535235 0.0127617 0.0987231 0.529412 0.54902 0.54902 3
-0.0499441 0.013299 0.0421326 0.529412 0.54902 0.54902 2
-0.0798822 0.0202934 -0.0932953 0.529412 0.54902 0.54902 3
0.00728309 0.00967981 -0.0664919 0.00784314 0.239216 0.823529 4
-0.0905259 0.0285717 -0.0193092 0.529412 0.54902 0.54902 3
-0.0763046 0.0237458 -0.0575352 0.529412 0.54902 0.54902 3
-0.0767499 0.0266785 -0.0265013 0.529412 0.54902 0.54902 3
-0.0913626 0.0256437 -0.0300908 0.529412 0.54902 0.54902 3
-0.0720644 0.0294967 0.0399237 0.529412 0.54902 0.54902 2
-0.090712 0.0279207 -0.08304 0.529412 0.54902 0.54902 3
-0.0321172 0.0117739 0.0870611 0.529412 0.54902 0.54902 3
-0.011171 7.97258e-05 -0.0841356 0.00784314 0.239216 0.823529 4
-0.0814693 0.026987 0.0146817 0.529412 0.54902 0.54902 3
-0.0764867 0.0266033 0.0273636 0.529412 0.54902 0.54902 3
0.00586984 -0.00513746 0.0652438 0.298039 0.298039 0.298039 0
-0.0101235 -6.49934e-05 -0.0199457 0.00784314 0.239216 0.823529 4
-0.0912816 0.0235506 0.0295311 0.529412 0.54902 0.54902 3
-0.00401277 -0.00750648 -0.0147024 0.00784314 0.239216 0.823529 4
-0.0856725 0.0229879 -0.0226967 0.529412 0.54902 0.54902 3
-0.0822218 0.027202 -0.00823624 0.529412 0.54902 0.54902 3
-0.0784755 0.0160317 0.0409178 0.529412 0.54902 0.54902 2
-0.00179569 -0.00921143 -0.0655267 0.00784314 0.239216 0.823529 4
-0.0491732 0.0177332 0.0467741 0.529412 0.54902 0.54902 2
-0.0113917 -0.00172669 -0.0734776 0.00784314 0.239216 0.823529 4
-0.0690676 0.0172032 0.086647 0.529412 0.54902 0.54902 3
-0.0830844 0.0263074 0.0877615 0.529412 0.54902 0.54902 3
-0.0850509 0.0228103 0.0387007 0.529412 0.54902 0.54902 3
0.00321289 0.0101107 -0.0801121 0.00784314 0.239216 0.823529 4
-0.0764321 0.0232995 0.0186582 0.529412 0.54902 0.54902 3
-0.00819799 0.010742 -0.0709813 0.00784314 0.239216 0.823529 4
-0.0866547 0.0292854 -0.0563682 0.529412 0.54902 0.54902 3
-0.0905259 0.0285717 -0.0908396 0.529412 0.54902 0.54902 3
-0.0112938 0.00118791 -0.0660715 0.00784314 0.239216 0.823529 4
0.00863214 -0.00832431 0.0687835 0.298039 0.298039 0.298039 0
-0.0901348 0.0299408 0.0219714 0.529412 0.54902 0.54902 3
-0.0118306 0.00656861 0.0410792 0.529412 0.54902 0.54902 2
0.00832623 0.00147548 -0.0702036 0.00784314 0.239216 0.823529 4
-0.0636245 0.0157434 0.0495392 0.529412 0.54902 0.54902 2
-0.0845301 0.0278616 0.00570495 0.529412 0.54902 0.54902 3
-0.00220636 -0.00213735 -0.0935621 0.00784314 0.239216 0.823529 4
0.00826544 -0.000330938 -0.0624789 0.00784314 0.239216 0.823529 4
0.00493563 0.0102409 -0.0598215 0.00784314 0.239216 0.823529 4
-0.00179569 0.0103929 -0.0696843 0.00784314 0.239216 0.823529 4
-0.0034906 0.0104999 -0.068097 0.00784314 0.239216 0.823529 4
-0.00362214 0.00464396 0.0249685 0.898039 0.898039 0.898039 6
-0.00536281 0.00508831 -0.002286 0.00784314 0.239216 0.823529 4
-0.0825735 0.0221024 0.0136129 0.529412 0.54902 0.54902 3
-0.00294838 0.0104209 -0.0519785 0.00784314 0.239216 0.823529 4
-0.00551958 0.00315263 0.0107039 0.329412 0.458824 0.768627 4
-0.0112815 -0.00363274 -0.0421774 0.00784314 0.239216 0.823529 4
-0.0586627 0.0199503 0.0427242 0.529412 0.54902 0.54902 2
0.00819595 -0.00330856 -0.0630511 0.00784314 0.239216 0.823529 4
-0.0100204 -0.00853162 -0.0498118 0.00784314 0.239216 0.823529 4
-0.0232223 0.00577292 0.0902658 0.529412 0.54902 0.54902 3
0.0102255 -0.00735639 0.087634 0.529412 0.54902 0.54902 3
-0.00533574 0.00237235 0.0352295 0.898039 0.898039 0.898039 6
-1.41618e-05 0.000226501 -0.0936657 0.00784314 0.239216 0.823529 4
-0.00299582 -0.00867611 -0.0345424 0.00784314 0.239216 0.823529 4
-0.0880193 0.0227461 0.0217662 0.529412 0.54902 0.54902 3
0.00203785 -0.00884075 -0.0341996 0.00784314 0.239216 0.823529 4
0.00833225 0.00855233 -0.0630909 0.00784314 0.239216 0.823529 4
-0.0895656 0.0303404 0.00298301 0.529412 0.54902 0.54902 3
-0.0780758 0.0197772 -0.018694 0.529412 0.54902 0.54902 3
0.00732679 -0.00761518 -0.0405732 0.00784314 0.239216 0.823529 4
-0.0794474 0.0201691 0.0318857 0.529412 0.54902 0.54902 3
0.00516905 0.0102208 -0.0672521 0.00784314 0.239216 0.823529 4
-0.090103 0.0232138 0.0730226 0.529412 0.54902 0.54902 3
0.00859166 -0.00575019 0.0664581 0.298039 0.298039 0.298039 0
-0.0891495 0.0229414 0.0298157 0.529412 0.54902 0.54902 3
-0.0634135 0.0157388 0.0406261 0.529412 0.54902 0.54902 2
-0.0813637 0.0217567 0.0784418 0.529412 0.54902 0.54902 3
-0.0194 -0.00236129 0.0892766 0.529412 0.54902 0.54902 3
-0.0771427 0.0208125 0.0513556 0.529412 0.54902 0.54902 2
0.00839204 0.00216568 -0.0618135 0.00784314 0.239216 0.823529 4
-0.0135977 0.00187343 0.051352 0.529412 0.54902 0.54902 2
0.00128032 -0.0032634 0.000765931 0.329412 0.458824 0.768627 4
-0.0059898 0.00188614 0.0870611 0.529412 0.54902 0.54902 3
-0.0710097 0.019459 0.0399237 0.529412 0.54902 0.54902 2
-0.0522834 0.0129274 0.0491606 0.529412 0.54902 0.54902 2
-0.0122635 0.0103987 0.0900611 0.529412 0.54902 0.54902 3
-0.0895614 0.027176 0.074829 0.529412 0.54902 0.54902 3
-0.0130449 0.0109794 0.0900611 0.529412 0.54902 0.54902 3
-0.0108278 -0.00479386 0.0870611 0.529412 0.54902 0.54902 3
-0.0764741 0.0231525 -0.0606522 0.529412 0.54902 0.54902 3
-0.0759068 0.0251379 -0.0586978 0.529412 0.54902 0.54902 3
0.011312 0.00150211 0.0870611 0.529412 0.54902 0.54902 3
-0.0108467 0.00987413 0.0710732 0.298039 0.298039 0.298039 0
0.00390568 0.00389051 0.0495392 0.529412 0.54902 0.54902 2
-0.0812961 0.0206974 0.00153612 0.529412 0.54902 0.54902 3
-0.0377829 0.0139842 0.0413276 0.529412 0.54902 0.54902 2
-0.00593371 -0.0121717 0.070343 0.298039 0.298039 0.298039 0
-0.0108278 0.00343514 0.0870611 0.529412 0.54902 0.54902 3
0.00113361 -0.00921963 -0.0457409 0.00784314 0.239216 0.823529 4
-0.00179414 -0.0013843 0.0870611 0.529412 0.54902 0.54902 3
-0.0112496 0.00266779 -0.0562021 0.00784314 0.239216 0.823529 4
-0.0759579 0.0249589 -0.034458 0.529412 0.54902 0.54902 3
-0.0903101 0.0293272 0.0432864 0.529412 0.54902 0.54902 3
-0.0471816 0.0166697 0.0423135 0.529412 0.54902 0.54902 2
-0.03893 0.00911181 0.0511376 0.529412 0.54902 0.54902 2
-0.0534853 0.0184709 0.042701 0.529412 0.54902 0.54902 2
-0.039945 0.00940184 0.0481434 0.529412 0.54902 0.54902 2
-0.0780758 0.0197772 -0.0512852 0.529412 0.54902 0.54902 3
-0.061571 0.0221905 0.0478684 0.529412 0.54902 0.54902 2
-0.0918052 0.0240949 0.0120451 0.529412 0.54902 0.54902 3
0.000533972 0.00109957 0.0553691 0.298039 0.298039 0.298039 0
-0.0107526 0.00626061 0.0414829 0.529412 0.54902 0.54902 2
-0.0704795 0.0169445 0.0539237 0.529412 0.54902 0.54902 2
-0.0764321 0.0232995 -0.0886374 0.529412 0.54902 0.54902 3
-0.0876953 0.0231576 -0.0292974 0.529412 0.54902 0.54902 3
-0.0787415 0.0199674 -0.0878769 0.529412 0.54902 0.54902 3
-0.0908695 0.0273694 -0.00548258 0.529412 0.54902 0.54902 3
0.00188456 -0.00422883 0.0870611 0.529412 0.54902 0.54902 3
-0.083309 0.0223126 -0.0385312 0.529412 0.54902 0.54902 3
-0.00121337 -0.00499714 0.0870611 0.529412 0.54902 0.54902 3
-0.0437466 0.0104881 0.0528344 0.529412 0.54902 0.54902 2
-0.00715012 0.0107173 -0.055233 0.00784314 0.239216 0.823529 4
-0.031909 0.0138658 0.101505 0.529412 0.54902 0.54902 3
-0.0487649 0.01222 0.102061 0.529412 0.54902 0.54902 3
-0.00623936 7.97258e-05 0.0134108 0.329412 0.458824 0.768627 4
0.00411516 -0.00235128 0.0435198 0.529412 0.54902 0.54902 2
-0.0258121 0.0105076 0.0927854 0.529412 0.54902 0.54902 3
0.0019719 0.0025375 0.0336921 0.898039 0.898039 0.898039 5
-0.0871064 0.0233527 -0.11624 0.529412 0.54902 0.54902 3
-0.0915943 0.024833 -0.102944 0.529412 0.54902 0.54902 3
-0.0860157 0.023086 -0.0475494 0.529412 0.54902 0.54902 3
-0.0906643 0.0233742 -0.0912668 0.529412 0.54902 0.54902 3
-0.062944 0.0216936 0.0962468 0.529412 0.54902 0.54902 3
-0.00206908 0.00388078 0.0870611 0.529412 0.54902 0.54902 3
-0.080016 0.0213716 0.0788525 0.529412 0.54902 0.54902 3
-0.084163 0.0225566 -0.0473146 0.529412 0.54902 0.54902 3
-0.000288876 0.00437925 0.0300809 0.898039 0.898039 0.898039 5
-0.0071285 -0.0087676 -0.0883189 0.00784314 0.239216 0.823529 4
-0.0834212 0.0213046 0.0842717 0.529412 0.54902 0.54902 3
-0.0780758 0.0270574 -0.0483854 0.529412 0.54902 0.54902 3
-0.0698233 0.0264858 0.0539237 0.529412 0.54902 0.54902 2
-0.0859477 0.0230665 -0.111862 0.529412 0.54902 0.54902 3
-0.0078904 0.0102371 0.0900611 0.529412 0.54902 0.54902 3
0.00806767 0.00188614 -0.040371 0.00784314 0.239216 0.823529 4
-0.0470718 0.0109182 0.0873807 0.529412 0.54902 0.54902 3
-0.0115682 -0.003647 -0.0660715 0.00784314 0.239216 0.823529 4
-0.0506402 0.0119379 0.087781 0.529412 0.54902 0.54902 3
-0.0876178 0.0177332 0.0487323 0.529412 0.54902 0.54902 2
-0.0866973 0.0232807 -0.0471633 0.529412 0.54902 0.54902 3
-0.0547626 0.0193559 0.0970314 0.529412 0.54902 0.54902 3
-0.0832383 0.0222924 0.0149219 0.529412 0.54902 0.54902 3
-0.0672373 0.0199503 0.0999561 0.529412 0.54902 0.54902 3
-0.00943202 0.00146125 0.0870611 0.529412 0.54902 0.54902 3
0.00818817 -0.0029889 -0.056569 0.00784314 0.239216 0.823529 4
-0.00906791 0.00482817 -0.0128943 0.00784314 0.239216 0.823529 4
-0.00843186 -0.00900427 -0.0729835 0.00784314 0.239216 0.823529 4
-0.0830844 0.0222484 0.0192408 0.529412 0.54902 0.54902 3
0.00513214 -0.00963021 -0.0606522 0.00784314 0.239216 0.823529 4
-0.011242 0.00369256 -0.061252 0.00784314 0.239216 0.823529 4
-0.0902374 0.0232523 -0.0457251 0.529412 0.54902 0.54902 3
-0.0835604 0.0275845 -0.0358399 0.529412 0.54902 0.54902 3
-0.00481643 -0.00213735 0.0402767 0.898039 0.898039 0.898039 6
-0.0345756 0.0140382 0.0983824 0.529412 0.54902 0.54902 3
-0.0915677 0.0249258 0.0406046 0.529412 0.54902 0.54902 3
-0.0786548 0.0272228 -0.0746781 0.529412 0.54902 0.54902 3
-0.0126342 0.00159812 0.0499498 0.529412 0.54902 0.54902 2
-0.0486724 0.0170957 0.045665 0.529412 0.54902 0.54902 2
-0.0770536 0.0267653 0.0287706 0.529412 0.54902 0.54902 3
-0.0726566 0.0253696 0.0968629 0.529412 0.54902 0.54902 3
-0.0316114 0.0132607 0.0535627 0.529412 0.54902 0.54902 2
-0.0678091 0.0201498 0.0539237 0.529412 0.54902 0.54902 2
-0.031109 0.00689473 0.046923 0.529412 0.54902 0.54902 2
-0.00581919 0.0102095 -0.0384418 0.00784314 0.239216 0.823529 4
-0.0775053 0.0268944 -0.0712143 0.529412 0.54902 0.54902 3
-0.0851281 0.0228324 0.0389518 0.529412 0.54902 0.54902 3
-0.0112405 0.00369256 -0.0624586 0.00784314 0.239216 0.823529 4
0.00747643 -0.00895236 0.0870611 0.529412 0.54902 0.54902 3
0.00140648 -0.00317893 0.00681678 0.329412 0.458824 0.768627 4
-0.0203055 0.00483013 0.0410634 0.529412 0.54902 0.54902 2
0.00360556 0.00434974 0.0454176 0.529412 0.54902 0.54902 2
-0.004366 0.00642368 0.0452557 0.529412 0.54902 0.54902 2
0.00237649 -0.000298723 0.0276898 0.898039 0.898039 0.898039 5
-0.00204833 -0.00717281 -0.00604907 0.00784314 0.239216 0.823529 4
-0.0915845 0.0248672 0.0221998 0.529412 0.54902 0.54902 3
-0.0778531 0.0197136 -0.0688698 0.529412 0.54902 0.54902 3
0.00418076 0.00811093 -0.0166656 0.00784314 0.239216 0.823529 4
-0.0855395 0.02815 0.00532635 0.529412 0.54902 0.54902 3
-0.0887117 0.0300965 -0.0384113 0.529412 0.54902 0.54902 3
0.00243386 0.00555412 0.0445306 0.529412 0.54902 0.54902 2
-0.0738776 0.0195396 0.0842717 0.529412 0.54902 0.54902 3
-0.0915845 0.0248672 0.0381085 0.529412 0.54902 0.54902 3
-0.0644005 0.0247333 0.0483 0.529412 0.54902 0.54902 2
-0.046401 0.0122866 0.0421213 0.529412 0.54902 0.54902 2
-0.00819799 0.00439234 -0.00361569 0.00784314 0.239216 0.823529 4
0.00616022 0.0097426 -0.0423018 0.00784314 0.239216 0.823529 4
-0.00912523 0.00062549 0.0870611 0.529412 0.54902 0.54902 3
-0.0110768 0.00408508 -0.0471208 0.00784314 0.239216 0.823529 4
-0.0331466 0.00849931 0.0445586 0.529412 0.54902 0.54902 2
-0.0913689 0.0235756 0.00298301 0.529412 0.54902 0.54902 3
-0.0832023 0.0217567 0.0892803 0.529412 0.54902 0.54902 3
-0.0860603 0.0283111 0.00246203 0.529412 0.54902 0.54902 3
-0.082984 0.0159796 0.0496581 0.529412 0.54902 0.54902 2
-0.0433433 0.017133 0.101905 0.529412 0.54902 0.54902 3
0.00321289 -0.00223114 -0.0931819 0.00784314 0.239216 0.823529 4
-0.0913254 0.0235631 -0.0588458 0.529412 0.54902 0.54902 3
-0.00401277 -0.0025322 0.0170237 0.898039 0.898039 0.898039 5
-0.0853778 0.0332593 0.0493399 0.529412 0.54902 0.54902 2
-0.00375351 -0.00230774 0.0563367 0.298039 0.298039 0.298039 0
-0.00483789 -0.00698738 0.0644303 0.298039 0.298039 0.298039 0
0.00807612 0.00864172 -0.0494031 0.00784314 0.239216 0.823529 4
0.00329797 0.0102653 -0.0645946 0.00784314 0.239216 0.823529 4
-0.0771168 0.0209031 -0.0325932 0.529412 0.54902 0.54902 3
-0.0804078 0.0204436 -0.0934297 0.529412 0.54902 0.54902 3
-0.0864054 0.0190373 0.0449653 0.529412 0.54902 0.54902 2
-0.00721104 -0.00898804 -0.0502577 0.00784314 0.239216 0.823529 4
0.00765511 0.00620884 -0.0300915 0.00784314 0.239216 0.823529 4
-0.0787415 0.0199674 -0.000437768 0.529412 0.54902 0.54902 3
0.00743755 0.00934517 -0.0489398 0.00784314 0.239216 0.823529 4
-0.00727728 0.00689473 -0.00816798 0.00784314 0.239216 0.823529 4
-0.0801843 0.0151796 0.0427577 0.529412 0.54902 0.54902 2
-0.0252791 0.003639 0.0899926 0.529412 0.54902 0.54902 3
-0.0112384 -0.00760613 -0.0602865 0.00784314 0.239216 0.823529 4
0.00464701 -0.000969743 0.0403728 0.529412 0.54902 0.54902 2
-0.0451497 0.0112188 0.0468713 0.529412 0.54902 0.54902 2
-0.0306984 0.00675973 0.0535627 0.529412 0.54902 0.54902 2
-0.00282426 0.00900753 -0.0166518 0.00784314 0.239216 0.823529 4
-0.00117584 0.00541902 0.0243462 0.898039 0.898039 0.898039 6
-0.037714 0.0150045 0.0527822 0.529412 0.54902 0.54902 2
0.00300759 -0.00884422 -0.0342291 0.00784314 0.239216 0.823529 4
-0.0306984 0.0129999 0.0495392 0.529412 0.54902 0.54902 2
-0.07856 0.0199156 0.0914974 0.529412 0.54902 0.54902 3
-0.0889601 0.0228873 0.0117548 0.529412 0.54902 0.54902 3
-0.0611804 0.0195992 0.0399237 0.529412 0.54902 0.54902 2
-0.0776652 0.0206999 0.0870083 0.529412 0.54902 0.54902 3
-0.0889601 0.0228873 -0.0470024 0.529412 0.54902 0.54902 3
-0.0137419 0.0142345 0.0870611 0.529412 0.54902 0.54902 3
-0.0809563 0.0268404 -0.0674672 0.529412 0.54902 0.54902 3
-0.0871079 0.0233527 0.0594795 0.529412 0.54902 0.54902 3
-0.0570097 0.0170421 0.0539237 0.529412 0.54902 0.54902 2
0.00233001 0.0101814 -0.0767897 0.00784314 0.239216 0.823529 4
-0.00494677 0.00945563 0.0870611 0.529412 0.54902 0.54902 3
-0.0798769 0.0202919 -0.0626379 0.529412 0.54902 0.54902 3
-0.0033394 0.00849149 -0.00992019 0.00784314 0.239216 0.823529 4
-0.00179569 -0.00910474 -0.0475966 0.00784314 0.239216 0.823529 4
0.00723639 0.000880486 0.0870611 0.529412 0.54902 0.54902 3
-0.0766113 0.0226723 -0.0721015 0.529412 0.54902 0.54902 3
-0.000824396 -0.00323303 0.055 0.898039 0.898039 0.898039 5
-0.0816887 0.0270497 0.0698204 0.529412 0.54902 0.54902 3
-0.0883621 0.0299966 0.0646601 0.529412 0.54902 0.54902 3
-0.0802206 0.0266302 -0.0265496 0.529412 0.54902 0.54902 3
-0.0336469 0.0133224 0.096506 0.529412 0.54902 0.54902 3
-0.00897961 -0.00533952 -0.0922001 0.00784314 0.239216 0.823529 4
-0.0912605 0.0260011 0.0176991 0.529412 0.54902 0.54902 3
-0.0682481 0.0285717 0.0497999 0.529412 0.54902 0.54902 2
-0.0794474 0.0201691 -0.107208 0.529412 0.54902 0.54902 3
-0.00818078 -0.00907764 -0.0597263 0.00784314 0.239216 0.823529 4
0.00702804 0.0012688 -0.0187004 0.00784314 0.239216 0.823529 4
-0.0473668 0.0167221 0.0409178 0.529412 0.54902 0.54902 2
-0.0896395 0.0291351 0.0720094 0.529412 0.54902 0.54902 3
0.00821679 0.000536635 -0.0760932 0.00784314 0.239216 0.823529 4
-0.00533574 0.0131125 0.0900611 0.529412 0.54902 0.54902 3
0.00811349 -0.00224707 -0.0503176 0.00784314 0.239216 0.823529 4
-0.0824785 0.0210352 0.0898983 0.529412 0.54902 0.54902 3
-0.00854446 -0.00175907 0.0870611 0.529412 0.54902 0.54902 3
-0.0845329 0.0278624 -0.062048 0.529412 0.54902 0.54902 3
-0.0866296 0.0289824 -0.0530159 0.529412 0.54902 0.54902 3
-0.0866958 0.0295205 -0.0952505 0.529412 0.54902 0.54902 3
-0.075908 0.0251337 -0.110417 0.529412 0.54902 0.54902 3
-0.0825417 0.0272934 -0.113038 0.529412 0.54902 0.54902 3
0.00758034 -0.000969743 -0.0311576 0.00784314 0.239216 0.823529 4
-0.00401277 0.00843552 0.0644012 0.298039 0.298039 0.298039 0
-0.0486995 0.0186635 0.0877415 0.529412 0.54902 0.54902 3
-0.0848908 0.0279647 -0.107619 0.529412 0.54902 0.54902 3
-0.0912244 0.0261274 -0.105469 0.529412 0.54902 0.54902 3
-0.0145674 0.0140994 0.0870611 0.529412 0.54902 0.54902 3
-0.0823998 0.0231525 0.089691 0.529412 0.54902 0.54902 3
-0.0112537 0.00324125 -0.0601572 0.00784314 0.239216 0.823529 4
-0.00943202 -0.00230713 -0.011879 0.00784314 0.239216 0.823529 4
0.0102828 -0.00578268 0.0707443 0.298039 0.298039 0.298039 0
-0.0106788 0.00376035 -0.0345614 0.00784314 0.239216 0.823529 4
-0.0162106 0.00871616 0.0538484 0.529412 0.54902 0.54902 2
-0.0769903 0.0213461 0.0594898 0.529412 0.54902 0.54902 3
-0.0789527 0.0200278 -0.00831295 0.529412 0.54902 0.54902 3
0.0079351 0.00147548 -0.0369656 0.00784314 0.239216 0.823529 4
0.00813036 -0.00166631 -0.0503176 0.00784314 0.239216 0.823529 4
-0.0881126 0.0226451 0.00683701 0.529412 0.54902 0.54902 3
-0.0804037 0.0326723 0.0538573 0.529412 0.54902 0.54902 2
-0.0873924 0.0297195 -0.0786452 0.529412 0.54902 0.54902 3
-0.0898928 0.0321515 0.0453928 0.529412 0.54902 0.54902 2
-0.0861653 0.0283661 -0.0768374 0.529412 0.54902 0.54902 3
-0.0857117 0.0229991 -0.0111165 0.529412 0.54902 0.54902 3
0.0070986 0.00247363 0.0713367 0.298039 0.298039 0.298039 0
-0.00769184 -0.0114185 0.0698013 0.298039 0.298039 0.298039 0
-0.0454916 0.0104667 0.0901291 0.529412 0.54902 0.54902 3
-0.0206235 0.00908109 0.0443261 0.529412 0.54902 0.54902 2
0.00825891 0.00462713 -0.0873378 0.00784314 0.239216 0.823529 4
-0.0536161 0.0195483 0.0506722 0.529412 0.54902 0.54902 2
0.0079926 -0.00122854 -0.0422241 0.00784314 0.239216 0.823529 4
-0.0909248 0.027176 -0.0234205 0.529412 0.54902 0.54902 3
-0.000842404 0.00689299 0.0452834 0.529412 0.54902 0.54902 2
-0.00565051 0.0134272 0.0694097 0.298039 0.298039 0.298039 0
-0.0798862 0.0202945 0.0380644 0.529412 0.54902 0.54902 3
-0.0907208 0.02789 0.0401951 0.529412 0.54902 0.54902 3
0.0104386 0.000760804 0.0900611 0.529412 0.54902 0.54902 3
-0.0905898 0.0283482 -0.0790602 0.529412 0.54902 0.54902 3
0.00352127 -0.00954409 -0.0634265 0.00784314 0.239216 0.823529 4
0.00852742 0.00470213 -0.0561417 0.00784314 0.239216 0.823529 4
-0.00337905 -0.00353731 0.0183546 0.898039 0.898039 0.898039 6
0.00390568 0.00389051 0.0423135 0.529412 0.54902 0.54902 2
-0.0903248 0.0292757 -0.0571146 0.529412 0.54902 0.54902 3
0.00194572 0.0101753 -0.0783057 0.00784314 0.239216 0.823529 4
-0.0704795 0.0299996 0.0530033 0.529412 0.54902 0.54902 2
-0.0319278 0.00711102 0.0504275 0.529412 0.54902 0.54902 2
-0.00217287 -0.00314958 -0.00087655 0.00784314 0.239216 0.823529 4
-0.0726452 0.0307058 0.0414237 0.529412 0.54902 0.54902 2
-0.0613744 0.0155033 0.0499498 0.529412 0.54902 0.54902 2
-0.0900621 0.0232022 -0.0723466 0.529412 0.54902 0.54902 3
-0.0889143 0.0228742 0.0332814 0.529412 0.54902 0.54902 3
0.00394238 0.00383434 0.0499498 0.529412 0.54902 0.54902 2
-0.0784511 0.0271646 -0.102914 0.529412 0.54902 0.54902 3
-0.00728201 -0.00692563 0.0653316 0.298039 0.298039 0.298039 0
-0.000592437 0.00809374 -0.00296555 0.00784314 0.239216 0.823529 4
-0.0782273 0.0198205 -0.0211668 0.529412 0.54902 0.54902 3
0.00214562 -0.00417262 0.0614583 0.298039 0.298039 0.298039 0
-0.00376803 -0.0114472 0.0665375 0.298039 0.298039 0.298039 0
-0.00834071 -0.00237462 0.0900611 0.529412 0.54902 0.54902 3
0.0082522 0.000109818 -0.0704094 0.00784314 0.239216 0.823529 4
-0.0494095 0.0188663 0.100119 0.529412 0.54902 0.54902 3
-0.00977052 -0.00172669 -0.0154918 0.00784314 0.239216 0.823529 4
-0.0759579 0.0249589 0.00641656 0.529412 0.54902 0.54902 3
-0.089382 0.0230078 -0.0367581 0.529412 0.54902 0.54902 3
-0.0866097 0.0289243 -0.090055 0.529412 0.54902 0.54902 3
-0.0902327 0.0295981 -0.104574 0.529412 0.54902 0.54902 3
-0.0343112 0.00883207 0.0444845 0.529412 0.54902 0.54902 2
-0.0737043 0.0137197 0.0477328 0.529412 0.54902 0.54902 2
-0.0942985 0.0233917 0.0482019 0.529412 0.54902 0.54902 2
-0.0883621 0.0299966 0.00964633 0.529412 0.54902 0.54902 3
-0.0762661 0.0238803 -0.017107 0.529412 0.54902 0.54902 3
-0.0734192 0.0211821 0.0769782 0.529412 0.54902 0.54902 3
-0.0252791 0.0114514 0.0509436 0.529412 0.54902 0.54902 2
-0.00902136 0.00902578 -0.0299431 0.00784314 0.239216 0.823529 4
0.00774716 -0.0037832 -0.0383658 0.00784314 0.239216 0.823529 4
0.00215659 0.00214143 0.0387007 0.898039 0.898039 0.898039 5
-0.00293438 0.00510583 0.0220002 0.898039 0.898039 0.898039 6
0.00180902 0.00328189 0.0563825 0.298039 0.298039 0.298039 0
-0.0860244 0.0230885 -0.0556842 0.529412 0.54902 0.54902 3
-0.0786815 0.0199503 -0.064265 0.529412 0.54902 0.54902 3
-0.0367591 0.00901116 0.092057 0.529412 0.54902 0.54902 3
-0.0762694 0.0192611 0.0910867 0.529412 0.54902 0.54902 3
-0.0337954 0.00764469 0.0495392 0.529412 0.54902 0.54902 2
0.00290297 0.0023191 0.0011766 0.329412 0.458824 0.768627 4
-0.0790527 0.0200564 -0.00899378 0.529412 0.54902 0.54902 3
-0.0780758 0.0270574 0.030809 0.529412 0.54902 0.54902 3
-0.00476698 0.00288183 0.0336921 0.898039 0.898039 0.898039 5
-0.0269174 0.0108795 0.0412969 0.529412 0.54902 0.54902 2
-0.0111213 0.00779485 -0.0689576 0.00784314 0.239216 0.823529 4
-0.0648204 0.0251582 0.0517562 0.529412 0.54902 0.54902 2
-0.0048438 -0.00899696 -0.0798196 0.00784314 0.239216 0.823529 4
0.00805802 -0.00529373 -0.0504225 0.00784314 0.239216 0.823529 4
-0.0904086 0.0289824 -0.0918801 0.529412 0.54902 0.54902 3
-0.00916251 0.00109868 0.063851 0.298039 0.298039 0.298039 0
-0.0813081 0.0211249 0.021593 0.529412 0.54902 0.54902 3
-0.0855395 0.02815 -0.0950116 0.529412 0.54902 0.54902 3
-0.0397304 0.00882052 0.100139 0.529412 0.54902 0.54902 3
-0.00433318 -0.00323402 0.00942652 0.329412 0.458824 0.768627 4
0.00920273 0.00177995 0.0900611 0.529412 0.54902 0.54902 3
-0.019096 0.00584136 0.0870611 0.529412 0.54902 0.54902 3
