ply
format ascii 1.0
comment Created by Open3D
element vertex 662
property float32 x
property float32 y
property float32 z
property float32 red
property float32 green
property float32 blue
property float32 volume
property uint8 segmentation
end_header
-0.0739995 0.0181107 0.023507 0.735683 0.215906 0.330245 1.31686e-07 2
-0.0827808 0.0179861 0.0299902 0.735683 0.215906 0.330245 5.54425e-06 2
-0.0882461 0.019656 0.0237994 0.735683 0.215906 0.330245 5.87972e-06 2
-0.0778467 0.0293999 0.0235082 0.735683 0.215906 0.330245 2.22717e-06 2
-0.0759204 0.0197179 0.0229264 0.735683 0.215906 0.330245 1.54122e-07 2
-0.0751149 0.0196733 0.0266947 0.735683 0.215906 0.330245 1.71238e-06 2
-0.0911792 0.0215855 0.0226637 0.735683 0.215906 0.330245 6.69159e-06 2
-0.0775012 0.0205637 0.0212442 0.735683 0.215906 0.330245 2.50233e-06 2
-0.074522 0.0246173 0.0230786 0.735683 0.215906 0.330245 1.8867e-06 2
-0.0819673 0.028448 0.0196442 0.735683 0.215906 0.330245 8.73078e-06 2
-0.0771755 0.0245786 -0.0271578 0.735683 0.215906 0.330245 6.79198e-06 2
-0.0791749 0.0218306 -0.0260743 0.735683 0.215906 0.330245 6.54087e-06 2
-0.0848574 0.0187251 -0.0266161 0.735683 0.215906 0.330245 3.57251e-06 2
-0.0868792 0.019179 -0.0335154 0.735683 0.215906 0.330245 4.42033e-06 2
-0.0942532 0.0246395 -0.0425234 0.735683 0.215906 0.330245 5.67912e-06 2
-0.082231 0.0178894 -0.0283432 0.735683 0.215906 0.330245 3.89918e-06 2
-0.0900758 0.0186205 -0.0379758 0.735683 0.215906 0.330245 7.38046e-07 2
-0.0836688 0.0294628 -0.0429961 0.735683 0.215906 0.330245 4.47594e-05 2
-0.0892592 0.0293168 -0.0445502 0.735683 0.215906 0.330245 2.17853e-05 2
-0.0739567 0.0289267 -0.025842 0.735683 0.215906 0.330245 3.93782e-06 2
-0.0897418 0.025215 -0.0420372 0.735683 0.215906 0.330245 7.23297e-06 2
-0.0817469 0.0241034 -0.0494337 0.735683 0.215906 0.330245 1.53451e-05 2
-0.0741614 0.0257561 -0.02368 0.735683 0.215906 0.330245 1.05417e-05 2
-0.0934788 0.022874 -0.0459849 0.735683 0.215906 0.330245 1.78311e-06 2
-0.0890193 0.0252372 -0.0479824 0.735683 0.215906 0.330245 1.12085e-05 2
-0.0945299 0.0230226 -0.0397339 0.735683 0.215906 0.330245 2.83956e-06 2
-0.0833597 0.0184014 -0.0384704 0.735683 0.215906 0.330245 1.71903e-06 2
-0.0875745 0.0241793 -0.035864 0.735683 0.215906 0.330245 1.63133e-05 2
-0.0900126 0.0215659 -0.046703 0.735683 0.215906 0.330245 3.2988e-06 2
-0.0769708 0.0277492 -0.0293197 0.735683 0.215906 0.330245 6.6498e-06 2
-0.0905439 0.0214825 -0.0450385 0.735683 0.215906 0.330245 3.09167e-06 2
-0.0838466 0.0183229 -0.0349325 0.735683 0.215906 0.330245 5.56275e-06 2
-0.0884514 0.0199398 -0.0347931 0.735683 0.215906 0.330245 2.19678e-06 2
-0.0834911 0.0204218 -0.0208014 0.735683 0.215906 0.330245 8.20882e-06 2
-0.0814258 0.0298757 -0.0315002 0.735683 0.215906 0.330245 1.31169e-05 2
-0.0883547 0.0184097 -0.0403801 0.735683 0.215906 0.330245 7.66175e-07 2
-0.082527 0.0266804 -0.0373004 0.735683 0.215906 0.330245 2.78698e-05 2
-0.0871041 0.030053 -0.0296782 0.735683 0.215906 0.330245 1.42977e-05 2
-0.088486 0.0197282 -0.0299956 0.735683 0.215906 0.330245 2.18489e-06 2
-0.0936541 0.0223134 -0.0365272 0.735683 0.215906 0.330245 1.28569e-06 2
-0.0891989 0.02286 -0.0390468 0.735683 0.215906 0.330245 8.11981e-06 2
-0.0796409 0.0202649 -0.0376688 0.735683 0.215906 0.330245 1.0183e-05 2
-0.0900582 0.020489 -0.0312732 0.735683 0.215906 0.330245 1.31945e-06 2
-0.0822392 0.017908 -0.0323272 0.735683 0.215906 0.330245 3.89918e-06 2
-0.0905562 0.0187146 -0.047463 0.735683 0.215906 0.330245 2.69545e-07 2
-0.0794751 0.0296816 -0.0348299 0.735683 0.215906 0.330245 1.04606e-05 2
-0.0888378 0.0185761 -0.0460334 0.735683 0.215906 0.330245 5.35528e-07 2
-0.0857401 0.0218927 -0.0487783 0.735683 0.215906 0.330245 6.72782e-06 2
-0.0924542 0.0274584 -0.0398697 0.735683 0.215906 0.330245 1.24496e-05 2
-0.0803188 0.0233586 -0.0225227 0.735683 0.215906 0.330245 1.49227e-05 2
-0.0833329 0.0221811 -0.0260004 0.735683 0.215906 0.330245 9.50912e-06 2
-0.0867303 0.019729 -0.0371974 0.735683 0.215906 0.330245 1.61227e-06 2
-0.078897 0.0177986 -0.0272487 0.735683 0.215906 0.330245 4.73337e-06 2
-0.0765038 0.0209921 -0.0347649 0.735683 0.215906 0.330245 9.57316e-06 2
-0.0770796 0.0191897 -0.0293159 0.735683 0.215906 0.330245 5.93305e-06 2
-0.0748713 0.0250989 -0.0305694 0.735683 0.215906 0.330245 5.49328e-06 2
-0.0749121 0.0270948 -0.0353617 0.735683 0.215906 0.330245 5.41916e-06 2
-0.0759652 0.0171775 -0.0314509 0.735683 0.215906 0.330245 1.5767e-06 2
-0.077964 0.0240936 -0.0378322 0.735683 0.215906 0.330245 1.2646e-05 2
-0.0837731 0.0244632 -0.021619 0.735683 0.215906 0.330245 1.19217e-05 2
-0.0747634 0.0246386 -0.0332816 0.735683 0.215906 0.330245 6.57627e-06 2
-0.083535 0.0284653 -0.0204592 0.735683 0.215906 0.330245 2.40515e-05 2
-0.0786152 0.0187137 -0.0329611 0.735683 0.215906 0.330245 6.79678e-06 2
-0.0740023 0.0198517 -0.0394978 0.735683 0.215906 0.330245 3.69129e-06 2
-0.0716414 0.0253558 -0.0325162 0.735683 0.215906 0.330245 1.13464e-06 2
-0.0750761 0.0219283 -0.0284074 0.735683 0.215906 0.330245 6.40887e-06 2
-0.0745822 0.0180586 -0.0360408 0.735683 0.215906 0.330245 3.69129e-06 2
-0.0761608 0.0230082 -0.0225966 0.735683 0.215906 0.330245 1.07139e-05 2
-0.0936435 0.0305327 -0.0375341 0.735683 0.215906 0.330245 2.32859e-06 2
-0.095234 0.02546 -0.0263171 0.735683 0.215906 0.330245 5.92179e-07 2
-0.0919184 0.0240586 -0.0317874 0.735683 0.215906 0.330245 3.89491e-06 2
-0.0931797 0.0264175 -0.0128938 0.735683 0.215906 0.330245 1.18527e-05 2
-0.09239 0.0274333 -0.0296476 0.735683 0.215906 0.330245 5.20889e-06 2
-0.0949648 0.0236989 -0.0159962 0.735683 0.215906 0.330245 4.34979e-06 2
-0.0924759 0.0264982 -0.0317726 0.735683 0.215906 0.330245 2.58643e-06 2
-0.0937368 0.0299796 -0.0209371 0.735683 0.215906 0.330245 4.15834e-06 2
-0.0946948 0.0229492 -0.0298522 0.735683 0.215906 0.330245 1.94234e-07 2
-0.0919173 0.024174 -0.0214413 0.735683 0.215906 0.330245 4.55101e-06 2
-0.0893892 0.0268292 -0.0249665 0.735683 0.215906 0.330245 1.23348e-05 2
-0.0900297 0.0208429 -0.0275687 0.735683 0.215906 0.330245 1.19912e-06 2
-0.092409 0.0269119 -0.0230236 0.735683 0.215906 0.330245 5.28186e-06 2
-0.0916469 0.0228811 -0.0302922 0.735683 0.215906 0.330245 1.94745e-06 2
-0.0949662 0.0241268 -0.0313474 0.735683 0.215906 0.330245 3.88467e-07 2
-0.0930494 0.0209255 -0.0256258 0.735683 0.215906 0.330245 4.12568e-07 2
-0.0927432 0.0203003 -0.0234137 0.735683 0.215906 0.330245 7.55447e-07 2
-0.0907575 0.023712 -0.0271699 0.735683 0.215906 0.330245 5.71641e-06 2
-0.0937773 0.0237946 -0.025227 0.735683 0.215906 0.330245 2.49605e-06 2
-0.0908443 0.0288622 -0.0336817 0.735683 0.215906 0.330245 2.03702e-06 2
-0.0914599 0.0299603 -0.0162524 0.735683 0.215906 0.330245 7.39939e-06 2
-0.088057 0.026102 -0.0223529 0.735683 0.215906 0.330245 2.91957e-06 2
-0.0870408 0.0300256 -0.0255192 0.735683 0.215906 0.330245 5.33012e-06 2
-0.0880757 0.0196984 -0.0276936 0.735683 0.215906 0.330245 1.45304e-06 2
-0.0954583 0.0237164 -0.0270474 0.735683 0.215906 0.330245 1.94234e-07 2
-0.0857252 0.0270282 -0.0251054 0.735683 0.215906 0.330245 5.31309e-06 2
-0.090778 0.0213441 -0.0300148 0.735683 0.215906 0.330245 2.11678e-06 2
-0.0883738 0.0328693 -0.0269343 0.735683 0.215906 0.330245 9.27618e-06 2
-0.09205 0.0327407 -0.0242951 0.735683 0.215906 0.330245 4.98263e-07 2
-0.0922142 0.0253773 -0.0282599 0.735683 0.215906 0.330245 1.24931e-06 2
-0.0902868 0.0264227 -0.0336965 0.735683 0.215906 0.330245 3.09577e-06 2
-0.093245 0.0272418 -0.0193549 0.735683 0.215906 0.330245 4.76407e-06 2
-0.0950775 0.0237008 -0.0329044 0.735683 0.215906 0.330245 7.76935e-07 2
-0.0919113 0.0251034 -0.0368793 0.735683 0.215906 0.330245 5.63689e-06 2
-0.0907584 0.0297973 -0.0315567 0.735683 0.215906 0.330245 7.5585e-06 2
-0.0798893 0.0171936 -0.0451032 0.735683 0.215906 0.330245 2.6266e-06 2
-0.074876 0.0209131 -0.062921 0.735683 0.215906 0.330245 2.75479e-06 2
-0.0937245 0.0296501 -0.0549874 0.735683 0.215906 0.330245 6.96327e-06 2
-0.0935227 0.0274831 -0.0625568 0.735683 0.215906 0.330245 1.17177e-06 2
-0.0771394 0.0191245 -0.0424018 0.735683 0.215906 0.330245 8.44859e-06 2
-0.0723653 0.0252949 -0.0449457 0.735683 0.215906 0.330245 3.47001e-06 2
-0.087549 0.0219913 -0.0572759 0.735683 0.215906 0.330245 2.36307e-05 2
-0.0741677 0.0214326 -0.0559174 0.735683 0.215906 0.330245 7.00488e-06 2
-0.074975 0.0183825 -0.059239 0.735683 0.215906 0.330245 6.07391e-06 2
-0.0921177 0.0200308 -0.0512347 0.735683 0.215906 0.330245 5.54637e-07 2
-0.0754625 0.0229532 -0.0425651 0.735683 0.215906 0.330245 1.04975e-05 2
-0.0794357 0.027594 -0.0470839 0.735683 0.215906 0.330245 3.68361e-05 2
-0.0757924 0.0236711 -0.0461211 0.735683 0.215906 0.330245 1.23051e-05 2
-0.093682 0.0306842 -0.0649354 0.735683 0.215906 0.330245 1.07505e-06 2
-0.0767493 0.0195663 -0.0515229 0.735683 0.215906 0.330245 4.45296e-06 2
-0.0928001 0.026223 -0.0660285 0.735683 0.215906 0.330245 4.74669e-06 2
-0.0958183 0.0228917 -0.0617959 0.735683 0.215906 0.330245 2.65369e-07 2
-0.0781036 0.0201806 -0.048471 0.735683 0.215906 0.330245 4.45296e-06 2
-0.0919408 0.0279878 -0.0589045 0.735683 0.215906 0.330245 5.88162e-06 2
-0.0954752 0.0246418 -0.0614542 0.735683 0.215906 0.330245 1.02253e-06 2
-0.0803438 0.0194707 -0.0516373 0.735683 0.215906 0.330245 5.6383e-06 2
-0.0740687 0.0239632 -0.0595994 0.735683 0.215906 0.330245 7.14337e-06 2
-0.0950403 0.0241902 -0.0497566 0.735683 0.215906 0.330245 3.66906e-06 2
-0.0930501 0.026948 -0.0513835 0.735683 0.215906 0.330245 1.17452e-05 2
-0.0936086 0.0270185 -0.061229 0.735683 0.215906 0.330245 2.75762e-06 2
-0.0925743 0.0199028 -0.0545511 0.735683 0.215906 0.330245 1.91468e-06 2
-0.0785349 0.0165793 -0.0481551 0.735683 0.215906 0.330245 2.6266e-06 2
-0.0939695 0.0292934 -0.0640545 0.735683 0.215906 0.330245 1.21287e-06 2
-0.0918006 0.0239136 -0.0556948 0.735683 0.215906 0.330245 8.22391e-06 2
-0.0909573 0.0257152 -0.0492764 0.735683 0.215906 0.330245 2.16763e-06 2
-0.089848 0.026755 -0.0567974 0.735683 0.215906 0.330245 8.53991e-06 2
-0.091344 0.0240416 -0.0523784 0.735683 0.215906 0.330245 7.77328e-06 2
-0.092176 0.0317521 -0.0667854 0.735683 0.215906 0.330245 1.65996e-06 2
-0.0910038 0.0286426 -0.0676165 0.735683 0.215906 0.330245 7.80879e-06 2
-0.0915483 0.0298617 -0.111708 0.735683 0.215906 0.330245 2.92174e-06 2
-0.0915291 0.0322446 -0.114008 0.735683 0.215906 0.330245 3.74685e-06 2
-0.0891763 0.031185 -0.109178 0.735683 0.215906 0.330245 1.99196e-06 2
-0.0891571 0.033568 -0.111477 0.735683 0.215906 0.330245 4.61988e-07 2
-0.0886193 0.030633 -0.111955 0.735683 0.215906 0.330245 6.93762e-06 2
-0.0920292 0.0260039 -0.117648 0.735683 0.215906 0.330245 3.58129e-06 2
-0.0905184 0.0290774 -0.117484 0.735683 0.215906 0.330245 8.89402e-06 2
-0.0897247 0.0256453 -0.117714 0.735683 0.215906 0.330245 5.34482e-06 2
-0.0816858 0.0273911 -0.121019 0.735683 0.215906 0.330245 3.4814e-06 2
-0.0921171 0.0297538 -0.114022 0.735683 0.215906 0.330245 4.84127e-06 2
-0.0858768 0.0247347 -0.121106 0.735683 0.215906 0.330245 7.51502e-06 2
-0.0886002 0.033016 -0.114255 0.735683 0.215906 0.330245 6.01363e-07 2
-0.089047 0.0232914 -0.113825 0.735683 0.215906 0.330245 1.4456e-05 2
-0.0853553 0.0211215 -0.115921 0.735683 0.215906 0.330245 1.8539e-05 2
-0.0749883 0.0285216 -0.0915332 0.735683 0.215906 0.330245 2.79008e-06 2
-0.0950747 0.0253567 -0.0789623 0.735683 0.215906 0.330245 1.73587e-06 2
-0.0921223 0.0269387 -0.0890285 0.735683 0.215906 0.330245 1.8314e-06 2
-0.0949946 0.0262856 -0.0762867 0.735683 0.215906 0.330245 1.51814e-06 2
-0.080078 0.0169759 -0.0863215 0.735683 0.215906 0.330245 3.49784e-06 2
-0.0753812 0.0257539 -0.109471 0.735683 0.215906 0.330245 2.02987e-05 2
-0.0722528 0.0235328 -0.105921 0.735683 0.215906 0.330245 5.47709e-06 2
-0.0816676 0.0250617 -0.117458 0.735683 0.215906 0.330245 4.47056e-06 2
-0.0759277 0.0218817 -0.119494 0.735683 0.215906 0.330245 4.0477e-06 2
-0.0906566 0.0309744 -0.082198 0.735683 0.215906 0.330245 5.28388e-06 2
-0.0741971 0.021811 -0.102212 0.735683 0.215906 0.330245 7.15755e-06 2
-0.0724839 0.0218706 -0.0884978 0.735683 0.215906 0.330245 9.26113e-07 2
-0.0950626 0.0241624 -0.0749908 0.735683 0.215906 0.330245 8.60295e-08 2
-0.0720107 0.0233077 -0.0910234 0.735683 0.215906 0.330245 1.24397e-06 2
-0.0941158 0.0300488 -0.0850742 0.735683 0.215906 0.330245 3.49647e-06 2
-0.078443 0.0198796 -0.0856095 0.735683 0.215906 0.330245 8.03642e-06 2
-0.0944075 0.0286324 -0.0876331 0.735683 0.215906 0.330245 1.52441e-06 2
-0.0774566 0.0219902 -0.0974835 0.735683 0.215906 0.330245 1.32922e-05 2
-0.0792582 0.0263334 -0.0988404 0.735683 0.215906 0.330245 8.72191e-06 2
-0.0915443 0.0275171 -0.0800349 0.735683 0.215906 0.330245 6.21071e-06 2
-0.0913389 0.0283202 -0.0896271 0.735683 0.215906 0.330245 5.96841e-06 2
-0.0769752 0.0224141 -0.0896399 0.735683 0.215906 0.330245 5.96292e-06 2
-0.0744284 0.0196179 -0.0893211 0.735683 0.215906 0.330245 3.83491e-06 2
-0.0757836 0.0249012 -0.0933423 0.735683 0.215906 0.330245 1.35247e-05 2
-0.0756599 0.028943 -0.112891 0.735683 0.215906 0.330245 1.18129e-05 2
-0.0745641 0.0214863 -0.0851361 0.735683 0.215906 0.330245 8.13127e-07 2
-0.0751317 0.0181828 -0.10007 0.735683 0.215906 0.330245 3.57303e-06 2
-0.0951427 0.0232334 -0.0776664 0.735683 0.215906 0.330245 1.53487e-07 2
-0.073466 0.0212402 -0.0930959 0.735683 0.215906 0.330245 2.45017e-06 2
-0.0794212 0.0238912 -0.0916311 0.735683 0.215906 0.330245 5.5316e-06 2
-0.0778695 0.0195442 -0.0879384 0.735683 0.215906 0.330245 3.40508e-06 2
-0.0735871 0.0189097 -0.0976737 0.735683 0.215906 0.330245 2.49871e-06 2
-0.0751995 0.0294314 -0.0956365 0.735683 0.215906 0.330245 7.7493e-06 2
-0.0921493 0.0257921 -0.0869528 0.735683 0.215906 0.330245 1.2107e-05 2
-0.0754409 0.0189838 -0.0914665 0.735683 0.215906 0.330245 1.81991e-06 2
-0.0804266 0.0160288 -0.0990794 0.735683 0.215906 0.330245 1.50976e-06 2
-0.0823408 0.0247185 -0.0838782 0.735683 0.215906 0.330245 9.92694e-06 2
-0.0777963 0.0301541 -0.0988026 0.735683 0.215906 0.330245 3.65346e-06 2
-0.084399 0.0294081 -0.0850658 0.735683 0.215906 0.330245 1.16451e-05 2
-0.088591 0.0275977 -0.0841143 0.735683 0.215906 0.330245 1.43298e-05 2
-0.078611 0.0226161 -0.110584 0.735683 0.215906 0.330245 2.57188e-05 2
-0.0775344 0.0181239 -0.112344 0.735683 0.215906 0.330245 1.15354e-05 2
-0.0813382 0.0202872 -0.0936712 0.735683 0.215906 0.330245 7.92379e-06 2
-0.0853531 0.0283397 -0.0909235 0.735683 0.215906 0.330245 1.28474e-05 2
-0.0928724 0.0241757 -0.0909531 0.735683 0.215906 0.330245 7.93953e-07 2
-0.0878563 0.0341921 -0.101513 0.735683 0.215906 0.330245 7.13245e-08 2
-0.0863172 0.0215356 -0.0926254 0.735683 0.215906 0.330245 2.6927e-06 2
-0.087061 0.0329692 -0.0959578 0.735683 0.215906 0.330245 1.73805e-06 2
-0.087891 0.0248774 -0.0938666 0.735683 0.215906 0.330245 3.83354e-06 2
-0.0834699 0.0216902 -0.119651 0.735683 0.215906 0.330245 8.91362e-06 2
-0.0823332 0.0165822 -0.0968965 0.735683 0.215906 0.330245 1.03576e-06 2
-0.0789874 0.0246446 -0.117534 0.735683 0.215906 0.330245 9.17353e-06 2
-0.0771606 0.0251147 -0.116438 0.735683 0.215906 0.330245 7.13602e-06 2
-0.0782149 0.0284828 -0.106438 0.735683 0.215906 0.330245 4.94096e-06 2
-0.0883804 0.0334658 -0.0922103 0.735683 0.215906 0.330245 3.18285e-06 2
-0.0903381 0.0339459 -0.0922249 0.735683 0.215906 0.330245 5.44036e-07 2
-0.0891997 0.0320451 -0.101278 0.735683 0.215906 0.330245 1.60723e-06 2
-0.0871739 0.028984 -0.0885028 0.735683 0.215906 0.330245 1.35603e-05 2
-0.0917237 0.0295906 -0.104719 0.735683 0.215906 0.330245 4.04677e-06 2
-0.0802018 0.0220281 -0.113657 0.735683 0.215906 0.330245 1.11906e-05 2
-0.0921664 0.027734 -0.0988109 0.735683 0.215906 0.330245 8.67504e-06 2
-0.0803555 0.0288388 -0.117804 0.735683 0.215906 0.330245 9.02493e-06 2
-0.0911756 0.0193669 -0.0904679 0.735683 0.215906 0.330245 4.87851e-07 2
-0.0817389 0.0205572 -0.101686 0.735683 0.215906 0.330245 7.94241e-06 2
-0.0911361 0.0223571 -0.0912134 0.735683 0.215906 0.330245 2.78851e-06 2
-0.0930907 0.0228032 -0.0940559 0.735683 0.215906 0.330245 5.98869e-06 2
-0.0814447 0.0253451 -0.107551 0.735683 0.215906 0.330245 8.48656e-06 2
-0.0877041 0.0340084 -0.104664 0.735683 0.215906 0.330245 1.37224e-07 2
-0.0770234 0.0257661 -0.100952 0.735683 0.215906 0.330245 1.55612e-05 2
-0.0889508 0.0333049 -0.0983777 0.735683 0.215906 0.330245 2.92992e-07 2
-0.0860505 0.0327187 -0.090132 0.735683 0.215906 0.330245 4.80905e-06 2
-0.0954493 0.0282061 -0.0943354 0.735683 0.215906 0.330245 9.841e-07 2
-0.0931302 0.019813 -0.0933103 0.735683 0.215906 0.330245 1.04772e-06 2
-0.0942117 0.0286853 -0.106299 0.735683 0.215906 0.330245 3.33354e-06 2
-0.0929988 0.0259015 -0.0910613 0.735683 0.215906 0.330245 1.0001e-06 2
-0.0909269 0.0314059 -0.107702 0.735683 0.215906 0.330245 1.94664e-06 2
-0.0884719 0.0334225 -0.0971633 0.735683 0.215906 0.330245 9.11804e-07 2
-0.094827 0.0246218 -0.0937955 0.735683 0.215906 0.330245 1.47913e-06 2
-0.0869231 0.0309826 -0.108454 0.735683 0.215906 0.330245 2.15259e-06 2
-0.0777862 0.0267949 -0.0909192 0.735683 0.215906 0.330245 7.41515e-06 2
-0.0909691 0.0215888 -0.09508 0.735683 0.215906 0.330245 4.01146e-06 2
-0.090087 0.0322275 -0.103157 0.735683 0.215906 0.330245 4.86601e-07 2
-0.0930075 0.0303806 -0.108203 0.735683 0.215906 0.330245 1.20049e-06 2
-0.0831554 0.0248154 -0.104541 0.735683 0.215906 0.330245 8.20076e-06 2
-0.0893407 0.0313714 -0.106226 0.735683 0.215906 0.330245 2.22645e-06 2
-0.0769908 0.0304152 -0.0891101 0.735683 0.215906 0.330245 1.52971e-06 2
-0.0837618 0.0207479 -0.0920722 0.735683 0.215906 0.330245 8.47564e-06 2
-0.0836455 0.0211106 -0.0995027 0.735683 0.215906 0.330245 2.0765e-05 2
-0.0793988 0.0228749 -0.0880408 0.735683 0.215906 0.330245 1.83208e-06 2
-0.0807439 0.0242622 -0.0984603 0.735683 0.215906 0.330245 5.90941e-07 2
-0.089996 0.0336737 -0.097056 0.735683 0.215906 0.330245 4.02365e-07 2
-0.0951458 0.0258119 -0.0964975 0.735683 0.215906 0.330245 3.56472e-06 2
-0.0873639 0.0311165 -0.106627 0.735683 0.215906 0.330245 2.041e-06 2
-0.0911137 0.0314215 -0.0988172 0.735683 0.215906 0.330245 3.7134e-06 2
-0.0913291 0.0323957 -0.102304 0.735683 0.215906 0.330245 9.81344e-07 2
-0.0897261 0.0253295 -0.0971329 0.735683 0.215906 0.330245 1.38876e-05 2
-0.0870368 0.0339285 -0.100839 0.735683 0.215906 0.330245 1.20668e-07 2
-0.0902524 0.0283576 -0.101272 0.735683 0.215906 0.330245 2.86382e-06 2
-0.0818448 0.0243519 -0.0900321 0.735683 0.215906 0.330245 1.1545e-05 2
-0.0878809 0.0249774 -0.0922705 0.735683 0.215906 0.330245 5.63735e-06 2
-0.0799256 0.0279532 -0.103428 0.735683 0.215906 0.330245 1.04293e-05 2
-0.0905427 0.0337005 -0.0958652 0.735683 0.215906 0.330245 2.6918e-07 2
-0.086648 0.0286181 -0.0959196 0.735683 0.215906 0.330245 9.08601e-06 2
-0.0900193 0.0323088 -0.101953 0.735683 0.215906 0.330245 6.21986e-07 2
-0.0880237 0.0220174 -0.100746 0.735683 0.215906 0.330245 1.72885e-05 2
-0.0876735 0.0260828 -0.102852 0.735683 0.215906 0.330245 5.5564e-06 2
-0.0872447 0.0266628 -0.111631 0.735683 0.215906 0.330245 1.14045e-05 2
-0.0867271 0.0269269 -0.108528 0.735683 0.215906 0.330245 5.82969e-06 2
-0.0788673 0.0246811 -0.105763 0.735683 0.215906 0.330245 2.426e-06 2
-0.087168 0.0270609 -0.106701 0.735683 0.215906 0.330245 5.02722e-06 2
-0.083553 0.024493 -0.113728 0.735683 0.215906 0.330245 1.10687e-05 2
-0.090746 0.024505 -0.10317 0.735683 0.215906 0.330245 8.16734e-06 2
-0.0906255 0.0255679 -0.10552 0.735683 0.215906 0.330245 1.01444e-05 2
-0.077978 0.0202303 -0.105087 0.735683 0.215906 0.330245 5.82597e-06 2
-0.0794786 0.016402 -0.108635 0.735683 0.215906 0.330245 4.78236e-06 2
-0.0910945 0.0202099 -0.111183 0.735683 0.215906 0.330245 3.03034e-06 2
-0.0920278 0.0201961 -0.106303 0.735683 0.215906 0.330245 2.23973e-06 2
-0.0929202 0.0220486 -0.10466 0.735683 0.215906 0.330245 3.99616e-06 2
-0.0847118 0.0294342 -0.104464 0.735683 0.215906 0.330245 1.85497e-06 2
-0.0804192 0.0241005 -0.105326 0.735683 0.215906 0.330245 3.35178e-06 2
-0.0826505 0.0248155 -0.0962774 0.735683 0.215906 0.330245 8.43451e-06 2
-0.0838554 0.0246175 -0.0608435 0.735683 0.215906 0.330245 2.10787e-05 2
-0.0934664 0.0222665 -0.0719283 0.735683 0.215906 0.330245 1.99826e-06 2
-0.0941647 0.0235451 -0.0696053 0.735683 0.215906 0.330245 1.04552e-06 2
-0.0800557 0.0172392 -0.0731454 0.735683 0.215906 0.330245 8.50823e-06 2
-0.0932838 0.0290111 -0.0767304 0.735683 0.215906 0.330245 5.40841e-06 2
-0.0775997 0.0191491 -0.0696592 0.735683 0.215906 0.330245 1.48497e-05 2
-0.0860991 0.0257907 -0.0552389 0.735683 0.215906 0.330245 1.41612e-05 2
-0.0923532 0.0244128 -0.0645308 0.735683 0.215906 0.330245 7.01539e-06 2
-0.0858326 0.0221361 -0.0813675 0.735683 0.215906 0.330245 1.86461e-05 2
-0.0798045 0.0210604 -0.0752291 0.735683 0.215906 0.330245 1.42821e-05 2
-0.0742836 0.0208319 -0.0826898 0.735683 0.215906 0.330245 4.16866e-06 2
-0.0938573 0.0209808 -0.0659528 0.735683 0.215906 0.330245 1.33268e-06 2
-0.0819657 0.0239272 -0.0526847 0.735683 0.215906 0.330245 1.45349e-05 2
-0.0927309 0.02702 -0.0699965 0.735683 0.215906 0.330245 5.07036e-06 2
-0.0937587 0.0313878 -0.075483 0.735683 0.215906 0.330245 1.25314e-06 2
-0.0956535 0.0249127 -0.068978 0.735683 0.215906 0.330245 2.79167e-07 2
-0.0928397 0.0209188 -0.0881694 0.735683 0.215906 0.330245 1.33074e-06 2
-0.0939032 0.0301294 -0.0691654 0.735683 0.215906 0.330245 1.10519e-06 2
-0.0879184 0.01852 -0.0790493 0.735683 0.215906 0.330245 3.128e-06 2
-0.08899 0.0336117 -0.0807688 0.735683 0.215906 0.330245 3.473e-06 2
-0.0956996 0.0243179 -0.0709874 0.735683 0.215906 0.330245 6.2552e-07 2
-0.0958167 0.0241113 -0.0658183 0.735683 0.215906 0.330245 1.27971e-07 2
-0.0943041 0.022791 -0.0674505 0.735683 0.215906 0.330245 8.21476e-07 2
-0.0908926 0.0191822 -0.0815241 0.735683 0.215906 0.330245 3.05945e-06 2
-0.082033 0.0245171 -0.0762082 0.735683 0.215906 0.330245 2.10303e-05 2
-0.0799723 0.0232102 -0.0857119 0.735683 0.215906 0.330245 1.0537e-05 2
-0.0867173 0.0222859 -0.0768535 0.735683 0.215906 0.330245 1.39563e-05 2
-0.0954597 0.0240539 -0.0729165 0.735683 0.215906 0.330245 3.1276e-07 2
-0.0935837 0.0225275 -0.0883164 0.735683 0.215906 0.330245 2.04076e-06 2
-0.0782721 0.0265534 -0.0562523 0.735683 0.215906 0.330245 2.8986e-05 2
-0.0750149 0.0298333 -0.0838809 0.735683 0.215906 0.330245 2.32882e-06 2
-0.0921587 0.0308178 -0.059192 0.735683 0.215906 0.330245 3.69493e-06 2
-0.0766486 0.0172851 -0.0831466 0.735683 0.215906 0.330245 1.30712e-06 2
-0.0866528 0.0253415 -0.0646635 0.735683 0.215906 0.330245 2.36827e-05 2
-0.0920326 0.0257413 -0.0723195 0.735683 0.215906 0.330245 5.43585e-06 2
-0.0947153 0.0233701 -0.0732301 0.735683 0.215906 0.330245 9.99129e-07 2
-0.0826428 0.0242344 -0.0511588 0.735683 0.215906 0.330245 1.89965e-06 2
-0.0936799 0.0312275 -0.0702411 0.735683 0.215906 0.330245 6.57852e-07 2
-0.0795777 0.0194636 -0.0638724 0.735683 0.215906 0.330245 2.5712e-05 2
-0.0958457 0.0237601 -0.0669029 0.735683 0.215906 0.330245 2.19345e-07 2
-0.092293 0.0207261 -0.0846427 0.735683 0.215906 0.330245 3.05945e-06 2
-0.0898776 0.0301544 -0.0786057 0.735683 0.215906 0.330245 5.86305e-06 2
-0.0812187 0.0321439 -0.0635405 0.735683 0.215906 0.330245 1.40044e-06 2
-0.0784908 0.0263217 -0.0810698 0.735683 0.215906 0.330245 1.31994e-05 2
-0.0953698 0.0223011 -0.0643206 0.735683 0.215906 0.330245 2.90762e-07 2
-0.0824055 0.0284168 -0.0588066 0.735683 0.215906 0.330245 2.31078e-05 2
-0.0886265 0.0268847 -0.0741948 0.735683 0.215906 0.330245 1.2655e-05 2
-0.0894786 0.0241404 -0.0819512 0.735683 0.215906 0.330245 1.48991e-05 2
-0.0817873 0.0281471 -0.0696521 0.735683 0.215906 0.330245 2.6059e-05 2
-0.0922414 0.0322992 -0.0727615 0.735683 0.215906 0.330245 1.03492e-06 2
-0.0853647 0.0292395 -0.0668011 0.735683 0.215906 0.330245 1.94243e-05 2
-0.0813805 0.0322426 -0.067715 0.735683 0.215906 0.330245 1.07536e-06 2
-0.0883603 0.0310658 -0.0758841 0.735683 0.215906 0.330245 8.0976e-06 2
-0.0917664 0.0299225 -0.0740089 0.735683 0.215906 0.330245 4.65881e-06 2
-0.0839421 0.0291158 -0.0735494 0.735683 0.215906 0.330245 1.96478e-05 2
-0.0743839 0.028277 -0.0812825 0.735683 0.215906 0.330245 2.998e-06 2
-0.0726138 0.0244237 -0.0734484 0.735683 0.215906 0.330245 2.77916e-06 2
-0.0773485 0.0229702 -0.0717428 0.735683 0.215906 0.330245 1.82215e-05 2
-0.0842622 0.020522 -0.0627806 0.735683 0.215906 0.330245 2.42948e-05 2
-0.0776733 0.0216371 -0.066741 0.735683 0.215906 0.330245 6.05959e-06 2
-0.0747331 0.0195343 -0.0799883 0.735683 0.215906 0.330245 4.26363e-06 2
-0.0772983 0.0259705 -0.0779138 0.735683 0.215906 0.330245 6.17228e-06 2
-0.0761224 0.0248135 -0.0829035 0.735683 0.215906 0.330245 1.05464e-05 2
-0.0750698 0.0225138 -0.0769346 0.735683 0.215906 0.330245 3.39213e-06 2
-0.0774221 0.0254582 -0.0688246 0.735683 0.215906 0.330245 1.09983e-05 2
-0.0767524 0.0297852 -0.0794489 0.735683 0.215906 0.330245 3.62548e-06 2
-0.0741503 0.0229162 -0.0828741 0.735683 0.215906 0.330245 3.38517e-06 2
0.000460343 0.016923 0.0894587 0.978422 0.557937 0.034931 4.1673e-07 3
-0.00982136 0.00796028 0.0860619 0.978422 0.557937 0.034931 1.64015e-05 3
-0.0253439 0.000263065 0.0860223 0.978422 0.557937 0.034931 5.64554e-06 3
0.000470392 0.0106323 0.0863174 0.978422 0.557937 0.034931 7.00256e-06 3
-0.015522 0.00504165 0.0939738 0.978422 0.557937 0.034931 1.94421e-05 3
-0.00222537 0.0120086 0.0833756 0.978422 0.557937 0.034931 2.20768e-06 3
-0.00804863 0.0133819 0.0900172 0.978422 0.557937 0.034931 1.56676e-05 3
-0.0117813 0.0137694 0.0934529 0.978422 0.557937 0.034931 1.72238e-05 3
-0.0146942 0.012682 0.0906978 0.978422 0.557937 0.034931 1.8065e-05 3
0.00209074 0.0151623 0.0866715 0.978422 0.557937 0.034931 3.92699e-06 3
-0.0231365 -0.00265084 0.0885425 0.978422 0.557937 0.034931 3.80662e-06 3
-0.0237924 0.00155183 0.0852461 0.978422 0.557937 0.034931 4.83765e-06 3
-0.0215849 -0.00136208 0.0877663 0.978422 0.557937 0.034931 3.21722e-06 3
-0.0109615 0.0122946 0.0872621 0.978422 0.557937 0.034931 1.30589e-05 3
-0.0068387 0.0170855 0.0873879 0.978422 0.557937 0.034931 3.26509e-06 3
-0.0144748 0.00349557 0.0895379 0.978422 0.557937 0.034931 1.53627e-05 3
-0.00385576 0.0137693 0.0861628 0.978422 0.557937 0.034931 3.56106e-06 3
-0.0200339 0.0155738 0.0849997 0.978422 0.557937 0.034931 6.9188e-07 3
-0.0191043 0.016283 0.088392 0.978422 0.557937 0.034931 8.00382e-06 3
-0.0166215 0.00945527 0.0939531 0.978422 0.557937 0.034931 1.43912e-05 3
-0.00616858 0.0061608 0.0860289 0.978422 0.557937 0.034931 1.18558e-05 3
-0.00052531 0.0146694 0.0842801 0.978422 0.557937 0.034931 1.07919e-06 3
-0.0253291 0.00518757 0.0852391 0.978422 0.557937 0.034931 1.171e-05 3
-0.0196558 0.00801754 0.0869178 0.978422 0.557937 0.034931 2.1848e-05 3
-0.0123627 0.00454324 0.0860952 0.978422 0.557937 0.034931 1.55093e-05 3
-0.0230126 0.00503272 0.089626 0.978422 0.557937 0.034931 2.65603e-05 3
-0.00116001 0.0123929 0.0891046 0.978422 0.557937 0.034931 6.17472e-06 3
-0.00506569 0.0100658 0.0887921 0.978422 0.557937 0.034931 1.36709e-05 3
-0.0012487 0.0038734 0.0919697 0.978422 0.557937 0.034931 1.40379e-05 3
-0.00236993 0.00868941 0.0917339 0.978422 0.557937 0.034931 2.13558e-05 3
0.00631696 0.013693 0.090608 0.978422 0.557937 0.034931 3.05767e-06 3
0.00731577 0.00999696 0.0872923 0.978422 0.557937 0.034931 8.70403e-06 3
0.0131807 0.00729278 0.0893831 0.978422 0.557937 0.034931 8.49195e-06 3
0.0148819 -0.00269617 0.0909345 0.978422 0.557937 0.034931 4.20576e-06 3
0.0142802 0.00170684 0.0883497 0.978422 0.557937 0.034931 1.25809e-05 3
0.0119574 -0.00166579 0.0865705 0.978422 0.557937 0.034931 1.4237e-05 3
0.009652 0.00833071 0.0905792 0.978422 0.557937 0.034931 9.03587e-06 3
0.000134361 0.0148462 0.0915073 0.978422 0.557937 0.034931 4.06637e-06 3
0.00489515 0.00237693 0.0914624 0.978422 0.557937 0.034931 5.97452e-06 3
0.00774055 0.00376599 0.0917265 0.978422 0.557937 0.034931 1.22619e-05 3
0.0101375 -0.00447414 0.0897699 0.978422 0.557937 0.034931 9.19346e-06 3
0.00591311 0.0123659 0.0882062 0.978422 0.557937 0.034931 4.7989e-06 3
0.00176476 0.0130855 0.0887201 0.978422 0.557937 0.034931 5.53212e-06 3
0.00401314 0.0127708 0.0885662 0.978422 0.557937 0.034931 2.21907e-06 3
0.00894645 -0.000644573 0.0887512 0.978422 0.557937 0.034931 1.4957e-05 3
0.011262 -0.00475864 0.0923674 0.978422 0.557937 0.034931 8.18711e-06 3
0.00764175 0.0120738 0.0852436 0.978422 0.557937 0.034931 3.10582e-06 3
0.00412143 0.0079487 0.0852496 0.978422 0.557937 0.034931 6.23746e-06 3
0.00361226 0.00489339 0.0882725 0.978422 0.557937 0.034931 1.45502e-05 3
0.00352108 0.00179299 0.0885093 0.978422 0.557937 0.034931 3.44424e-06 3
0.0057197 -0.000104428 0.0854633 0.978422 0.557937 0.034931 2.63891e-05 3
0.00943768 -0.00844365 0.0876246 0.978422 0.557937 0.034931 5.05563e-06 3
0.000662331 -0.00837043 0.092882 0.978422 0.557937 0.034931 3.90068e-06 3
0.00712368 -0.0106196 0.0904817 0.978422 0.557937 0.034931 4.97489e-06 3
-0.0149 -0.00537749 0.0849348 0.978422 0.557937 0.034931 3.41994e-06 3
-0.0063459 -0.0117952 0.0891918 0.978422 0.557937 0.034931 5.17766e-06 3
0.00398541 -0.0105523 0.0924336 0.978422 0.557937 0.034931 7.26912e-06 3
0.00385368 -0.0077547 0.0897654 0.978422 0.557937 0.034931 5.97431e-06 3
-0.0191561 -0.00561956 0.0882876 0.978422 0.557937 0.034931 3.80662e-06 3
-0.0176046 -0.00433079 0.0875114 0.978422 0.557937 0.034931 3.21722e-06 3
-0.00681989 -0.00829524 0.0909469 0.978422 0.557937 0.034931 1.06495e-05 3
-0.0210927 -0.00143084 0.0911723 0.978422 0.557937 0.034931 7.01412e-06 3
-0.00805129 -0.00487108 0.0878773 0.978422 0.557937 0.034931 1.3632e-05 3
-0.0126648 0.000677899 0.0895298 0.978422 0.557937 0.034931 4.07167e-06 3
-0.0118309 -0.00201944 0.0919715 0.978422 0.557937 0.034931 1.35229e-05 3
-0.00749472 -0.00188279 0.0915277 0.978422 0.557937 0.034931 2.05674e-05 3
-0.000127319 -0.000827255 0.0853316 0.978422 0.557937 0.034931 1.90964e-05 3
-0.0164516 -0.00666626 0.085711 0.978422 0.557937 0.034931 4.13608e-06 3
-0.00293537 -0.00957036 0.0897293 0.978422 0.557937 0.034931 1.52947e-05 3
-0.00626332 -0.00530695 0.0945974 0.978422 0.557937 0.034931 5.4687e-06 3
-0.0122957 -0.00439859 0.084898 0.978422 0.557937 0.034931 8.35384e-06 3
-0.00244213 -0.00454365 0.0853688 0.978422 0.557937 0.034931 2.61613e-05 3
0.000255973 -0.00895463 0.0866127 0.978422 0.557937 0.034931 2.3324e-05 3
-0.0171123 -0.00439956 0.0909173 0.978422 0.557937 0.034931 7.01412e-06 3
-0.00446554 0.00227127 0.0890414 0.978422 0.557937 0.034931 1.03142e-05 3
0.00299834 -0.00232552 0.0884966 0.978422 0.557937 0.034931 4.22061e-06 3
-0.0139357 -0.00274806 0.0883284 0.978422 0.557937 0.034931 1.10821e-05 3
0.00599923 -0.0103351 0.0878842 0.978422 0.557937 0.034931 4.78287e-06 3
0.0105621 -0.00872814 0.0902222 0.978422 0.557937 0.034931 5.2586e-06 3
-0.0242038 0.00883719 0.0930284 0.978422 0.557937 0.034931 8.60757e-06 3
-0.0308534 0.00632644 0.097969 0.978422 0.557937 0.034931 8.8722e-06 3
-0.0278488 0.0121858 0.0839369 0.978422 0.557937 0.034931 1.31483e-06 3
-0.0289899 0.0147278 0.0845048 0.978422 0.557937 0.034931 1.0194e-06 3
-0.0306798 0.00178347 0.0871406 0.978422 0.557937 0.034931 1.22759e-05 3
-0.025462 0.0116207 0.0899299 0.978422 0.557937 0.034931 7.83916e-06 3
-0.0276345 0.0095171 0.0865765 0.978422 0.557937 0.034931 4.896e-06 3
-0.0176268 0.00431304 0.0903307 0.978422 0.557937 0.034931 7.84188e-06 3
-0.0221053 0.0146055 0.0872216 0.978422 0.557937 0.034931 5.14993e-06 3
-0.032339 0.0167144 0.0873247 0.978422 0.557937 0.034931 8.04403e-07 3
-0.0288744 0.00936181 0.0866235 0.978422 0.557937 0.034931 2.03357e-06 3
-0.0343146 0.00655962 0.087587 0.978422 0.557937 0.034931 6.47075e-06 3
-0.0268714 0.0131582 0.0927979 0.978422 0.557937 0.034931 1.17605e-05 3
-0.0317076 0.00878298 0.0919774 0.978422 0.557937 0.034931 1.3847e-05 3
-0.0363823 0.00753942 0.0876736 0.978422 0.557937 0.034931 5.74861e-06 3
-0.0341003 0.00389094 0.0902266 0.978422 0.557937 0.034931 5.82317e-06 3
-0.0315411 0.00585097 0.0891483 0.978422 0.557937 0.034931 4.13211e-06 3
-0.0354163 0.0135807 0.0832408 0.978422 0.557937 0.034931 1.00446e-06 3
-0.0321057 0.0139954 0.0831154 0.978422 0.557937 0.034931 6.01498e-07 3
-0.0290409 0.0122938 0.0894526 0.978422 0.557937 0.034931 9.29049e-06 3
-0.0301395 0.016801 0.0880452 0.978422 0.557937 0.034931 3.21745e-06 3
-0.0347757 0.00771001 0.0838557 0.978422 0.557937 0.034931 1.6608e-06 3
-0.0368434 0.00868982 0.0839423 0.978422 0.557937 0.034931 9.53793e-07 3
-0.0269285 0.00705382 0.0985427 0.978422 0.557937 0.034931 1.07938e-05 3
-0.0247704 0.0100032 0.0971016 0.978422 0.557937 0.034931 7.88097e-06 3
-0.0272535 0.0130901 0.0955439 0.978422 0.557937 0.034931 6.58423e-06 3
-0.0311141 0.016411 0.0857839 0.978422 0.557937 0.034931 4.31399e-07 3
-0.0249823 0.0124494 0.100453 0.978422 0.557937 0.034931 1.71135e-06 3
-0.0335254 0.0146166 0.086171 0.978422 0.557937 0.034931 4.30355e-06 3
-0.0209835 0.00132822 0.0930389 0.978422 0.557937 0.034931 1.44786e-05 3
-0.0333889 0.0120016 0.0991152 0.978422 0.557937 0.034931 8.4844e-06 3
-0.0339925 0.0111923 0.0894163 0.978422 0.557937 0.034931 1.5971e-05 3
-0.0208471 0.011822 0.0903201 0.978422 0.557937 0.034931 1.27494e-05 3
-0.0310342 0.0101043 0.0960037 0.978422 0.557937 0.034931 8.80925e-06 3
-0.0338789 0.00667998 0.103045 0.978422 0.557937 0.034931 2.72409e-06 3
-0.033217 0.0100863 0.102285 0.978422 0.557937 0.034931 8.08431e-06 3
-0.0339582 0.0173197 0.100934 0.978422 0.557937 0.034931 5.5433e-06 3
-0.0310652 0.00877266 0.101321 0.978422 0.557937 0.034931 6.63443e-06 3
-0.0526908 0.0148238 0.0928462 0.978422 0.557937 0.034931 9.64615e-06 3
-0.0398236 0.0140005 0.105937 0.978422 0.557937 0.034931 9.34147e-07 3
-0.0271404 0.00950004 0.101894 0.978422 0.557937 0.034931 7.59912e-06 3
-0.0419345 0.012438 0.105384 0.978422 0.557937 0.034931 2.8712e-06 3
-0.041414 0.013146 0.0994018 0.978422 0.557937 0.034931 1.51608e-05 3
-0.0337781 0.0124499 0.104544 0.978422 0.557937 0.034931 3.5221e-06 3
-0.0362109 0.0128634 0.1004 0.978422 0.557937 0.034931 5.59152e-06 3
-0.036772 0.015227 0.102659 0.978422 0.557937 0.034931 1.62647e-06 3
-0.0337863 0.0154044 0.104104 0.978422 0.557937 0.034931 3.56154e-06 3
-0.03395 0.0143652 0.101374 0.978422 0.557937 0.034931 3.81739e-06 3
-0.0470463 0.0188285 0.105354 0.978422 0.557937 0.034931 7.91167e-07 3
-0.0527436 0.0160963 0.0972201 0.978422 0.557937 0.034931 1.75032e-05 3
-0.0495691 0.0153554 0.103091 0.978422 0.557937 0.034931 1.49102e-05 3
-0.0383538 0.0123146 0.10016 0.978422 0.557937 0.034931 9.06635e-06 3
-0.0460694 0.0165535 0.10222 0.978422 0.557937 0.034931 1.93173e-05 3
-0.0444656 0.0119195 0.10268 0.978422 0.557937 0.034931 7.90303e-07 3
-0.0639046 0.0257487 0.0981851 0.978422 0.557937 0.034931 1.22236e-05 3
-0.0547939 0.0113872 0.0925469 0.978422 0.557937 0.034931 1.9117e-05 3
-0.0630635 0.0144901 0.0937166 0.978422 0.557937 0.034931 4.14081e-05 3
-0.0382758 0.00987209 0.0949273 0.978422 0.557937 0.034931 2.95723e-05 3
-0.0576318 0.0159587 0.091188 0.978422 0.557937 0.034931 1.74923e-05 3
-0.0555287 0.0193952 0.0914873 0.978422 0.557937 0.034931 8.83002e-06 3
-0.0555815 0.0206677 0.0958613 0.978422 0.557937 0.034931 2.154e-05 3
-0.0381646 0.0055822 0.102565 0.978422 0.557937 0.034931 2.72409e-06 3
-0.0406655 0.00621918 0.0931846 0.978422 0.557937 0.034931 1.08783e-05 3
-0.0403247 0.00985032 0.10309 0.978422 0.557937 0.034931 9.20275e-06 3
-0.041336 0.0107035 0.0941695 0.978422 0.557937 0.034931 7.44904e-06 3
-0.0377684 0.0172126 0.0857487 0.978422 0.557937 0.034931 1.56992e-06 3
-0.0437257 0.00705062 0.0924268 0.978422 0.557937 0.034931 7.29643e-06 3
-0.0389445 0.0160312 0.0844073 0.978422 0.557937 0.034931 1.60596e-06 3
-0.0344097 0.016455 0.0874032 0.978422 0.557937 0.034931 5.10696e-07 3
-0.037937 0.0138623 0.0898907 0.978422 0.557937 0.034931 8.46821e-06 3
-0.0515279 0.00963522 0.102467 0.978422 0.557937 0.034931 7.3681e-06 3
-0.0479652 0.0107213 0.10355 0.978422 0.557937 0.034931 7.84667e-06 3
-0.0494353 0.0178941 0.0889965 0.978422 0.557937 0.034931 5.30194e-06 3
-0.049488 0.0191666 0.0933704 0.978422 0.557937 0.034931 1.68044e-05 3
-0.0393945 0.016572 0.0909788 0.978422 0.557937 0.034931 1.09211e-05 3
-0.0463765 0.0185377 0.0972875 0.978422 0.557937 0.034931 4.10701e-05 3
-0.0406588 0.0169167 0.0950574 0.978422 0.557937 0.034931 3.05937e-05 3
-0.0605211 0.0208412 0.0998358 0.978422 0.557937 0.034931 3.79014e-05 3
-0.0774117 0.0218545 0.0973004 0.978422 0.557937 0.034931 1.15614e-05 3
-0.0743717 0.0260834 0.0939607 0.978422 0.557937 0.034931 9.3136e-06 3
-0.0692835 0.0230077 0.0963397 0.978422 0.557937 0.034931 1.61444e-05 3
-0.0736304 0.0244552 0.0980527 0.978422 0.557937 0.034931 9.09409e-06 3
-0.0586601 0.0185447 0.104328 0.978422 0.557937 0.034931 1.31458e-05 3
-0.0726189 0.0257371 0.0920227 0.978422 0.557937 0.034931 4.20328e-06 3
-0.0663227 0.0208291 0.0877643 0.978422 0.557937 0.034931 1.22271e-05 3
-0.0691871 0.024405 0.0924351 0.978422 0.557937 0.034931 1.3516e-05 3
-0.0689168 0.0219303 0.0875393 0.978422 0.557937 0.034931 7.98508e-06 3
-0.0675949 0.0239139 0.0896834 0.978422 0.557937 0.034931 6.95778e-06 3
-0.0531317 0.0142693 0.102007 0.978422 0.557937 0.034931 1.05659e-05 3
-0.0615224 0.0161944 0.0849105 0.978422 0.557937 0.034931 3.58098e-06 3
-0.0513634 0.015024 0.0832775 0.978422 0.557937 0.034931 1.7928e-06 3
-0.0633399 0.0205152 0.0804112 0.978422 0.557937 0.034931 1.14904e-06 3
-0.0555372 0.0138144 0.0843854 0.978422 0.557937 0.034931 8.18716e-07 3
-0.0570832 0.0143466 0.0842137 0.978422 0.557937 0.034931 2.58159e-06 3
-0.0675407 0.0196936 0.0769061 0.978422 0.557937 0.034931 1.54063e-06 3
-0.0615738 0.0187221 0.0836452 0.978422 0.557937 0.034931 2.61103e-06 3
-0.0661583 0.0243468 0.0838786 0.978422 0.557937 0.034931 1.72636e-06 3
-0.0624713 0.0221595 0.0843875 0.978422 0.557937 0.034931 2.81336e-06 3
-0.0539139 0.0175364 0.0829223 0.978422 0.557937 0.034931 1.33994e-06 3
-0.0584308 0.0155595 0.0841841 0.978422 0.557937 0.034931 1.4615e-06 3
-0.0634695 0.0218672 0.0822443 0.978422 0.557937 0.034931 1.60331e-06 3
-0.066455 0.0177737 0.079166 0.978422 0.557937 0.034931 5.69653e-07 3
-0.0571346 0.0168744 0.0829484 0.978422 0.557937 0.034931 1.33994e-06 3
-0.0601058 0.0167996 0.0851953 0.978422 0.557937 0.034931 1.31699e-06 3
-0.0530381 0.0138298 0.0834754 0.978422 0.557937 0.034931 8.07588e-07 3
-0.068017 0.0137475 0.0857821 0.978422 0.557937 0.034931 1.13478e-05 3
-0.0516425 0.0118495 0.086664 0.978422 0.557937 0.034931 5.74842e-06 3
-0.0679987 0.0211713 0.0824906 0.978422 0.557937 0.034931 3.73153e-06 3
-0.0573803 0.0121324 0.0835799 0.978422 0.557937 0.034931 8.91259e-07 3
-0.0663406 0.0192332 0.079808 0.978422 0.557937 0.034931 1.28478e-06 3
-0.0675353 0.0224335 0.0794145 0.978422 0.557937 0.034931 3.38182e-06 3
-0.0582628 0.0184816 0.0860008 0.978422 0.557937 0.034931 6.75755e-06 3
-0.0634544 0.0190557 0.0797691 0.978422 0.557937 0.034931 5.09468e-07 3
-0.0443066 0.00776168 0.0871001 0.978422 0.557937 0.034931 7.31701e-06 3
-0.0452755 0.0121722 0.0871883 0.978422 0.557937 0.034931 1.64594e-05 3
-0.0450608 0.0144835 0.0839866 0.978422 0.557937 0.034931 4.678e-06 3
-0.0417075 0.00808063 0.0841266 0.978422 0.557937 0.034931 1.28673e-06 3
-0.0422571 0.0157497 0.0836931 0.978422 0.557937 0.034931 2.33215e-06 3
-0.0475094 0.00681551 0.088109 0.978422 0.557937 0.034931 2.60002e-06 3
-0.0541416 0.0118341 0.0875741 0.978422 0.557937 0.034931 8.3695e-06 3
-0.0412957 0.0146198 0.0882362 0.978422 0.557937 0.034931 1.55812e-05 3
-0.0476616 0.0134529 0.0869555 0.978422 0.557937 0.034931 1.03061e-06 3
-0.0499678 0.0130438 0.0864661 0.978422 0.557937 0.034931 5.12983e-06 3
-0.0523135 0.00815098 0.088125 0.978422 0.557937 0.034931 2.0018e-06 3
-0.0531714 0.00918358 0.0870811 0.978422 0.557937 0.034931 1.45444e-06 3
-0.0486318 0.0161034 0.0874484 0.978422 0.557937 0.034931 1.00232e-05 3
-0.065111 0.0164078 0.0882447 0.978422 0.557937 0.034931 2.49823e-05 3
-0.0882959 0.0225539 0.0699107 0.978422 0.557937 0.034931 2.64022e-05 3
-0.072867 0.0220705 0.087883 0.978422 0.557937 0.034931 9.10504e-06 3
-0.0716271 0.025996 0.083828 0.978422 0.557937 0.034931 5.06196e-06 3
-0.084805 0.0297813 0.0840608 0.978422 0.557937 0.034931 1.02632e-07 3
-0.078153 0.0234827 0.0932084 0.978422 0.557937 0.034931 1.6084e-05 3
-0.0734642 0.021628 0.0752966 0.978422 0.557937 0.034931 9.98314e-06 3
-0.0859083 0.0321568 0.0799729 0.978422 0.557937 0.034931 3.82332e-06 3
-0.0790727 0.0222106 0.0716446 0.978422 0.557937 0.034931 6.40015e-06 3
-0.0810806 0.0274474 0.0910442 0.978422 0.557937 0.034931 1.37339e-05 3
-0.0691934 0.0243716 0.0820971 0.978422 0.557937 0.034931 9.82217e-06 3
-0.0928412 0.0300248 0.0697514 0.978422 0.557937 0.034931 2.24935e-06 3
-0.0826133 0.0222416 0.080646 0.978422 0.557937 0.034931 2.64506e-05 3
-0.0707572 0.0187548 0.0861512 0.978422 0.557937 0.034931 1.48589e-05 3
-0.0644284 0.013534 0.082448 0.978422 0.557937 0.034931 1.6054e-06 3
-0.0775741 0.0231186 0.0628562 0.978422 0.557937 0.034931 8.49544e-06 3
-0.0804718 0.0183217 0.0695093 0.978422 0.557937 0.034931 2.01338e-05 3
-0.0840924 0.0258027 0.0886486 0.978422 0.557937 0.034931 4.66409e-06 3
-0.0873583 0.0336026 0.0686123 0.978422 0.557937 0.034931 2.88251e-06 3
-0.0803141 0.0218864 0.0868328 0.978422 0.557937 0.034931 2.59935e-05 3
-0.0869677 0.02931 0.0647535 0.978422 0.557937 0.034931 9.77014e-06 3
-0.0835211 0.0293526 0.0865216 0.978422 0.557937 0.034931 1.85526e-06 3
-0.0659 0.0181001 0.0979904 0.978422 0.557937 0.034931 4.27131e-05 3
-0.0874949 0.0285334 0.0783739 0.978422 0.557937 0.034931 6.01895e-06 3
-0.0917931 0.0260744 0.0764927 0.978422 0.557937 0.034931 9.4151e-06 3
-0.0785906 0.0252417 0.0830348 0.978422 0.557937 0.034931 3.04794e-05 3
-0.0823403 0.0226382 0.0690065 0.978422 0.557937 0.034931 3.2583e-05 3
-0.0807301 0.0245853 0.07443 0.978422 0.557937 0.034931 2.39745e-05 3
-0.0892704 0.0304843 0.0706047 0.978422 0.557937 0.034931 1.31363e-05 3
-0.0886865 0.0268464 0.0737695 0.978422 0.557937 0.034931 1.66015e-05 3
-0.0843883 0.0293055 0.0756507 0.978422 0.557937 0.034931 1.17368e-05 3
-0.0879389 0.0260312 0.0808997 0.978422 0.557937 0.034931 1.29093e-05 3
-0.0727244 0.0252599 0.0771882 0.978422 0.557937 0.034931 1.09779e-05 3
-0.0856779 0.0311078 0.0825347 0.978422 0.557937 0.034931 2.2124e-06 3
-0.0871688 0.0289551 0.083054 0.978422 0.557937 0.034931 5.72369e-06 3
-0.0673531 0.0275471 0.0834852 0.978422 0.557937 0.034931 1.91866e-06 3
-0.0805093 0.0309973 0.0889173 0.978422 0.557937 0.034931 3.34205e-06 3
-0.0843367 0.0188863 0.084444 0.978422 0.557937 0.034931 1.43125e-05 3
-0.0930345 0.0291841 0.0735084 0.978422 0.557937 0.034931 5.77319e-06 3
-0.0689447 0.0226622 0.0771537 0.978422 0.557937 0.034931 8.30285e-06 3
-0.076712 0.0193748 0.0890329 0.978422 0.557937 0.034931 2.9056e-05 3
-0.0815525 0.0298575 0.0842953 0.978422 0.557937 0.034931 8.07556e-06 3
-0.0737486 0.0266556 0.0811799 0.978422 0.557937 0.034931 1.28915e-05 3
-0.0785111 0.0200236 0.0768995 0.978422 0.557937 0.034931 2.30525e-05 3
-0.0766908 0.0175238 0.0651454 0.978422 0.557937 0.034931 9.65875e-06 3
-0.0698611 0.0181152 0.0753844 0.978422 0.557937 0.034931 4.65194e-06 3
-0.0967091 0.0200652 0.0535835 0.978422 0.557937 0.034931 2.02813e-06 3
-0.0957608 0.023977 0.0309929 0.978422 0.557937 0.034931 9.19868e-07 3
-0.0938422 0.0285282 0.0598819 0.978422 0.557937 0.034931 6.57817e-06 3
-0.0910363 0.0386245 0.0484537 0.978422 0.557937 0.034931 1.58382e-06 3
-0.0929251 0.0372627 0.049807 0.978422 0.557937 0.034931 3.53245e-06 3
-0.0913286 0.0248688 0.0612328 0.978422 0.557937 0.034931 6.81877e-06 3
-0.0932406 0.0217505 0.0632253 0.978422 0.557937 0.034931 5.25312e-06 3
-0.0949762 0.0305767 0.0627097 0.978422 0.557937 0.034931 1.00029e-06 3
-0.0917313 0.0366932 0.048493 0.978422 0.557937 0.034931 2.84837e-07 3
-0.0956204 0.0244889 0.0326689 0.978422 0.557937 0.034931 3.47795e-07 3
-0.0901417 0.0262884 0.0302472 0.978422 0.557937 0.034931 1.05385e-05 3
-0.0908684 0.0278956 0.0630993 0.978422 0.557937 0.034931 4.23267e-06 3
-0.0940534 0.0304048 0.0303832 0.978422 0.557937 0.034931 4.0037e-07 3
-0.0941818 0.0299079 0.0318891 0.978422 0.557937 0.034931 6.20863e-07 3
-0.0938538 0.0270087 0.0325187 0.978422 0.557937 0.034931 2.413e-06 3
-0.0910466 0.0307804 0.0289758 0.978422 0.557937 0.034931 1.80977e-06 3
-0.0767689 0.0189949 0.0625251 0.978422 0.557937 0.034931 4.02318e-06 3
-0.0939348 0.0308434 0.0344566 0.978422 0.557937 0.034931 2.11238e-06 3
-0.0924506 0.0257322 0.0658926 0.978422 0.557937 0.034931 2.65e-06 3
-0.0888797 0.0261918 0.0667459 0.978422 0.557937 0.034931 1.99973e-05 3
-0.0933995 0.0362139 0.0523786 0.978422 0.557937 0.034931 2.79031e-06 3
-0.0892127 0.0371659 0.0489765 0.978422 0.557937 0.034931 1.97222e-06 3
-0.0954425 0.0195084 0.0529167 0.978422 0.557937 0.034931 6.91128e-07 3
-0.0924626 0.0269173 0.0640606 0.978422 0.557937 0.034931 1.77572e-06 3
-0.0934381 0.0242492 0.0652722 0.978422 0.557937 0.034931 5.49141e-06 3
-0.0967074 0.0189906 0.0514368 0.978422 0.557937 0.034931 9.76249e-07 3
-0.093382 0.031555 0.0617484 0.978422 0.557937 0.034931 2.18558e-06 3
-0.0929069 0.0220278 0.0516365 0.978422 0.557937 0.034931 1.19802e-05 3
-0.0912022 0.024332 0.0340515 0.978422 0.557937 0.034931 2.98846e-06 3
-0.0973595 0.0254412 0.0445915 0.978422 0.557937 0.034931 1.09506e-06 3
-0.0973545 0.0276191 0.0474361 0.978422 0.557937 0.034931 1.65405e-06 3
-0.0970959 0.0188991 0.0487651 0.978422 0.557937 0.034931 3.05515e-07 3
-0.0978039 0.0202997 0.0499695 0.978422 0.557937 0.034931 1.31601e-06 3
-0.0933269 0.027944 0.0464597 0.978422 0.557937 0.034931 1.68526e-05 3
-0.0906692 0.0283087 0.0559712 0.978422 0.557937 0.034931 1.83166e-05 3
-0.0908176 0.0325216 0.051484 0.978422 0.557937 0.034931 7.69227e-06 3
-0.094526 0.0263015 0.0492006 0.978422 0.557937 0.034931 5.34625e-06 3
-0.0938932 0.0221417 0.0487847 0.978422 0.557937 0.034931 5.83573e-06 3
-0.0865345 0.0321324 0.0424259 0.978422 0.557937 0.034931 1.85502e-05 3
-0.0880558 0.0342279 0.0387741 0.978422 0.557937 0.034931 1.01487e-05 3
-0.0905165 0.0329694 0.0448008 0.978422 0.557937 0.034931 4.49452e-06 3
-0.0938231 0.0227229 0.0451517 0.978422 0.557937 0.034931 2.64724e-06 3
-0.0954204 0.0254792 0.0383588 0.978422 0.557937 0.034931 1.78402e-06 3
-0.0924054 0.0316077 0.0461541 0.978422 0.557937 0.034931 6.02611e-06 3
-0.094079 0.0289164 0.0514665 0.978422 0.557937 0.034931 6.34573e-06 3
-0.0934477 0.0258311 0.0531972 0.978422 0.557937 0.034931 1.26488e-05 3
-0.0805313 0.0339539 0.0514077 0.978422 0.557937 0.034931 9.94706e-07 3
-0.0823017 0.0345049 0.0520006 0.978422 0.557937 0.034931 5.23164e-06 3
-0.0836436 0.0351836 0.0495471 0.978422 0.557937 0.034931 3.24941e-06 3
-0.0751956 0.0320858 0.0536629 0.978422 0.557937 0.034931 9.15688e-06 3
-0.0754743 0.0285135 0.0663951 0.978422 0.557937 0.034931 3.94047e-06 3
-0.090965 0.0334128 0.0474992 0.978422 0.557937 0.034931 4.69327e-06 3
-0.0844548 0.0337562 0.0546659 0.978422 0.557937 0.034931 1.39233e-05 3
-0.0737448 0.0280526 0.0677456 0.978422 0.557937 0.034931 1.70499e-07 3
-0.0793645 0.025964 0.0649736 0.978422 0.557937 0.034931 1.45522e-05 3
-0.0878246 0.0340431 0.0493959 0.978422 0.557937 0.034931 5.07307e-06 3
-0.0841357 0.027364 0.0583205 0.978422 0.557937 0.034931 2.59909e-05 3
-0.0881556 0.0246493 0.0573221 0.978422 0.557937 0.034931 2.14617e-05 3
-0.0823144 0.0318663 0.0573351 0.978422 0.557937 0.034931 8.78251e-06 3
-0.083408 0.028998 0.0638854 0.978422 0.557937 0.034931 1.36172e-05 3
-0.0913716 0.0366056 0.0551949 0.978422 0.557937 0.034931 6.21018e-06 3
-0.0814023 0.0333207 0.0437993 0.978422 0.557937 0.034931 4.93763e-06 3
-0.0771349 0.0362898 0.0526289 0.978422 0.557937 0.034931 9.97928e-07 3
-0.0751652 0.0303243 0.0665702 0.978422 0.557937 0.034931 1.62079e-06 3
-0.0884465 0.0338855 0.0479827 0.978422 0.557937 0.034931 4.5945e-06 3
-0.0780389 0.0333884 0.0515439 0.978422 0.557937 0.034931 9.04727e-06 3
-0.0803686 0.0239998 0.0580177 0.978422 0.557937 0.034931 2.22064e-05 3
-0.0887896 0.0329133 0.0543003 0.978422 0.557937 0.034931 1.63047e-05 3
-0.0816696 0.0344337 0.0470679 0.978422 0.557937 0.034931 2.79544e-06 3
-0.077745 0.0327004 0.0426467 0.978422 0.557937 0.034931 1.01022e-05 3
-0.0780123 0.0338134 0.0459152 0.978422 0.557937 0.034931 5.2818e-06 3
-0.0827904 0.0364435 0.0433799 0.978422 0.557937 0.034931 1.00711e-06 3
