ply
format ascii 1.0
comment Created by Open3D
element vertex 719
property float32 x
property float32 y
property float32 z
property float32 red
property float32 green
property float32 blue
property float32 volume
property uint8 segmentation
end_header
0.0951358 0.0703564 0.179572 0.3415 0.062325 0.429425 1.36047e-06 1
0.102693 0.0647368 0.172491 0.3415 0.062325 0.429425 1.01004e-06 1
0.102172 0.0642393 0.173999 0.3415 0.062325 0.429425 4.32062e-07 1
0.104864 0.0786269 0.16769 0.3415 0.062325 0.429425 9.73542e-07 1
0.10548 0.0908341 0.168298 0.3415 0.062325 0.429425 1.68805e-06 1
0.101544 0.0813809 0.173979 0.3415 0.062325 0.429425 1.30058e-06 1
0.105082 0.0825211 0.167692 0.3415 0.062325 0.429425 6.41057e-07 1
0.102523 0.0813726 0.176806 0.3415 0.062325 0.429425 4.69945e-07 1
0.101464 0.05718 0.175956 0.3415 0.062325 0.429425 1.32763e-06 1
0.1035 0.0880744 0.175881 0.3415 0.062325 0.429425 3.4788e-06 1
0.10358 0.0901625 0.171519 0.3415 0.062325 0.429425 2.3127e-06 1
0.0978679 0.0827513 0.171187 0.3415 0.062325 0.429425 7.32056e-06 1
0.0976785 0.0859647 0.17271 0.3415 0.062325 0.429425 1.63933e-05 1
0.100383 0.0842082 0.167753 0.3415 0.062325 0.429425 1.45886e-05 1
0.0998772 0.0638812 0.177226 0.3415 0.062325 0.429425 2.02505e-06 1
0.102659 0.068845 0.171528 0.3415 0.062325 0.429425 2.70368e-06 1
0.104819 0.0655573 0.17389 0.3415 0.062325 0.429425 3.08922e-07 1
0.102176 0.0653486 0.17358 0.3415 0.062325 0.429425 7.67905e-07 1
0.0969192 0.0636385 0.178801 0.3415 0.062325 0.429425 1.55257e-06 1
0.102049 0.0788562 0.176499 0.3415 0.062325 0.429425 2.05839e-06 1
0.101519 0.0733957 0.172776 0.3415 0.062325 0.429425 6.26211e-06 1
0.101039 0.0792776 0.178658 0.3415 0.062325 0.429425 1.78131e-06 1
0.104126 0.0735013 0.173802 0.3415 0.062325 0.429425 2.95514e-06 1
0.103234 0.0761662 0.176656 0.3415 0.062325 0.429425 1.2649e-06 1
0.104345 0.076419 0.173064 0.3415 0.062325 0.429425 1.23198e-06 1
0.0976775 0.0716085 0.180808 0.3415 0.062325 0.429425 1.58556e-07 1
0.0968023 0.0712789 0.17877 0.3415 0.062325 0.429425 1.96476e-06 1
0.101774 0.0525527 0.178028 0.3415 0.062325 0.429425 1.57564e-07 1
0.0978864 0.0693899 0.178288 0.3415 0.062325 0.429425 8.3249e-07 1
0.0963622 0.0684633 0.17925 0.3415 0.062325 0.429425 3.88143e-07 1
0.0953398 0.0677957 0.179401 0.3415 0.062325 0.429425 5.61192e-07 1
0.0991762 0.065936 0.177581 0.3415 0.062325 0.429425 9.75054e-07 1
0.100628 0.0571723 0.178604 0.3415 0.062325 0.429425 6.53845e-07 1
0.102242 0.0558498 0.177593 0.3415 0.062325 0.429425 5.21403e-07 1
0.102132 0.066863 0.173596 0.3415 0.062325 0.429425 2.57529e-06 1
0.100492 0.0671386 0.176082 0.3415 0.062325 0.429425 3.06116e-06 1
0.0945649 0.0683653 0.179494 0.3415 0.062325 0.429425 4.51169e-07 1
0.0972538 0.0699555 0.178541 0.3415 0.062325 0.429425 3.40584e-07 1
0.0969948 0.0678977 0.178997 0.3415 0.062325 0.429425 5.80432e-07 1
0.0871175 0.0671103 0.166034 0.3415 0.062325 0.429425 1.77304e-06 1
0.0914999 0.0655992 0.163722 0.3415 0.062325 0.429425 1.8023e-06 1
0.0933705 0.0638944 0.163697 0.3415 0.062325 0.429425 3.71672e-06 1
0.0946678 0.071729 0.163678 0.3415 0.062325 0.429425 3.53825e-06 1
0.0947409 0.0617414 0.168823 0.3415 0.062325 0.429425 8.80356e-06 1
0.0863043 0.0614139 0.162993 0.3415 0.062325 0.429425 2.16642e-06 1
0.0886661 0.0652595 0.165605 0.3415 0.062325 0.429425 9.50829e-06 1
0.0964957 0.0808174 0.160973 0.3415 0.062325 0.429425 1.50723e-06 1
0.0952098 0.0837298 0.160809 0.3415 0.062325 0.429425 9.65287e-07 1
0.0979577 0.0875991 0.161335 0.3415 0.062325 0.429425 7.59228e-07 1
0.100463 0.0862963 0.163391 0.3415 0.062325 0.429425 5.03108e-06 1
0.0847556 0.0632647 0.163422 0.3415 0.062325 0.429425 2.18291e-06 1
0.0995348 0.0630834 0.162807 0.3415 0.062325 0.429425 8.32408e-07 1
0.0960138 0.0764733 0.169518 0.3415 0.062325 0.429425 2.15119e-05 1
0.0928046 0.0698231 0.163779 0.3415 0.062325 0.429425 6.42562e-06 1
0.0883944 0.0696038 0.164571 0.3415 0.062325 0.429425 3.65634e-06 1
0.0899504 0.0715453 0.164087 0.3415 0.062325 0.429425 6.30856e-06 1
0.0928003 0.067648 0.16381 0.3415 0.062325 0.429425 6.11662e-07 1
0.0960381 0.0747374 0.16415 0.3415 0.062325 0.429425 4.27697e-06 1
0.0972466 0.0703896 0.164384 0.3415 0.062325 0.429425 3.74319e-06 1
0.0919848 0.0694146 0.160654 0.3415 0.062325 0.429425 3.65331e-07 1
0.094671 0.0659431 0.163785 0.3415 0.062325 0.429425 4.69577e-06 1
0.0971486 0.0860355 0.181464 0.3415 0.062325 0.429425 1.03372e-06 1
0.0867471 0.0718469 0.165551 0.3415 0.062325 0.429425 3.88853e-06 1
0.0817919 0.0883883 0.170463 0.3415 0.062325 0.429425 3.40222e-06 1
0.0817905 0.0770012 0.171964 0.3415 0.062325 0.429425 1.6115e-06 1
0.0879203 0.0951885 0.168816 0.3415 0.062325 0.429425 9.02061e-06 1
0.0928733 0.076702 0.174306 0.3415 0.062325 0.429425 1.45342e-05 1
0.0899867 0.0765627 0.179413 0.3415 0.062325 0.429425 2.46266e-06 1
0.0893871 0.0753034 0.170019 0.3415 0.062325 0.429425 1.80419e-05 1
0.0854702 0.0693534 0.167013 0.3415 0.062325 0.429425 9.40466e-06 1
0.09456 0.0752137 0.179857 0.3415 0.062325 0.429425 2.76129e-06 1
0.0840217 0.0855718 0.165305 0.3415 0.062325 0.429425 9.3995e-07 1
0.0957919 0.0911604 0.176627 0.3415 0.062325 0.429425 2.03636e-06 1
0.0957823 0.0884006 0.182117 0.3415 0.062325 0.429425 5.04596e-07 1
0.0842007 0.0731786 0.170075 0.3415 0.062325 0.429425 3.30736e-06 1
0.0864402 0.063129 0.168939 0.3415 0.062325 0.429425 1.64963e-05 1
0.080523 0.0803276 0.168067 0.3415 0.062325 0.429425 5.59386e-07 1
0.0866991 0.0859852 0.170244 0.3415 0.062325 0.429425 1.59915e-06 1
0.0883031 0.0737884 0.165067 0.3415 0.062325 0.429425 1.4291e-06 1
0.0880204 0.0920576 0.171253 0.3415 0.062325 0.429425 9.24999e-06 1
0.0817761 0.0794721 0.171187 0.3415 0.062325 0.429425 2.83937e-06 1
0.0829828 0.0908415 0.17199 0.3415 0.062325 0.429425 9.83809e-06 1
0.0934595 0.0809102 0.166235 0.3415 0.062325 0.429425 2.33287e-05 1
0.0846382 0.0858551 0.167689 0.3415 0.062325 0.429425 1.90039e-06 1
0.0811857 0.0882334 0.16892 0.3415 0.062325 0.429425 1.75678e-06 1
0.0818073 0.0857318 0.171299 0.3415 0.062325 0.429425 7.41084e-07 1
0.0925083 0.0895995 0.165672 0.3415 0.062325 0.429425 5.72931e-06 1
0.0947211 0.0797336 0.171766 0.3415 0.062325 0.429425 5.61325e-06 1
0.0896662 0.0882765 0.166096 0.3415 0.062325 0.429425 7.06842e-06 1
0.0996635 0.0874925 0.17803 0.3415 0.062325 0.429425 9.24833e-06 1
0.0811682 0.0877773 0.167297 0.3415 0.062325 0.429425 1.75585e-06 1
0.0857302 0.0843585 0.17269 0.3415 0.062325 0.429425 4.56452e-06 1
0.0863379 0.0965273 0.169312 0.3415 0.062325 0.429425 9.81595e-06 1
0.094723 0.0824638 0.171704 0.3415 0.062325 0.429425 7.87539e-06 1
0.0951636 0.0845078 0.176144 0.3415 0.062325 0.429425 7.76079e-06 1
0.0969977 0.0884414 0.17308 0.3415 0.062325 0.429425 1.43378e-05 1
0.081177 0.0791255 0.173547 0.3415 0.062325 0.429425 2.52682e-06 1
0.0833681 0.0827364 0.166084 0.3415 0.062325 0.429425 2.8991e-06 1
0.0859185 0.0785453 0.162314 0.3415 0.062325 0.429425 1.46898e-06 1
0.0846351 0.0834475 0.163723 0.3415 0.062325 0.429425 2.49154e-06 1
0.0857374 0.0820793 0.169565 0.3415 0.062325 0.429425 2.00269e-05 1
0.0885735 0.0798002 0.1668 0.3415 0.062325 0.429425 1.81755e-05 1
0.0841844 0.0708553 0.168448 0.3415 0.062325 0.429425 4.15642e-06 1
0.0986363 0.0779074 0.180637 0.3415 0.062325 0.429425 5.66973e-07 1
0.0874816 0.0812968 0.161799 0.3415 0.062325 0.429425 1.28302e-06 1
0.0938244 0.0720024 0.17977 0.3415 0.062325 0.429425 2.69871e-06 1
0.0928436 0.0768209 0.179838 0.3415 0.062325 0.429425 3.58012e-06 1
0.0835853 0.0705087 0.170808 0.3415 0.062325 0.429425 7.08055e-06 1
0.0836332 0.0938593 0.168083 0.3415 0.062325 0.429425 8.33571e-06 1
0.087791 0.0844886 0.175245 0.3415 0.062325 0.429425 4.56648e-06 1
0.088888 0.0865725 0.17151 0.3415 0.062325 0.429425 3.62417e-06 1
0.0817163 0.0930347 0.175137 0.3415 0.062325 0.429425 2.97652e-06 1
0.0857876 0.0903785 0.175655 0.3415 0.062325 0.429425 1.11964e-05 1
0.083165 0.0999539 0.17319 0.3415 0.062325 0.429425 2.5321e-06 1
0.0865872 0.0883462 0.18055 0.3415 0.062325 0.429425 7.54694e-07 1
0.0861958 0.0830537 0.180352 0.3415 0.062325 0.429425 3.40539e-07 1
0.0873157 0.0904097 0.180825 0.3415 0.062325 0.429425 7.03387e-07 1
0.0837993 0.0982043 0.173987 0.3415 0.062325 0.429425 3.64852e-06 1
0.0930124 0.0976799 0.1799 0.3415 0.062325 0.429425 4.25408e-06 1
0.0944607 0.0942224 0.182284 0.3415 0.062325 0.429425 2.9438e-07 1
0.0805254 0.0905815 0.173611 0.3415 0.062325 0.429425 1.42686e-06 1
0.0866562 0.0862765 0.175881 0.3415 0.062325 0.429425 2.16936e-06 1
0.0850681 0.0838218 0.179999 0.3415 0.062325 0.429425 2.53117e-07 1
0.0850234 0.0875864 0.180028 0.3415 0.062325 0.429425 7.32868e-07 1
0.0805546 0.0825498 0.174437 0.3415 0.062325 0.429425 7.46771e-07 1
0.0873847 0.0883401 0.176155 0.3415 0.062325 0.429425 7.88714e-06 1
0.0957862 0.0926117 0.176648 0.3415 0.062325 0.429425 1.17108e-06 1
0.0916834 0.0839758 0.182192 0.3415 0.062325 0.429425 3.18764e-07 1
0.0919928 0.0801577 0.182235 0.3415 0.062325 0.429425 1.91345e-07 1
0.0912473 0.0824481 0.182023 0.3415 0.062325 0.429425 1.27419e-07 1
0.0896175 0.0900191 0.171753 0.3415 0.062325 0.429425 7.49199e-06 1
0.0841349 0.0829237 0.177797 0.3415 0.062325 0.429425 1.10392e-06 1
0.0938021 0.0924669 0.171296 0.3415 0.062325 0.429425 2.21571e-06 1
0.092488 0.0911751 0.176891 0.3415 0.062325 0.429425 6.41658e-06 1
0.0912845 0.083608 0.176407 0.3415 0.062325 0.429425 5.01611e-06 1
0.0917207 0.0851358 0.176576 0.3415 0.062325 0.429425 6.04968e-06 1
0.0817903 0.0812383 0.175934 0.3415 0.062325 0.429425 1.1039e-06 1
0.0841421 0.0806445 0.174671 0.3415 0.062325 0.429425 4.08824e-06 1
0.0894427 0.096671 0.174007 0.3415 0.062325 0.429425 1.69839e-05 1
0.102638 0.043015 0.167805 0.3415 0.062325 0.429425 1.22209e-06 1
0.0993617 0.061242 0.166392 0.3415 0.062325 0.429425 7.19085e-07 1
0.0972762 0.0610535 0.169474 0.3415 0.062325 0.429425 7.32459e-06 1
0.0854491 0.0749133 0.1732 0.3415 0.062325 0.429425 1.18216e-05 1
0.0812528 0.0667792 0.17429 0.3415 0.062325 0.429425 4.64882e-06 1
0.102291 0.0653861 0.170004 0.3415 0.062325 0.429425 1.00056e-06 1
0.0848695 0.0692312 0.17391 0.3415 0.062325 0.429425 1.12441e-05 1
0.0876779 0.071865 0.177527 0.3415 0.062325 0.429425 9.84892e-06 1
0.103268 0.0548584 0.168651 0.3415 0.062325 0.429425 2.96713e-06 1
0.104782 0.0528391 0.172709 0.3415 0.062325 0.429425 4.33707e-07 1
0.0805421 0.0752665 0.168839 0.3415 0.062325 0.429425 4.48979e-07 1
0.0925195 0.0703687 0.179803 0.3415 0.062325 0.429425 1.39442e-06 1
0.102295 0.0664953 0.169585 0.3415 0.062325 0.429425 1.70969e-07 1
0.0999059 0.0542614 0.170351 0.3415 0.062325 0.429425 5.60479e-06 1
0.0932174 0.0681451 0.179616 0.3415 0.062325 0.429425 3.50758e-07 1
0.10142 0.045313 0.166459 0.3415 0.062325 0.429425 2.83444e-06 1
0.10225 0.0582193 0.175669 0.3415 0.062325 0.429425 8.9799e-07 1
0.104434 0.05907 0.173526 0.3415 0.062325 0.429425 7.98989e-07 1
0.100027 0.0524205 0.163108 0.3415 0.062325 0.429425 4.25055e-07 1
0.101361 0.074281 0.163734 0.3415 0.062325 0.429425 1.86307e-06 1
0.08489 0.0652043 0.173904 0.3415 0.062325 0.429425 1.1465e-05 1
0.0977584 0.0569776 0.166528 0.3415 0.062325 0.429425 7.20882e-06 1
0.103078 0.0558575 0.174944 0.3415 0.062325 0.429425 1.14829e-06 1
0.104927 0.063013 0.168925 0.3415 0.062325 0.429425 2.92432e-07 1
0.100479 0.0512498 0.166548 0.3415 0.062325 0.429425 9.69409e-07 1
0.103156 0.0471831 0.167656 0.3415 0.062325 0.429425 1.42356e-06 1
0.0995977 0.0738538 0.166184 0.3415 0.062325 0.429425 7.00469e-06 1
0.0961506 0.052424 0.171267 0.3415 0.062325 0.429425 3.89485e-06 1
0.0992705 0.0523556 0.170114 0.3415 0.062325 0.429425 1.45798e-06 1
0.10478 0.0473315 0.169953 0.3415 0.062325 0.429425 5.62431e-07 1
0.101114 0.0531556 0.166785 0.3415 0.062325 0.429425 4.86772e-06 1
0.0891382 0.0600617 0.172323 0.3415 0.062325 0.429425 2.73657e-05 1
0.0876421 0.0748773 0.17755 0.3415 0.062325 0.429425 4.48842e-06 1
0.0877937 0.0765987 0.175063 0.3415 0.062325 0.429425 6.46642e-06 1
0.0852691 0.0749269 0.179415 0.3415 0.062325 0.429425 2.94117e-06 1
0.105039 0.0673783 0.168462 0.3415 0.062325 0.429425 1.58969e-07 1
0.104485 0.0601375 0.174899 0.3415 0.062325 0.429425 3.05841e-07 1
0.103972 0.0618585 0.175568 0.3415 0.062325 0.429425 1.5138e-07 1
0.102698 0.0653393 0.171096 0.3415 0.062325 0.429425 1.03978e-06 1
0.0937837 0.0538224 0.171029 0.3415 0.062325 0.429425 4.99896e-06 1
0.0952231 0.0576655 0.165877 0.3415 0.062325 0.429425 7.65984e-06 1
0.0994324 0.0607068 0.171373 0.3415 0.062325 0.429425 9.47803e-06 1
0.104945 0.0525938 0.17384 0.3415 0.062325 0.429425 3.89764e-07 1
0.100818 0.0655371 0.163336 0.3415 0.062325 0.429425 1.25244e-06 1
0.104779 0.0488958 0.168673 0.3415 0.062325 0.429425 2.72469e-07 1
0.101693 0.0606872 0.164739 0.3415 0.062325 0.429425 1.41383e-06 1
0.104209 0.0532311 0.170033 0.3415 0.062325 0.429425 1.37126e-06 1
0.104718 0.0549369 0.17202 0.3415 0.062325 0.429425 9.58373e-07 1
0.101018 0.0443417 0.164041 0.3415 0.062325 0.429425 1.35332e-06 1
0.104273 0.0511333 0.170722 0.3415 0.062325 0.429425 2.05636e-07 1
0.100446 0.0464821 0.1638 0.3415 0.062325 0.429425 6.52606e-07 1
0.101225 0.0517603 0.163606 0.3415 0.062325 0.429425 3.72272e-07 1
0.102183 0.0483521 0.164997 0.3415 0.062325 0.429425 3.27763e-07 1
0.104494 0.0486627 0.171652 0.3415 0.062325 0.429425 6.94661e-07 1
0.104004 0.0506837 0.172431 0.3415 0.062325 0.429425 5.64805e-07 1
0.102871 0.0485143 0.169356 0.3415 0.062325 0.429425 1.78409e-06 1
0.101134 0.0466442 0.168158 0.3415 0.062325 0.429425 2.61415e-06 1
0.102381 0.0505353 0.170134 0.3415 0.062325 0.429425 1.45059e-06 1
0.101173 0.0516411 0.1737 0.3415 0.062325 0.429425 2.30028e-06 1
0.0995132 0.0712494 0.166274 0.3415 0.062325 0.429425 4.56023e-06 1
0.102348 0.0680814 0.169564 0.3415 0.062325 0.429425 2.80063e-06 1
0.0991058 0.0682505 0.165786 0.3415 0.062325 0.429425 2.82891e-06 1
0.0904339 0.0703094 0.179441 0.3415 0.062325 0.429425 4.11525e-06 1
0.0982921 0.0555839 0.171362 0.3415 0.062325 0.429425 4.4546e-06 1
0.100446 0.0572867 0.173228 0.3415 0.062325 0.429425 3.13388e-06 1
0.10206 0.0559642 0.172217 0.3415 0.062325 0.429425 3.14882e-06 1
0.0978224 0.0657969 0.165257 0.3415 0.062325 0.429425 7.37318e-06 1
0.101372 0.0691103 0.167676 0.3415 0.062325 0.429425 3.42053e-06 1
0.102236 0.0637162 0.170026 0.3415 0.062325 0.429425 3.0979e-06 1
0.101704 0.0618901 0.173248 0.3415 0.062325 0.429425 3.76955e-06 1
0.0999809 0.0634007 0.167189 0.3415 0.062325 0.429425 8.23989e-06 1
0.0925965 0.066653 0.179632 0.3415 0.062325 0.429425 1.31158e-06 1
0.0903707 0.0670407 0.179308 0.3415 0.062325 0.429425 3.09279e-06 1
0.0901953 0.129899 0.178555 0.3415 0.062325 0.429425 4.86451e-06 1
0.08548 0.124911 0.178575 0.3415 0.062325 0.429425 1.39304e-06 1
0.103882 0.125467 0.178064 0.3415 0.062325 0.429425 5.25658e-06 1
0.0963516 0.120014 0.178201 0.3415 0.062325 0.429425 3.22359e-06 1
0.105106 0.123271 0.17715 0.3415 0.062325 0.429425 1.95495e-06 1
0.0863795 0.119975 0.181087 0.3415 0.062325 0.429425 3.27496e-07 1
0.0961338 0.132647 0.181535 0.3415 0.062325 0.429425 2.06958e-06 1
0.0942004 0.125801 0.181079 0.3415 0.062325 0.429425 1.3712e-06 1
0.0979315 0.132991 0.181322 0.3415 0.062325 0.429425 2.26131e-06 1
0.086754 0.130894 0.175932 0.3415 0.062325 0.429425 7.85877e-06 1
0.0860676 0.126697 0.17901 0.3415 0.062325 0.429425 1.1326e-06 1
0.0873764 0.122075 0.179471 0.3415 0.062325 0.429425 1.62784e-06 1
0.0908678 0.135173 0.180872 0.3415 0.062325 0.429425 3.33101e-06 1
0.0882925 0.129902 0.177645 0.3415 0.062325 0.429425 2.66875e-06 1
0.0966198 0.130678 0.183468 0.3415 0.062325 0.429425 8.05465e-08 1
0.0944123 0.13283 0.181567 0.3415 0.062325 0.429425 1.85291e-06 1
0.0934653 0.124459 0.183285 0.3415 0.062325 0.429425 1.29038e-07 1
0.0839595 0.124597 0.176865 0.3415 0.062325 0.429425 2.97255e-06 1
0.104815 0.124963 0.17997 0.3415 0.062325 0.429425 5.78424e-07 1
0.0935918 0.134956 0.181496 0.3415 0.062325 0.429425 3.1604e-06 1
0.0988364 0.13539 0.181306 0.3415 0.062325 0.429425 2.91379e-06 1
0.0994335 0.129733 0.178221 0.3415 0.062325 0.429425 5.14738e-06 1
0.087057 0.13518 0.17905 0.3415 0.062325 0.429425 2.02481e-06 1
0.0945422 0.127618 0.181017 0.3415 0.062325 0.429425 1.18307e-07 1
0.0933416 0.11982 0.180886 0.3415 0.062325 0.429425 2.76343e-06 1
0.0895488 0.133176 0.180382 0.3415 0.062325 0.429425 3.31189e-06 1
0.0830147 0.126378 0.175588 0.3415 0.062325 0.429425 2.9459e-06 1
0.0870296 0.120148 0.179266 0.3415 0.062325 0.429425 3.01437e-06 1
0.095374 0.123986 0.180808 0.3415 0.062325 0.429425 1.97615e-06 1
0.0879704 0.126694 0.179919 0.3415 0.062325 0.429425 2.27066e-06 1
0.0906583 0.121859 0.180417 0.3415 0.062325 0.429425 3.27689e-06 1
0.0940563 0.129587 0.179084 0.3415 0.062325 0.429425 3.74891e-06 1
0.087646 0.13318 0.179472 0.3415 0.062325 0.429425 2.03031e-06 1
0.0961449 0.128239 0.17605 0.3415 0.062325 0.429425 1.55703e-05 1
0.0957203 0.118466 0.178377 0.3415 0.062325 0.429425 6.43688e-06 1
0.0972346 0.124543 0.177707 0.3415 0.062325 0.429425 9.47508e-06 1
0.0928057 0.126015 0.180994 0.3415 0.062325 0.429425 1.8415e-06 1
0.0923348 0.12977 0.179116 0.3415 0.062325 0.429425 3.29394e-06 1
0.0913243 0.123136 0.182722 0.3415 0.062325 0.429425 9.92239e-07 1
0.0957158 0.125803 0.180746 0.3415 0.062325 0.429425 1.04357e-06 1
0.0906647 0.124692 0.180431 0.3415 0.062325 0.429425 5.3172e-06 1
0.100576 0.123948 0.179729 0.3415 0.062325 0.429425 1.85934e-06 1
0.1012 0.126107 0.179786 0.3415 0.062325 0.429425 2.93081e-06 1
0.106205 0.107448 0.172381 0.3415 0.062325 0.429425 2.57097e-06 1
0.105716 0.105823 0.172912 0.3415 0.062325 0.429425 6.17883e-07 1
0.101561 0.112161 0.179326 0.3415 0.062325 0.429425 5.28307e-07 1
0.100558 0.0987694 0.175536 0.3415 0.062325 0.429425 1.32657e-05 1
0.104555 0.111976 0.177049 0.3415 0.062325 0.429425 1.40563e-06 1
0.100117 0.10577 0.175676 0.3415 0.062325 0.429425 5.58801e-06 1
0.0955097 0.109648 0.18006 0.3415 0.062325 0.429425 4.50003e-07 1
0.0977251 0.104715 0.17939 0.3415 0.062325 0.429425 5.48621e-06 1
0.10596 0.109032 0.169016 0.3415 0.062325 0.429425 1.38699e-06 1
0.102738 0.102013 0.171129 0.3415 0.062325 0.429425 1.11302e-05 1
0.103168 0.108964 0.177622 0.3415 0.062325 0.429425 1.75957e-06 1
0.1045 0.094769 0.175803 0.3415 0.062325 0.429425 1.75621e-06 1
0.0954217 0.110334 0.177994 0.3415 0.062325 0.429425 1.49723e-06 1
0.0929914 0.105965 0.180359 0.3415 0.062325 0.429425 3.74527e-06 1
0.102099 0.11063 0.178893 0.3415 0.062325 0.429425 6.33405e-08 1
0.10315 0.113554 0.17852 0.3415 0.062325 0.429425 1.65176e-06 1
0.0973131 0.110025 0.177596 0.3415 0.062325 0.429425 4.01277e-06 1
0.104848 0.116907 0.174136 0.3415 0.062325 0.429425 3.37938e-06 1
0.106338 0.109053 0.170993 0.3415 0.062325 0.429425 2.47538e-06 1
0.0969347 0.11274 0.180549 0.3415 0.062325 0.429425 1.08337e-06 1
0.105484 0.105875 0.17118 0.3415 0.062325 0.429425 7.04013e-07 1
0.104536 0.108916 0.176564 0.3415 0.062325 0.429425 1.51822e-06 1
0.0986586 0.0980978 0.178757 0.3415 0.062325 0.429425 2.73131e-06 1
0.105574 0.0973866 0.174773 0.3415 0.062325 0.429425 2.96668e-06 1
0.102532 0.107759 0.180761 0.3415 0.062325 0.429425 9.34019e-08 1
0.106913 0.0979602 0.173127 0.3415 0.062325 0.429425 9.3285e-07 1
0.1036 0.106093 0.17949 0.3415 0.062325 0.429425 6.48963e-07 1
0.107028 0.101425 0.1714 0.3415 0.062325 0.429425 8.45772e-07 1
0.107325 0.101517 0.169477 0.3415 0.062325 0.429425 3.33131e-07 1
0.107255 0.103578 0.171403 0.3415 0.062325 0.429425 8.67449e-09 1
0.0969941 0.108665 0.182512 0.3415 0.062325 0.429425 4.60281e-07 1
0.106233 0.112027 0.17456 0.3415 0.062325 0.429425 1.43585e-06 1
0.0954892 0.107209 0.179985 0.3415 0.062325 0.429425 6.53203e-06 1
0.102723 0.106794 0.17779 0.3415 0.062325 0.429425 2.92643e-06 1
0.100781 0.11841 0.177198 0.3415 0.062325 0.429425 1.73377e-06 1
0.0978854 0.12054 0.175217 0.3415 0.062325 0.429425 1.43722e-05 1
0.0985951 0.113897 0.180284 0.3415 0.062325 0.429425 1.00353e-06 1
0.0986157 0.116337 0.180359 0.3415 0.062325 0.429425 1.57154e-06 1
0.0996883 0.112514 0.179843 0.3415 0.062325 0.429425 1.8549e-06 1
0.101223 0.106396 0.172299 0.3415 0.062325 0.429425 1.08777e-05 1
0.103684 0.0925852 0.175986 0.3415 0.062325 0.429425 1.23803e-06 1
0.102465 0.0894369 0.178837 0.3415 0.062325 0.429425 1.2974e-06 1
0.102814 0.116968 0.176388 0.3415 0.062325 0.429425 3.17406e-06 1
0.099247 0.117885 0.180183 0.3415 0.062325 0.429425 1.12779e-06 1
0.105909 0.107356 0.174304 0.3415 0.062325 0.429425 1.05568e-06 1
0.102351 0.112145 0.17896 0.3415 0.062325 0.429425 9.88816e-07 1
0.0955691 0.114347 0.18058 0.3415 0.062325 0.429425 2.88771e-06 1
0.105763 0.113461 0.175576 0.3415 0.062325 0.429425 1.86031e-06 1
0.0943342 0.117634 0.178333 0.3415 0.062325 0.429425 2.86507e-06 1
0.105594 0.10748 0.168673 0.3415 0.062325 0.429425 8.09067e-07 1
0.101041 0.113597 0.179498 0.3415 0.062325 0.429425 8.82505e-07 1
0.105593 0.10892 0.175089 0.3415 0.062325 0.429425 1.55086e-06 1
0.104275 0.113463 0.177629 0.3415 0.062325 0.429425 7.02816e-07 1
0.0997411 0.0965856 0.175719 0.3415 0.062325 0.429425 3.62027e-06 1
0.101632 0.101387 0.174506 0.3415 0.062325 0.429425 9.32427e-06 1
0.104251 0.120661 0.177969 0.3415 0.062325 0.429425 2.5471e-06 1
0.101566 0.120774 0.179371 0.3415 0.062325 0.429425 1.55026e-06 1
0.105414 0.119085 0.176971 0.3415 0.062325 0.429425 7.61772e-07 1
0.106681 0.112068 0.172387 0.3415 0.062325 0.429425 2.38179e-06 1
0.103116 0.119282 0.178627 0.3415 0.062325 0.429425 1.8176e-06 1
0.101121 0.11924 0.179331 0.3415 0.062325 0.429425 1.10625e-06 1
0.103939 0.116876 0.175497 0.3415 0.062325 0.429425 1.34267e-06 1
0.101495 0.116994 0.177 0.3415 0.062325 0.429425 1.69429e-06 1
0.0987588 0.107407 0.176986 0.3415 0.062325 0.429425 7.48795e-06 1
0.1009 0.114818 0.163909 0.3415 0.062325 0.429425 4.07304e-06 1
0.104934 0.117185 0.169479 0.3415 0.062325 0.429425 3.32617e-06 1
0.101381 0.112593 0.161117 0.3415 0.062325 0.429425 1.95475e-07 1
0.102769 0.117471 0.166998 0.3415 0.062325 0.429425 2.87794e-06 1
0.10595 0.113755 0.16816 0.3415 0.062325 0.429425 2.20054e-06 1
0.103539 0.109026 0.165822 0.3415 0.062325 0.429425 2.69063e-06 1
0.101774 0.10211 0.167581 0.3415 0.062325 0.429425 8.4439e-06 1
0.0991477 0.110891 0.163502 0.3415 0.062325 0.429425 8.50301e-06 1
0.100259 0.106493 0.168751 0.3415 0.062325 0.429425 7.69198e-06 1
0.0991363 0.0993552 0.165863 0.3415 0.062325 0.429425 2e-05 1
0.101166 0.0927915 0.168075 0.3415 0.062325 0.429425 5.84572e-06 1
0.107268 0.121868 0.164694 0.3415 0.062325 0.429425 3.3587e-07 1
0.100697 0.118233 0.166212 0.3415 0.062325 0.429425 7.21329e-06 1
0.102973 0.114056 0.164695 0.3415 0.062325 0.429425 1.96731e-06 1
0.104333 0.107484 0.167048 0.3415 0.062325 0.429425 3.50815e-06 1
0.0982708 0.0965259 0.170706 0.3415 0.062325 0.429425 2.72657e-05 1
0.0997866 0.0892893 0.168032 0.3415 0.062325 0.429425 1.14282e-05 1
0.104121 0.114003 0.165669 0.3415 0.062325 0.429425 1.99838e-06 1
0.0963011 0.112077 0.162898 0.3415 0.062325 0.429425 7.9445e-06 1
0.0949753 0.114992 0.162836 0.3415 0.062325 0.429425 7.14197e-06 1
0.100953 0.111527 0.164118 0.3415 0.062325 0.429425 5.87492e-06 1
0.105007 0.122857 0.165676 0.3415 0.062325 0.429425 6.68452e-06 1
0.106196 0.120271 0.166811 0.3415 0.062325 0.429425 1.61841e-06 1
0.103917 0.117417 0.167972 0.3415 0.062325 0.429425 2.94685e-06 1
0.100362 0.124481 0.162691 0.3415 0.062325 0.429425 2.1303e-06 1
0.103156 0.121069 0.163837 0.3415 0.062325 0.429425 2.33787e-06 1
0.104633 0.112264 0.166589 0.3415 0.062325 0.429425 3.04636e-06 1
0.106278 0.112052 0.16902 0.3415 0.062325 0.429425 1.33577e-06 1
0.0855474 0.144981 0.178088 0.3415 0.062325 0.429425 2.64814e-06 1
0.0827328 0.138696 0.168853 0.3415 0.062325 0.429425 7.45886e-07 1
0.0902703 0.141405 0.178053 0.3415 0.062325 0.429425 9.1223e-06 1
0.0830032 0.129074 0.175125 0.3415 0.062325 0.429425 1.76525e-06 1
0.083424 0.154888 0.177933 0.3415 0.062325 0.429425 1.46963e-06 1
0.0922552 0.143474 0.178615 0.3415 0.062325 0.429425 2.80878e-06 1
0.0820597 0.130365 0.173011 0.3415 0.062325 0.429425 1.27707e-06 1
0.0851746 0.157867 0.176062 0.3415 0.062325 0.429425 2.75668e-06 1
0.0835994 0.158773 0.173094 0.3415 0.062325 0.429425 5.96679e-06 1
0.0864324 0.132565 0.171458 0.3415 0.062325 0.429425 1.06068e-05 1
0.0892178 0.154545 0.177152 0.3415 0.062325 0.429425 7.68373e-06 1
0.0845729 0.135464 0.17522 0.3415 0.062325 0.429425 2.25614e-06 1
0.0883579 0.139441 0.177131 0.3415 0.062325 0.429425 2.53078e-06 1
0.0913601 0.147828 0.18049 0.3415 0.062325 0.429425 2.28934e-06 1
0.0821026 0.141587 0.171214 0.3415 0.062325 0.429425 2.92588e-06 1
0.0861394 0.142279 0.178505 0.3415 0.062325 0.429425 2.53389e-06 1
0.088062 0.151455 0.179443 0.3415 0.062325 0.429425 4.96246e-06 1
0.089378 0.14835 0.179932 0.3415 0.062325 0.429425 4.27906e-06 1
0.0839835 0.144814 0.176367 0.3415 0.062325 0.429425 5.56594e-06 1
0.0908767 0.139139 0.18089 0.3415 0.062325 0.429425 3.27824e-06 1
0.0942642 0.139026 0.18158 0.3415 0.062325 0.429425 3.43602e-06 1
0.0956396 0.141215 0.181762 0.3415 0.062325 0.429425 1.88895e-06 1
0.0855164 0.134173 0.177334 0.3415 0.062325 0.429425 5.21588e-06 1
0.0808222 0.130348 0.175237 0.3415 0.062325 0.429425 2.5439e-07 1
0.0821086 0.141376 0.169632 0.3415 0.062325 0.429425 1.76391e-06 1
0.0820755 0.12631 0.173843 0.3415 0.062325 0.429425 1.01951e-06 1
0.0808051 0.1357 0.174873 0.3415 0.062325 0.429425 4.63289e-07 1
0.0880518 0.144242 0.179426 0.3415 0.062325 0.429425 5.17264e-06 1
0.0845669 0.136461 0.175219 0.3415 0.062325 0.429425 1.6936e-06 1
0.0847599 0.151667 0.176045 0.3415 0.062325 0.429425 7.46506e-06 1
0.0861438 0.15005 0.178521 0.3415 0.062325 0.429425 2.43107e-06 1
0.0833931 0.148603 0.168377 0.3415 0.062325 0.429425 5.95247e-06 1
0.0822426 0.148372 0.17144 0.3415 0.062325 0.429425 4.05627e-06 1
0.0820772 0.144153 0.172196 0.3415 0.062325 0.429425 5.02967e-06 1
0.0858667 0.139288 0.173141 0.3415 0.062325 0.429425 5.41542e-06 1
0.0830289 0.142101 0.175067 0.3415 0.062325 0.429425 4.97445e-06 1
0.0831934 0.149022 0.17432 0.3415 0.062325 0.429425 4.02739e-06 1
0.0864947 0.138671 0.170781 0.3415 0.062325 0.429425 8.99268e-06 1
0.0928616 0.141209 0.181452 0.3415 0.062325 0.429425 1.46565e-06 1
0.0842502 0.135701 0.170585 0.3415 0.062325 0.429425 2.11091e-06 1
0.0836223 0.136318 0.172945 0.3415 0.062325 0.429425 1.25456e-06 1
0.0936261 0.143696 0.178788 0.3415 0.062325 0.429425 2.94134e-06 1
0.0858104 0.132185 0.173818 0.3415 0.062325 0.429425 5.10328e-06 1
0.0830092 0.128077 0.175126 0.3415 0.062325 0.429425 2.25442e-07 1
0.0971514 0.142853 0.175842 0.3415 0.062325 0.429425 1.64078e-05 1
0.0949767 0.143734 0.178845 0.3415 0.062325 0.429425 2.81033e-06 1
0.0865105 0.154646 0.174174 0.3415 0.062325 0.429425 1.10208e-05 1
0.0868113 0.139431 0.175415 0.3415 0.062325 0.429425 6.45459e-06 1
0.0986297 0.156078 0.166046 0.3415 0.062325 0.429425 1.64401e-05 1
0.0925576 0.158168 0.162145 0.3415 0.062325 0.429425 1.15131e-05 1
0.094213 0.160406 0.161945 0.3415 0.062325 0.429425 6.53443e-06 1
0.0976866 0.162544 0.165148 0.3415 0.062325 0.429425 8.48763e-06 1
0.0860945 0.152232 0.169386 0.3415 0.062325 0.429425 1.09298e-05 1
0.0952463 0.153016 0.169318 0.3415 0.062325 0.429425 2.70965e-05 1
0.0975211 0.137469 0.159167 0.3415 0.062325 0.429425 7.92463e-07 1
0.0919596 0.152807 0.165392 0.3415 0.062325 0.429425 9.2029e-06 1
0.0933376 0.145849 0.162424 0.3415 0.062325 0.429425 1.7395e-05 1
0.0948701 0.149523 0.162203 0.3415 0.062325 0.429425 4.24718e-06 1
0.0888579 0.146109 0.16312 0.3415 0.062325 0.429425 9.64537e-06 1
0.0960677 0.138601 0.159267 0.3415 0.062325 0.429425 1.36315e-06 1
0.103564 0.153198 0.159965 0.3415 0.062325 0.429425 7.18656e-07 1
0.101898 0.151566 0.159357 0.3415 0.062325 0.429425 5.84706e-07 1
0.0887573 0.151602 0.166321 0.3415 0.062325 0.429425 9.35631e-06 1
0.0968481 0.167242 0.161687 0.3415 0.062325 0.429425 7.67435e-06 1
0.0847915 0.155797 0.167172 0.3415 0.062325 0.429425 1.07307e-05 1
0.0950752 0.140933 0.169736 0.3415 0.062325 0.429425 2.08551e-05 1
0.0981567 0.149731 0.166129 0.3415 0.062325 0.429425 1.65171e-05 1
0.0844241 0.143947 0.16603 0.3415 0.062325 0.429425 7.97251e-06 1
0.0864166 0.167576 0.161137 0.3415 0.062325 0.429425 8.70504e-07 1
0.0981793 0.143105 0.159284 0.3415 0.062325 0.429425 5.26433e-07 1
0.0984068 0.137906 0.166766 0.3415 0.062325 0.429425 1.58481e-05 1
0.0954187 0.147448 0.159066 0.3415 0.062325 0.429425 1.04007e-06 1
0.0913188 0.167427 0.16634 0.3415 0.062325 0.429425 1.52394e-05 1
0.0878014 0.159165 0.163716 0.3415 0.062325 0.429425 8.69611e-06 1
0.100232 0.147175 0.169504 0.3415 0.062325 0.429425 1.97734e-05 1
0.106891 0.15047 0.164861 0.3415 0.062325 0.429425 2.07289e-06 1
0.103206 0.154425 0.163465 0.3415 0.062325 0.429425 8.39897e-06 1
0.0849133 0.164734 0.168347 0.3415 0.062325 0.429425 9.3064e-06 1
0.0872466 0.164957 0.164257 0.3415 0.062325 0.429425 9.23279e-06 1
0.0949011 0.164843 0.165172 0.3415 0.062325 0.429425 1.61247e-05 1
0.102373 0.150028 0.163368 0.3415 0.062325 0.429425 2.89188e-06 1
0.0993178 0.160515 0.169274 0.3415 0.062325 0.429425 2.85008e-05 1
0.0859005 0.157369 0.16475 0.3415 0.062325 0.429425 2.3772e-06 1
0.0876197 0.162337 0.163932 0.3415 0.062325 0.429425 1.54939e-06 1
0.104039 0.15166 0.163976 0.3415 0.062325 0.429425 8.68828e-06 1
0.100255 0.140548 0.162659 0.3415 0.062325 0.429425 1.55662e-05 1
0.104448 0.147472 0.166743 0.3415 0.062325 0.429425 4.04922e-06 1
0.0969985 0.158107 0.16192 0.3415 0.062325 0.429425 4.8657e-06 1
0.0893553 0.156962 0.163073 0.3415 0.062325 0.429425 1.26948e-05 1
0.096923 0.143576 0.165628 0.3415 0.062325 0.429425 2.15333e-05 1
0.0981212 0.131135 0.159471 0.3415 0.062325 0.429425 2.67786e-07 1
0.0889869 0.119 0.163698 0.3415 0.062325 0.429425 8.10836e-06 1
0.0904923 0.131343 0.167767 0.3415 0.062325 0.429425 2.08192e-05 1
0.0982481 0.124963 0.162402 0.3415 0.062325 0.429425 5.08297e-06 1
0.089625 0.124119 0.163644 0.3415 0.062325 0.429425 9.32106e-06 1
0.089858 0.13918 0.16725 0.3415 0.062325 0.429425 1.18298e-05 1
0.0978136 0.129121 0.166533 0.3415 0.062325 0.429425 7.29156e-06 1
0.0874082 0.128104 0.165025 0.3415 0.062325 0.429425 1.32804e-05 1
0.0839162 0.140664 0.166735 0.3415 0.062325 0.429425 3.6718e-06 1
0.095503 0.124157 0.16598 0.3415 0.062325 0.429425 1.57022e-05 1
0.0872261 0.142082 0.163839 0.3415 0.062325 0.429425 8.43062e-06 1
0.0885894 0.131749 0.160621 0.3415 0.062325 0.429425 7.89755e-07 1
0.080489 0.135141 0.168657 0.3415 0.062325 0.429425 1.59754e-07 1
0.091105 0.134809 0.164106 0.3415 0.062325 0.429425 1.05891e-05 1
0.0876162 0.132824 0.169185 0.3415 0.062325 0.429425 6.17662e-06 1
0.0954973 0.134493 0.163606 0.3415 0.062325 0.429425 1.34387e-05 1
0.0902377 0.127585 0.159983 0.3415 0.062325 0.429425 1.05732e-06 1
0.0827257 0.14089 0.168256 0.3415 0.062325 0.429425 3.07496e-06 1
0.0804823 0.135626 0.167905 0.3415 0.062325 0.429425 1.27038e-07 1
0.0950684 0.128315 0.17011 0.3415 0.062325 0.429425 2.40265e-05 1
0.0864116 0.130934 0.162033 0.3415 0.062325 0.429425 2.185e-06 1
0.0876802 0.138365 0.168662 0.3415 0.062325 0.429425 6.08949e-06 1
0.0967348 0.127495 0.159291 0.3415 0.062325 0.429425 3.02901e-07 1
0.0854358 0.120021 0.165323 0.3415 0.062325 0.429425 1.86317e-06 1
0.0943024 0.118942 0.166449 0.3415 0.062325 0.429425 9.41702e-06 1
0.0873524 0.130963 0.165061 0.3415 0.062325 0.429425 9.48652e-07 1
0.0976298 0.131833 0.163689 0.3415 0.062325 0.429425 6.30589e-06 1
0.0972303 0.120078 0.169429 0.3415 0.062325 0.429425 1.94665e-05 1
0.101083 0.121831 0.163052 0.3415 0.062325 0.429425 5.56772e-06 1
0.0925751 0.123021 0.162999 0.3415 0.062325 0.429425 6.82013e-06 1
0.1073 0.167243 0.165287 0.3415 0.062325 0.429425 8.22556e-06 1
0.109697 0.167334 0.162853 0.3415 0.062325 0.429425 1.4831e-06 1
0.110339 0.155237 0.168148 0.3415 0.062325 0.429425 5.83605e-06 1
0.104031 0.160901 0.166624 0.3415 0.062325 0.429425 1.87237e-05 1
0.101484 0.164788 0.162164 0.3415 0.062325 0.429425 5.87028e-06 1
0.113347 0.148129 0.171048 0.3415 0.062325 0.429425 2.40635e-07 1
0.101911 0.16457 0.158946 0.3415 0.062325 0.429425 5.89944e-07 1
0.111642 0.157518 0.164823 0.3415 0.062325 0.429425 3.54392e-07 1
0.112933 0.149572 0.168801 0.3415 0.062325 0.429425 9.23879e-07 1
0.107719 0.146353 0.164964 0.3415 0.062325 0.429425 1.59453e-07 1
0.104419 0.165039 0.162965 0.3415 0.062325 0.429425 7.70994e-06 1
0.109342 0.16516 0.167242 0.3415 0.062325 0.429425 6.39869e-06 1
0.106935 0.161419 0.16893 0.3415 0.062325 0.429425 1.56829e-05 1
0.108229 0.150303 0.165929 0.3415 0.062325 0.429425 2.32149e-06 1
0.110767 0.151229 0.170486 0.3415 0.062325 0.429425 4.54656e-06 1
0.106287 0.156631 0.164236 0.3415 0.062325 0.429425 7.57859e-06 1
0.109605 0.151789 0.167421 0.3415 0.062325 0.429425 5.81198e-06 1
0.106023 0.147746 0.167396 0.3415 0.062325 0.429425 3.37261e-06 1
0.10919 0.157149 0.166543 0.3415 0.062325 0.429425 6.55557e-06 1
0.110481 0.149203 0.17052 0.3415 0.062325 0.429425 1.83844e-06 1
0.110516 0.152429 0.175671 0.3415 0.062325 0.429425 7.45681e-07 1
0.111675 0.156685 0.171208 0.3415 0.062325 0.429425 3.73016e-06 1
0.113473 0.162051 0.172214 0.3415 0.062325 0.429425 1.04358e-06 1
0.112936 0.172575 0.175321 0.3415 0.062325 0.429425 1.01424e-06 1
0.105603 0.16186 0.176799 0.3415 0.062325 0.429425 1.0199e-05 1
0.108038 0.152333 0.178659 0.3415 0.062325 0.429425 8.5712e-07 1
0.109301 0.166921 0.175832 0.3415 0.062325 0.429425 6.52558e-06 1
0.109651 0.155664 0.177501 0.3415 0.062325 0.429425 8.51143e-07 1
0.113632 0.163691 0.173715 0.3415 0.062325 0.429425 1.40739e-06 1
0.108407 0.156673 0.178649 0.3415 0.062325 0.429425 1.99062e-06 1
0.109618 0.152334 0.176991 0.3415 0.062325 0.429425 9.24196e-07 1
0.109882 0.164873 0.171542 0.3415 0.062325 0.429425 8.63079e-06 1
0.11335 0.173487 0.167871 0.3415 0.062325 0.429425 3.84593e-07 1
0.109922 0.170834 0.173848 0.3415 0.062325 0.429425 7.23989e-06 1
0.113497 0.15487 0.173351 0.3415 0.062325 0.429425 7.93717e-07 1
0.107475 0.161132 0.17323 0.3415 0.062325 0.429425 1.82846e-05 1
0.10727 0.166008 0.1779 0.3415 0.062325 0.429425 5.89562e-06 1
0.110661 0.170427 0.171058 0.3415 0.062325 0.429425 6.73173e-06 1
0.111168 0.155189 0.173542 0.3415 0.062325 0.429425 3.08231e-06 1
0.11004 0.166514 0.173042 0.3415 0.062325 0.429425 5.74468e-06 1
0.10737 0.158916 0.179448 0.3415 0.062325 0.429425 1.90277e-06 1
0.10988 0.172217 0.1687 0.3415 0.062325 0.429425 6.71448e-06 1
0.110994 0.153181 0.173548 0.3415 0.062325 0.429425 2.42629e-06 1
0.11056 0.156813 0.176236 0.3415 0.062325 0.429425 2.04392e-06 1
0.109238 0.153257 0.177654 0.3415 0.062325 0.429425 5.58163e-07 1
0.107286 0.154314 0.17931 0.3415 0.062325 0.429425 2.1613e-06 1
0.111067 0.15831 0.173902 0.3415 0.062325 0.429425 2.31615e-06 1
0.10536 0.129599 0.165046 0.3415 0.062325 0.429425 2.06127e-06 1
0.108451 0.14704 0.16999 0.3415 0.062325 0.429425 3.07791e-06 1
0.110323 0.138616 0.171212 0.3415 0.062325 0.429425 3.79156e-06 1
0.109177 0.142374 0.166872 0.3415 0.062325 0.429425 3.63767e-06 1
0.107361 0.14758 0.168464 0.3415 0.062325 0.429425 3.58962e-06 1
0.105577 0.126145 0.165798 0.3415 0.062325 0.429425 2.73085e-06 1
0.102924 0.136012 0.168412 0.3415 0.062325 0.429425 1.49557e-05 1
0.10621 0.136889 0.165026 0.3415 0.062325 0.429425 6.73689e-06 1
0.106079 0.124454 0.16356 0.3415 0.062325 0.429425 1.99876e-06 1
0.105387 0.144315 0.163599 0.3415 0.062325 0.429425 2.76651e-06 1
0.107582 0.144312 0.165033 0.3415 0.062325 0.429425 4.15978e-06 1
0.110819 0.142431 0.170577 0.3415 0.062325 0.429425 2.35242e-06 1
0.109854 0.136072 0.169774 0.3415 0.062325 0.429425 1.32903e-06 1
0.106641 0.133705 0.162767 0.3415 0.062325 0.429425 1.04873e-06 1
0.108359 0.145678 0.162543 0.3415 0.062325 0.429425 4.25953e-07 1
0.110404 0.143874 0.16833 0.3415 0.062325 0.429425 1.55301e-06 1
0.109391 0.13605 0.168595 0.3415 0.062325 0.429425 1.8718e-06 1
0.0998983 0.130465 0.166707 0.3415 0.062325 0.429425 1.06436e-05 1
0.101749 0.128121 0.162872 0.3415 0.062325 0.429425 1.88334e-06 1
0.103655 0.128715 0.163684 0.3415 0.062325 0.429425 3.3918e-06 1
0.104503 0.140991 0.163391 0.3415 0.062325 0.429425 7.26356e-06 1
0.10869 0.138274 0.167074 0.3415 0.062325 0.429425 4.79723e-06 1
0.102283 0.131231 0.168269 0.3415 0.062325 0.429425 1.31299e-05 1
0.107972 0.124229 0.173899 0.3415 0.062325 0.429425 1.0042e-06 1
0.10448 0.130311 0.170926 0.3415 0.062325 0.429425 7.54119e-06 1
0.109176 0.137724 0.174232 0.3415 0.062325 0.429425 6.63808e-06 1
0.110563 0.134593 0.174759 0.3415 0.062325 0.429425 1.62643e-06 1
0.106808 0.113554 0.170998 0.3415 0.062325 0.429425 2.37877e-06 1
0.110205 0.129105 0.168332 0.3415 0.062325 0.429425 2.13176e-07 1
0.104719 0.136527 0.174659 0.3415 0.062325 0.429425 1.26605e-05 1
0.108853 0.127712 0.172521 0.3415 0.062325 0.429425 7.78678e-07 1
0.107213 0.120039 0.168318 0.3415 0.062325 0.429425 2.21389e-06 1
0.108219 0.123719 0.17197 0.3415 0.062325 0.429425 2.02916e-06 1
0.104957 0.130191 0.172961 0.3415 0.062325 0.429425 5.16536e-06 1
0.109109 0.133744 0.169204 0.3415 0.062325 0.429425 4.9945e-07 1
0.105444 0.116958 0.171732 0.3415 0.062325 0.429425 4.1878e-06 1
0.105121 0.135092 0.171069 0.3415 0.062325 0.429425 7.74961e-06 1
0.107655 0.118977 0.17196 0.3415 0.062325 0.429425 1.71439e-06 1
0.10833 0.126572 0.173908 0.3415 0.062325 0.429425 6.26604e-07 1
0.108222 0.127223 0.16909 0.3415 0.062325 0.429425 2.2539e-06 1
0.107849 0.121046 0.170572 0.3415 0.062325 0.429425 2.87598e-06 1
0.107015 0.122975 0.175139 0.3415 0.062325 0.429425 1.95149e-06 1
0.10706 0.118926 0.174365 0.3415 0.062325 0.429425 1.54906e-06 1
0.107281 0.127029 0.167161 0.3415 0.062325 0.429425 1.66578e-06 1
0.106449 0.12035 0.175612 0.3415 0.062325 0.429425 2.21321e-06 1
0.108562 0.126203 0.171122 0.3415 0.062325 0.429425 1.99074e-06 1
0.0994016 0.161261 0.175481 0.3415 0.062325 0.429425 2.01675e-05 1
0.0960674 0.168642 0.180936 0.3415 0.062325 0.429425 6.37336e-06 1
0.101353 0.157675 0.181603 0.3415 0.062325 0.429425 3.11401e-06 1
0.0884651 0.160078 0.179548 0.3415 0.062325 0.429425 1.9332e-06 1
0.0985643 0.158923 0.178703 0.3415 0.062325 0.429425 6.18904e-06 1
0.103957 0.157069 0.18103 0.3415 0.062325 0.429425 2.18754e-06 1
0.100737 0.165544 0.180676 0.3415 0.062325 0.429425 4.72478e-06 1
0.0991685 0.16796 0.180878 0.3415 0.062325 0.429425 8.31199e-06 1
0.0946071 0.149651 0.178382 0.3415 0.062325 0.429425 1.37792e-05 1
0.0897785 0.163481 0.180154 0.3415 0.062325 0.429425 5.50025e-06 1
0.0974757 0.163434 0.177833 0.3415 0.062325 0.429425 6.89442e-06 1
0.103369 0.16215 0.178022 0.3415 0.062325 0.429425 7.44129e-06 1
0.0898303 0.158228 0.180054 0.3415 0.062325 0.429425 3.8772e-06 1
0.0947812 0.166101 0.1807 0.3415 0.062325 0.429425 6.5491e-06 1
0.104047 0.167868 0.179944 0.3415 0.062325 0.429425 1.39379e-06 1
0.0938019 0.1596 0.180995 0.3415 0.062325 0.429425 2.93537e-06 1
0.0924856 0.157748 0.180761 0.3415 0.062325 0.429425 3.98283e-06 1
0.0965889 0.149574 0.181402 0.3415 0.062325 0.429425 2.27508e-06 1
0.0998355 0.156193 0.181732 0.3415 0.062325 0.429425 2.20258e-06 1
0.104484 0.151147 0.180483 0.3415 0.062325 0.429425 2.73544e-06 1
0.10181 0.149782 0.181406 0.3415 0.062325 0.429425 1.75982e-06 1
0.0972646 0.152094 0.181554 0.3415 0.062325 0.429425 4.82808e-06 1
0.103135 0.149756 0.180969 0.3415 0.062325 0.429425 1.90506e-06 1
0.10507 0.154421 0.180468 0.3415 0.062325 0.429425 2.8614e-06 1
0.0946211 0.163309 0.177799 0.3415 0.062325 0.429425 5.67119e-06 1
0.0957309 0.155589 0.178598 0.3415 0.062325 0.429425 6.48873e-06 1
0.0970473 0.157441 0.178832 0.3415 0.062325 0.429425 7.25993e-06 1
0.0937808 0.153262 0.175533 0.3415 0.062325 0.429425 1.98648e-05 1
0.0998853 0.15242 0.181662 0.3415 0.062325 0.429425 3.86447e-06 1
0.0932973 0.165822 0.177673 0.3415 0.062325 0.429425 9.68048e-06 1
0.105136 0.159206 0.18067 0.3415 0.062325 0.429425 1.38329e-06 1
0.10322 0.166154 0.180189 0.3415 0.062325 0.429425 2.96544e-06 1
0.108923 0.150172 0.177565 0.3415 0.062325 0.429425 1.15243e-06 1
0.104858 0.140753 0.179304 0.3415 0.062325 0.429425 4.17704e-06 1
0.103426 0.143054 0.180064 0.3415 0.062325 0.429425 1.79889e-06 1
0.107698 0.148985 0.178707 0.3415 0.062325 0.429425 7.20013e-07 1
0.107791 0.148104 0.175715 0.3415 0.062325 0.429425 3.8542e-06 1
0.107372 0.142859 0.178217 0.3415 0.062325 0.429425 1.73602e-06 1
0.100987 0.140727 0.178514 0.3415 0.062325 0.429425 6.79858e-06 1
0.0969902 0.141253 0.181819 0.3415 0.062325 0.429425 1.81153e-06 1
0.11287 0.147377 0.173171 0.3415 0.062325 0.429425 7.99749e-07 1
0.101487 0.135337 0.180431 0.3415 0.062325 0.429425 4.26099e-06 1
0.107297 0.130719 0.178287 0.3415 0.062325 0.429425 1.06521e-06 1
0.0982368 0.139281 0.181581 0.3415 0.062325 0.429425 3.07801e-06 1
0.0959732 0.147729 0.178545 0.3415 0.062325 0.429425 1.01205e-06 1
0.111059 0.147732 0.172634 0.3415 0.062325 0.429425 4.05915e-07 1
0.106202 0.128566 0.179524 0.3415 0.062325 0.429425 1.57129e-06 1
0.0994551 0.141529 0.181466 0.3415 0.062325 0.429425 1.32558e-06 1
0.100383 0.142621 0.178702 0.3415 0.062325 0.429425 1.87429e-06 1
0.109084 0.148114 0.17223 0.3415 0.062325 0.429425 3.67514e-06 1
0.106566 0.146917 0.176857 0.3415 0.062325 0.429425 1.62528e-06 1
0.105855 0.148932 0.179803 0.3415 0.062325 0.429425 8.92649e-07 1
0.105431 0.146814 0.177446 0.3415 0.062325 0.429425 2.16545e-06 1
0.0973238 0.147767 0.178602 0.3415 0.062325 0.429425 2.28929e-06 1
0.0994985 0.146886 0.175599 0.3415 0.062325 0.429425 1.6366e-05 1
0.104056 0.146628 0.178022 0.3415 0.062325 0.429425 2.32261e-06 1
0.10056 0.149937 0.181566 0.3415 0.062325 0.429425 1.93224e-06 1
0.107194 0.150224 0.179138 0.3415 0.062325 0.429425 1.06879e-06 1
0.108892 0.149388 0.17432 0.3415 0.062325 0.429425 1.9664e-06 1
0.10273 0.146654 0.178459 0.3415 0.062325 0.429425 2.15146e-06 1
0.108732 0.141593 0.176487 0.3415 0.062325 0.429425 4.69426e-06 1
0.1099 0.145268 0.175531 0.3415 0.062325 0.429425 3.49393e-06 1
0.102654 0.130092 0.175969 0.3415 0.062325 0.429425 1.26129e-05 1
0.106106 0.133396 0.175186 0.3415 0.062325 0.429425 2.87931e-06 1
0.103802 0.133297 0.178193 0.3415 0.062325 0.429425 8.30391e-06 1
0.106149 0.127514 0.176062 0.3415 0.062325 0.429425 3.51883e-06 1
0.102419 0.138425 0.177753 0.3415 0.062325 0.429425 5.05174e-06 1
0.106238 0.142756 0.178806 0.3415 0.062325 0.429425 2.26303e-06 1
0.11084 0.145214 0.172641 0.3415 0.062325 0.429425 4.63811e-06 1
0.100432 0.17547 0.161506 0.3415 0.062325 0.429425 2.11526e-06 1
0.103844 0.184358 0.163583 0.3415 0.062325 0.429425 1.4836e-05 1
0.106709 0.173631 0.164456 0.3415 0.062325 0.429425 6.64506e-06 1
0.104051 0.175193 0.162854 0.3415 0.062325 0.429425 1.20288e-05 1
0.108724 0.170912 0.166406 0.3415 0.062325 0.429425 4.82912e-06 1
0.0984547 0.175639 0.161468 0.3415 0.062325 0.429425 4.13793e-06 1
0.107051 0.185133 0.166039 0.3415 0.062325 0.429425 1.37577e-05 1
0.10494 0.17838 0.169934 0.3415 0.062325 0.429425 2.35405e-05 1
0.104031 0.188321 0.168531 0.3415 0.062325 0.429425 9.45989e-06 1
0.109105 0.173722 0.162022 0.3415 0.062325 0.429425 6.70553e-07 1
0.10406 0.194502 0.16896 0.3415 0.062325 0.429425 9.68322e-06 1
0.104752 0.186339 0.15989 0.3415 0.062325 0.429425 5.10916e-07 1
0.100629 0.190404 0.165995 0.3415 0.062325 0.429425 1.00651e-05 1
0.0991106 0.183786 0.158088 0.3415 0.062325 0.429425 9.75248e-08 1
0.108385 0.181691 0.169096 0.3415 0.062325 0.429425 9.83651e-06 1
0.109357 0.176364 0.169476 0.3415 0.062325 0.429425 5.19207e-06 1
0.107305 0.169565 0.165308 0.3415 0.062325 0.429425 3.23586e-06 1
0.112805 0.179007 0.167131 0.3415 0.062325 0.429425 7.01978e-07 1
0.112802 0.179675 0.168637 0.3415 0.062325 0.429425 1.34517e-06 1
0.0948709 0.185244 0.165153 0.3415 0.062325 0.429425 5.68751e-06 1
0.112255 0.17667 0.166277 0.3415 0.062325 0.429425 3.17385e-07 1
0.0982026 0.181806 0.161781 0.3415 0.062325 0.429425 1.16615e-07 1
0.0957789 0.187224 0.161459 0.3415 0.062325 0.429425 6.73915e-06 1
0.0994456 0.167698 0.161586 0.3415 0.062325 0.429425 3.41488e-06 1
0.106705 0.171309 0.164435 0.3415 0.062325 0.429425 7.99779e-07 1
0.0964527 0.172428 0.161683 0.3415 0.062325 0.429425 1.05917e-05 1
0.101296 0.167543 0.162087 0.3415 0.062325 0.429425 4.9846e-06 1
0.0984151 0.184662 0.161738 0.3415 0.062325 0.429425 6.9272e-06 1
0.101487 0.187338 0.162621 0.3415 0.062325 0.429425 1.42644e-05 1
0.097095 0.187713 0.164985 0.3415 0.062325 0.429425 5.7459e-06 1
0.0946461 0.17557 0.161766 0.3415 0.062325 0.429425 8.35586e-06 1
0.102077 0.172561 0.162048 0.3415 0.062325 0.429425 5.61365e-06 1
0.0991406 0.179102 0.165042 0.3415 0.062325 0.429425 2.90082e-06 1
0.09206 0.175487 0.162425 0.3415 0.062325 0.429425 1.1462e-05 1
0.0979642 0.17927 0.165076 0.3415 0.062325 0.429425 5.05845e-06 1
0.108785 0.1754 0.167106 0.3415 0.062325 0.429425 5.54111e-06 1
0.0959527 0.179657 0.165201 0.3415 0.062325 0.429425 8.23649e-06 1
0.0933666 0.179574 0.16586 0.3415 0.062325 0.429425 1.15457e-05 1
0.099819 0.172717 0.16151 0.3415 0.062325 0.429425 4.15484e-06 1
0.0914223 0.176753 0.166979 0.3415 0.062325 0.429425 1.11655e-05 1
0.10171 0.178978 0.165961 0.3415 0.062325 0.429425 1.63899e-05 1
0.104285 0.187101 0.173146 0.3415 0.062325 0.429425 1.56125e-05 1
0.103683 0.171514 0.180204 0.3415 0.062325 0.429425 2.78758e-06 1
0.108062 0.190816 0.168908 0.3415 0.062325 0.429425 1.5108e-05 1
0.105968 0.179247 0.178221 0.3415 0.062325 0.429425 7.03628e-07 1
0.101099 0.186533 0.180373 0.3415 0.062325 0.429425 1.39411e-05 1
0.108316 0.189596 0.173522 0.3415 0.062325 0.429425 1.53732e-05 1
0.101838 0.182758 0.180215 0.3415 0.062325 0.429425 9.28759e-06 1
0.105342 0.173581 0.179251 0.3415 0.062325 0.429425 6.98001e-06 1
0.102375 0.195 0.175542 0.3415 0.062325 0.429425 9.99216e-06 1
0.103245 0.185038 0.18305 0.3415 0.062325 0.429425 2.81572e-06 1
0.101382 0.189483 0.177137 0.3415 0.062325 0.429425 9.44555e-06 1
0.107962 0.194858 0.179641 0.3415 0.062325 0.429425 4.20388e-06 1
0.105413 0.191978 0.177513 0.3415 0.062325 0.429425 1.06185e-05 1
0.107919 0.18324 0.17454 0.3415 0.062325 0.429425 1.54906e-05 1
0.113647 0.174876 0.174028 0.3415 0.062325 0.429425 5.5194e-07 1
0.112404 0.185932 0.174121 0.3415 0.062325 0.429425 2.88895e-06 1
0.112252 0.181765 0.1749 0.3415 0.062325 0.429425 9.74316e-07 1
0.104686 0.17733 0.175226 0.3415 0.062325 0.429425 5.46422e-06 1
0.105554 0.177707 0.17382 0.3415 0.062325 0.429425 6.84295e-06 1
0.108999 0.181018 0.172982 0.3415 0.062325 0.429425 1.51597e-06 1
0.105756 0.181847 0.178374 0.3415 0.062325 0.429425 1.10283e-05 1
0.10922 0.179995 0.180139 0.3415 0.062325 0.429425 6.28553e-07 1
0.102953 0.177507 0.176748 0.3415 0.062325 0.429425 9.87478e-06 1
0.105863 0.168012 0.178878 0.3415 0.062325 0.429425 3.394e-06 1
0.10926 0.173391 0.174655 0.3415 0.062325 0.429425 7.09936e-06 1
0.108307 0.173554 0.176878 0.3415 0.062325 0.429425 2.83206e-06 1
0.0994502 0.178598 0.177979 0.3415 0.062325 0.429425 1.19757e-05 1
0.109971 0.175691 0.173362 0.3415 0.062325 0.429425 9.48163e-07 1
0.106817 0.1713 0.178227 0.3415 0.062325 0.429425 5.35818e-06 1
0.0994443 0.175374 0.18093 0.3415 0.062325 0.429425 9.72552e-06 1
0.101287 0.172216 0.180651 0.3415 0.062325 0.429425 8.4429e-06 1
0.0809256 0.182835 0.174296 0.3415 0.062325 0.429425 2.11918e-06 1
0.0860436 0.170196 0.161461 0.3415 0.062325 0.429425 4.6171e-07 1
0.0850423 0.184316 0.173863 0.3415 0.062325 0.429425 9.80532e-06 1
0.0843672 0.185077 0.168819 0.3415 0.062325 0.429425 2.25508e-06 1
0.0858713 0.192029 0.165433 0.3415 0.062325 0.429425 2.18675e-06 1
0.0838182 0.192224 0.172091 0.3415 0.062325 0.429425 8.52051e-06 1
0.0877283 0.191396 0.177676 0.3415 0.062325 0.429425 1.35182e-05 1
0.0839887 0.162309 0.169957 0.3415 0.062325 0.429425 4.22647e-06 1
0.0813494 0.164978 0.170502 0.3415 0.062325 0.429425 2.00302e-06 1
0.083176 0.18674 0.179175 0.3415 0.062325 0.429425 3.52664e-07 1
0.0850368 0.188553 0.180159 0.3415 0.062325 0.429425 3.84534e-06 1
0.0836323 0.159118 0.168992 0.3415 0.062325 0.429425 5.10954e-06 1
0.0862601 0.183902 0.17709 0.3415 0.062325 0.429425 1.04141e-06 1
0.082274 0.167403 0.168892 0.3415 0.062325 0.429425 2.12381e-06 1
0.0856236 0.1864 0.166606 0.3415 0.062325 0.429425 2.02989e-06 1
0.0840805 0.186373 0.170883 0.3415 0.062325 0.429425 6.04042e-06 1
0.0848607 0.193672 0.175256 0.3415 0.062325 0.429425 1.03247e-05 1
0.0802507 0.179884 0.169185 0.3415 0.062325 0.429425 5.09018e-07 1
