ply
format ascii 1.0
comment Created by Open3D
element vertex 667
property float32 x
property float32 y
property float32 z
property float32 red
property float32 green
property float32 blue
property float32 volume
property uint8 segmentation
end_header
0.0926185 -0.0346575 0.00193053 0.001462 0.000466 0.013866 2.41129e-06 0
0.0869692 -0.0279278 -0.00212857 0.001462 0.000466 0.013866 3.09955e-06 0
0.10118 -0.0454021 0.00326275 0.001462 0.000466 0.013866 1.1463e-05 0
0.0955215 -0.0340024 9.18525e-07 0.001462 0.000466 0.013866 3.66917e-06 0
0.0914629 -0.0340244 -0.000439838 0.001462 0.000466 0.013866 1.29486e-06 0
0.0900572 -0.0274336 -0.000781837 0.001462 0.000466 0.013866 1.01117e-05 0
0.0938132 -0.0382547 0.00164022 0.001462 0.000466 0.013866 4.83915e-06 0
0.0937542 -0.0321717 -0.000259009 0.001462 0.000466 0.013866 3.81721e-07 0
0.0930424 -0.0378781 -0.00199478 0.001462 0.000466 0.013866 4.12772e-06 0
0.0939706 -0.0396545 -0.000635107 0.001462 0.000466 0.013866 2.11612e-06 0
0.0844367 -0.0208476 0.000404617 0.001462 0.000466 0.013866 1.13369e-06 0
0.0962635 -0.0360745 -2.34794e-05 0.001462 0.000466 0.013866 2.1468e-06 0
0.0910683 -0.031624 -0.000308924 0.001462 0.000466 0.013866 1.07485e-05 0
0.0970776 -0.0379431 0.000440093 0.001462 0.000466 0.013866 2.57798e-06 0
0.0975925 -0.0423815 0.000222131 0.001462 0.000466 0.013866 8.06034e-06 0
0.101033 -0.0433084 0.00124817 0.001462 0.000466 0.013866 1.79934e-05 0
0.0962608 -0.0364 -0.0026955 0.001462 0.000466 0.013866 4.71805e-06 0
0.087529 -0.0261324 0.00177914 0.001462 0.000466 0.013866 4.1669e-06 0
0.0845662 -0.0229494 0.0018435 0.001462 0.000466 0.013866 4.38498e-07 0
0.085807 -0.0206549 -0.000273942 0.001462 0.000466 0.013866 1.51557e-06 0
0.086325 -0.0256819 0.000897106 0.001462 0.000466 0.013866 1.89521e-06 0
0.0856257 -0.0240906 -0.000371444 0.001462 0.000466 0.013866 7.38926e-07 0
0.0850776 -0.0215505 0.000756868 0.001462 0.000466 0.013866 7.80693e-07 0
0.0872312 -0.0225753 -0.000512521 0.001462 0.000466 0.013866 3.83096e-06 0
0.0879255 -0.0242207 0.00260562 0.001462 0.000466 0.013866 2.8458e-06 0
0.088077 -0.0230848 5.45601e-05 0.001462 0.000466 0.013866 9.91492e-07 0
0.0940279 -0.0360062 -0.000476396 0.001462 0.000466 0.013866 7.62206e-06 0
0.0920136 -0.0382581 -0.000341731 0.001462 0.000466 0.013866 4.96769e-07 0
0.0918688 -0.0314496 0.00206661 0.001462 0.000466 0.013866 3.4043e-06 0
0.0943623 -0.0327571 -2.1908e-06 0.001462 0.000466 0.013866 3.00694e-06 0
0.0928723 -0.035373 -0.00284676 0.001462 0.000466 0.013866 4.64672e-06 0
0.0895774 -0.0333023 0.00188578 0.001462 0.000466 0.013866 2.07031e-06 0
0.0932456 -0.0340489 0.00285196 0.001462 0.000466 0.013866 1.35954e-06 0
0.105326 -0.042248 0.000324334 0.001462 0.000466 0.013866 4.38305e-07 0
0.0984573 -0.044076 -0.00393016 0.001462 0.000466 0.013866 1.06831e-06 0
0.106082 -0.0468274 -0.00151461 0.001462 0.000466 0.013866 1.60807e-05 0
0.106146 -0.0484197 -0.00409489 0.001462 0.000466 0.013866 2.06466e-06 0
0.0978801 -0.0423135 -0.00444149 0.001462 0.000466 0.013866 4.72692e-07 0
0.101032 -0.0365952 -2.48493e-05 0.001462 0.000466 0.013866 1.34371e-05 0
0.107691 -0.0439358 -3.02609e-05 0.001462 0.000466 0.013866 1.61434e-05 0
0.100874 -0.0458782 -0.00480329 0.001462 0.000466 0.013866 1.35771e-06 0
0.10523 -0.0441108 -0.0028461 0.001462 0.000466 0.013866 6.77215e-06 0
0.0969458 -0.0433435 -0.00206148 0.001462 0.000466 0.013866 3.69264e-06 0
0.104103 -0.0416916 0.00347293 0.001462 0.000466 0.013866 1.38232e-05 0
0.0957569 -0.0402912 0.000289437 0.001462 0.000466 0.013866 1.21459e-06 0
0.104652 -0.0485281 -0.00409002 0.001462 0.000466 0.013866 1.60631e-06 0
0.103864 -0.0472333 0.000854565 0.001462 0.000466 0.013866 1.15505e-05 0
0.10911 -0.0515878 -0.00270617 0.001462 0.000466 0.013866 1.52497e-06 0
0.10584 -0.047911 -0.00543451 0.001462 0.000466 0.013866 2.60521e-06 0
0.0966574 -0.0409337 0.000154449 0.001462 0.000466 0.013866 9.69329e-07 0
0.0976861 -0.0405537 -0.0014986 0.001462 0.000466 0.013866 3.75074e-06 0
0.0973973 -0.0412011 -0.00422585 0.001462 0.000466 0.013866 3.23736e-07 0
0.0987794 -0.0393489 -0.00235863 0.001462 0.000466 0.013866 3.1103e-06 0
0.100005 -0.0395797 -0.00283521 0.001462 0.000466 0.013866 2.25273e-06 0
0.102414 -0.0349666 -0.00313915 0.001462 0.000466 0.013866 7.80565e-06 0
0.09454 -0.0391622 -0.00379749 0.001462 0.000466 0.013866 7.03594e-07 0
0.111154 -0.0514239 -0.000119713 0.001462 0.000466 0.013866 9.27884e-06 0
0.110296 -0.0353003 0.00113833 0.001462 0.000466 0.013866 2.01032e-05 0
0.111635 -0.0399726 -0.00202663 0.001462 0.000466 0.013866 2.2974e-05 0
0.102469 -0.0477132 -0.00373274 0.001462 0.000466 0.013866 4.78552e-06 0
0.101744 -0.0480108 -0.00136843 0.001462 0.000466 0.013866 4.84743e-06 0
0.110466 -0.0351321 0.00452265 0.001462 0.000466 0.013866 4.55299e-06 0
0.113107 -0.0363369 0.0024909 0.001462 0.000466 0.013866 4.40975e-06 0
0.108293 -0.0413408 -0.00314683 0.001462 0.000466 0.013866 2.96448e-05 0
0.103503 -0.0128301 -0.00239422 0.001462 0.000466 0.013866 8.98923e-06 0
0.088643 -0.00390301 -0.000499156 0.001462 0.000466 0.013866 1.74136e-05 0
0.0917554 -0.00395402 -0.000323399 0.001462 0.000466 0.013866 5.11111e-06 0
0.0981321 -0.00563164 0.00292228 0.001462 0.000466 0.013866 8.86807e-06 0
0.102052 -0.00922739 -0.0044234 0.001462 0.000466 0.013866 3.31964e-06 0
0.0943441 -0.011967 0.00341517 0.001462 0.000466 0.013866 1.81637e-05 0
0.0887713 -0.0171318 -0.00239534 0.001462 0.000466 0.013866 3.94551e-06 0
0.104161 -0.00443232 -0.00492328 0.001462 0.000466 0.013866 1.03673e-05 0
0.0948347 -0.0048363 0.00255759 0.001462 0.000466 0.013866 1.93651e-05 0
0.101238 -0.00404574 -0.00678479 0.001462 0.000466 0.013866 6.27796e-06 0
0.0894819 -0.0112867 0.000329337 0.001462 0.000466 0.013866 8.15035e-06 0
0.0963767 -0.00852465 0.000721161 0.001462 0.000466 0.013866 1.89996e-05 0
0.0881375 -0.0153986 -0.00266284 0.001462 0.000466 0.013866 1.54395e-05 0
0.0985574 -0.0101725 0.00403393 0.001462 0.000466 0.013866 3.81956e-05 0
0.0922724 -0.021419 3.26999e-05 0.001462 0.000466 0.013866 2.94793e-05 0
0.0923009 -0.0105988 -0.00302418 0.001462 0.000466 0.013866 1.61287e-05 0
0.0884323 -0.0158559 -0.00551073 0.001462 0.000466 0.013866 4.41865e-06 0
0.103834 -0.00902906 -0.00613832 0.001462 0.000466 0.013866 6.9075e-06 0
0.0823922 -0.0169829 -0.00184412 0.001462 0.000466 0.013866 2.81907e-06 0
0.088672 -0.00733343 -0.00418063 0.001462 0.000466 0.013866 3.10938e-05 0
0.0857025 -0.0185667 0.00315643 0.001462 0.000466 0.013866 6.95564e-07 0
0.0965645 -0.00572381 -0.00143815 0.001462 0.000466 0.013866 1.71988e-05 0
0.101323 -0.0111822 -0.00570699 0.001462 0.000466 0.013866 2.71837e-06 0
0.0942671 -0.0167266 0.00318568 0.001462 0.000466 0.013866 2.16753e-05 0
0.0860263 -0.00903574 -0.00043896 0.001462 0.000466 0.013866 1.39226e-05 0
0.0919578 -0.00839882 -0.00361672 0.001462 0.000466 0.013866 1.42602e-05 0
0.086978 -0.00718063 0.00332984 0.001462 0.000466 0.013866 9.76117e-06 0
0.0887438 -0.0150139 -0.000178103 0.001462 0.000466 0.013866 2.18826e-06 0
0.0867411 -0.0213404 0.00220309 0.001462 0.000466 0.013866 1.85363e-06 0
0.0857549 -0.0145162 0.00297102 0.001462 0.000466 0.013866 2.3403e-06 0
0.0828213 -0.0143164 -0.00285678 0.001462 0.000466 0.013866 4.6541e-06 0
0.0897053 -0.0178173 8.16936e-05 0.001462 0.000466 0.013866 1.39674e-05 0
0.100482 -0.00330592 -0.00415234 0.001462 0.000466 0.013866 6.84865e-06 0
0.0946491 -0.023856 2.27846e-05 0.001462 0.000466 0.013866 3.93142e-05 0
0.0841852 -0.0157439 -0.000539944 0.001462 0.000466 0.013866 6.32225e-06 0
0.0843149 -0.0138037 0.00195598 0.001462 0.000466 0.013866 7.22512e-06 0
0.0968583 -0.0201527 -0.00234446 0.001462 0.000466 0.013866 2.73089e-05 0
0.0966977 -0.0198319 -0.00546747 0.001462 0.000466 0.013866 7.87289e-06 0
0.0991423 -0.0170255 -0.00233273 0.001462 0.000466 0.013866 3.48428e-05 0
0.0989817 -0.0167047 -0.00545573 0.001462 0.000466 0.013866 3.48552e-06 0
0.0832585 -0.0193008 -0.000176366 0.001462 0.000466 0.013866 1.52154e-06 0
0.0853007 -0.0212112 -0.00194261 0.001462 0.000466 0.013866 1.74876e-06 0
0.0861353 -0.0228957 -0.00260755 0.001462 0.000466 0.013866 4.12083e-06 0
0.0884765 -0.0166745 0.000452557 0.001462 0.000466 0.013866 1.46643e-06 0
0.0886006 -0.0134206 0.000118731 0.001462 0.000466 0.013866 1.86379e-05 0
0.0942285 -0.0172217 5.2135e-05 0.001462 0.000466 0.013866 9.79676e-06 0
0.0848528 -0.0220938 0.00230687 0.001462 0.000466 0.013866 6.97061e-07 0
0.0923718 -0.02042 0.00317467 0.001462 0.000466 0.013866 2.17183e-05 0
0.0859972 -0.019024 0.000308536 0.001462 0.000466 0.013866 1.91074e-06 0
0.0869312 -0.0197095 0.00278557 0.001462 0.000466 0.013866 2.26646e-06 0
0.0836932 -0.0179479 0.00164072 0.001462 0.000466 0.013866 3.51817e-06 0
0.0848714 -0.0194947 0.0022217 0.001462 0.000466 0.013866 1.19171e-06 0
0.0934628 -0.0141009 0.00320456 0.001462 0.000466 0.013866 3.15062e-05 0
0.0933719 -0.000526215 1.13003e-05 0.001462 0.000466 0.013866 3.23657e-05 0
0.102312 -0.000765126 -0.00445933 0.001462 0.000466 0.013866 2.50516e-06 0
0.0951016 0.00871693 -0.00348193 0.001462 0.000466 0.013866 1.08575e-05 0
0.101118 -0.00718637 -0.00292519 0.001462 0.000466 0.013866 6.91374e-06 0
0.103441 0.00616493 -0.000494287 0.001462 0.000466 0.013866 5.97163e-06 0
0.096803 0.0087661 -0.0074382 0.001462 0.000466 0.013866 2.01049e-06 0
0.103299 -0.00883422 0.000387584 0.001462 0.000466 0.013866 2.14048e-05 0
0.0999196 0.0114098 0.00238762 0.001462 0.000466 0.013866 1.27121e-05 0
0.0951002 0.00646738 -0.00382149 0.001462 0.000466 0.013866 2.10575e-05 0
0.107099 -0.0113244 0.000726528 0.001462 0.000466 0.013866 2.20604e-06 0
0.101771 0.00394382 0.00599685 0.001462 0.000466 0.013866 5.79168e-06 0
0.10367 0.00675186 0.00656171 0.001462 0.000466 0.013866 1.84433e-06 0
0.101122 0.00700095 0.00741464 0.001462 0.000466 0.013866 3.01134e-06 0
0.0990628 0.00813023 0.00708608 0.001462 0.000466 0.013866 3.6413e-06 0
0.100189 0.00474999 -0.00640211 0.001462 0.000466 0.013866 6.57523e-06 0
0.0989312 0.0165301 0.00247288 0.001462 0.000466 0.013866 1.13076e-05 0
0.101944 -0.00835548 0.00288651 0.001462 0.000466 0.013866 2.0772e-05 0
0.0997631 -0.00670764 -0.000426262 0.001462 0.000466 0.013866 7.90466e-06 0
0.0979925 0.0118595 0.00630863 0.001462 0.000466 0.013866 4.24608e-06 0
0.100294 0.010524 0.00576709 0.001462 0.000466 0.013866 5.32467e-06 0
0.0979566 0.00409996 -0.000879074 0.001462 0.000466 0.013866 4.54718e-05 0
0.101137 0.00234342 -0.00360956 0.001462 0.000466 0.013866 1.51812e-05 0
0.0986886 0.00901606 0.00370661 0.001462 0.000466 0.013866 5.4926e-06 0
0.104598 -0.00691346 0.00601385 0.001462 0.000466 0.013866 6.5366e-06 0
0.10606 -0.00249553 -0.000101847 0.001462 0.000466 0.013866 1.3854e-06 0
0.0964512 -0.00140849 0.00289229 0.001462 0.000466 0.013866 3.66682e-05 0
0.103886 0.00640956 0.00168996 0.001462 0.000466 0.013866 4.58405e-06 0
0.0968017 0.00651655 -0.00777776 0.001462 0.000466 0.013866 3.74674e-06 0
0.104994 0.00282284 -9.93867e-05 0.001462 0.000466 0.013866 6.68913e-06 0
0.0985333 0.00640482 0.00329777 0.001462 0.000466 0.013866 8.1118e-06 0
0.0970269 0.000293694 -0.00157892 0.001462 0.000466 0.013866 1.33395e-05 0
0.0987012 -0.000483718 -0.00577355 0.001462 0.000466 0.013866 1.72357e-05 0
0.100857 0.0186212 -0.000508756 0.001462 0.000466 0.013866 1.07291e-05 0
0.103632 0.000482616 0.00630184 0.001462 0.000466 0.013866 4.14101e-06 0
0.098637 0.0103416 -0.00645746 0.001462 0.000466 0.013866 4.40897e-06 0
0.106428 -0.00454738 0.00239115 0.001462 0.000466 0.013866 1.1725e-06 0
0.101338 0.00665865 0.00254289 0.001462 0.000466 0.013866 2.28647e-05 0
0.10637 -0.0132793 -0.000557064 0.001462 0.000466 0.013866 4.63213e-06 0
0.0964764 0.00334414 0.00237846 0.001462 0.000466 0.013866 4.22442e-06 0
0.107064 -0.0107344 0.00315096 0.001462 0.000466 0.013866 4.8223e-06 0
0.100383 0.00321676 -0.00733921 0.001462 0.000466 0.013866 7.085e-06 0
0.105953 -0.0073922 0.00351493 0.001462 0.000466 0.013866 6.28802e-06 0
0.0950793 0.0118726 0.000224595 0.001462 0.000466 0.013866 1.31629e-05 0
0.103068 -0.00150494 -0.00709178 0.001462 0.000466 0.013866 6.77915e-06 0
0.0964023 -0.00474413 0.00691802 0.001462 0.000466 0.013866 7.90015e-06 0
0.0980188 -0.00131633 0.00725272 0.001462 0.000466 0.013866 1.52275e-05 0
0.0969356 0.0102925 -0.00250119 0.001462 0.000466 0.013866 1.89832e-05 0
0.101084 0.000731712 0.00715478 0.001462 0.000466 0.013866 4.53042e-06 0
0.103405 -0.0036925 -0.00229083 0.001462 0.000466 0.013866 1.13829e-05 0
0.104233 -0.0108752 -0.00111062 0.001462 0.000466 0.013866 1.19484e-05 0
0.100014 0.00716064 4.02439e-05 0.001462 0.000466 0.013866 2.50709e-06 0
0.0976183 0.0127453 0.00292916 0.001462 0.000466 0.013866 8.20912e-06 0
0.104564 -0.0070742 -0.00485473 0.001462 0.000466 0.013866 7.05525e-06 0
0.104318 0.00369473 0.00514391 0.001462 0.000466 0.013866 4.24995e-06 0
0.101331 0.000810183 -0.00454665 0.001462 0.000466 0.013866 1.32303e-06 0
0.153472 0.00863185 0.00531989 0.3415 0.062325 0.429425 1.02792e-06 1
0.146333 0.00933431 -0.00973186 0.3415 0.062325 0.429425 8.1968e-06 1
0.145707 0.0206529 0.00153209 0.3415 0.062325 0.429425 4.6983e-06 1
0.147543 0.00293926 0.00733592 0.3415 0.062325 0.429425 6.32019e-06 1
0.142713 0.0255704 -2.69176e-05 0.3415 0.062325 0.429425 2.00022e-05 1
0.134596 0.022854 -0.000707651 0.3415 0.062325 0.429425 4.50077e-06 1
0.143249 0.0199688 0.00463164 0.3415 0.062325 0.429425 1.02996e-05 1
0.140698 0.00741766 0.0113565 0.3415 0.062325 0.429425 4.97244e-06 1
0.148656 0.0185594 0.00160594 0.3415 0.062325 0.429425 1.92762e-05 1
0.144235 0.00984137 0.0122891 0.3415 0.062325 0.429425 5.29577e-06 1
0.133712 0.0177079 0.00495288 0.3415 0.062325 0.429425 3.39898e-06 1
0.1477 0.02551 0.000351111 0.3415 0.062325 0.429425 4.24479e-06 1
0.146997 0.0236153 0.0036441 0.3415 0.062325 0.429425 2.64429e-06 1
0.147457 0.0282415 0.00160109 0.3415 0.062325 0.429425 5.6152e-06 1
0.147488 0.0208377 0.0068175 0.3415 0.062325 0.429425 4.00758e-06 1
0.148189 0.0269549 -0.000683725 0.3415 0.062325 0.429425 7.97559e-06 1
0.147945 0.00587129 0.0071502 0.3415 0.062325 0.429425 5.67669e-06 1
0.147344 0.00492509 0.00398625 0.3415 0.062325 0.429425 1.60168e-05 1
0.145805 0.00538473 0.00706575 0.3415 0.062325 0.429425 2.58567e-06 1
0.137965 0.0173656 0.00524847 0.3415 0.062325 0.429425 1.33302e-05 1
0.146941 0.00199306 0.00417196 0.3415 0.062325 0.429425 1.53467e-06 1
0.142163 0.00360633 -0.00514509 0.3415 0.062325 0.429425 5.05644e-06 1
0.138736 0.0214256 0.000790687 0.3415 0.062325 0.429425 3.18097e-06 1
0.152133 0.00894113 0.000612157 0.3415 0.062325 0.429425 1.12749e-05 1
0.14339 0.0190897 -0.000927251 0.3415 0.062325 0.429425 1.47191e-05 1
0.144947 0.0129219 0.00677272 0.3415 0.062325 0.429425 3.43118e-05 1
0.153522 0.00747503 -0.00173604 0.3415 0.062325 0.429425 3.69335e-06 1
0.146198 0.0178753 0.00470549 0.3415 0.062325 0.429425 3.42998e-05 1
0.136398 0.0252626 0.00119414 0.3415 0.062325 0.429425 7.1519e-06 1
0.138382 0.0236151 0.00350582 0.3415 0.062325 0.429425 4.80165e-06 1
0.147309 0.00199292 0.00176219 0.3415 0.062325 0.429425 1.58758e-06 1
0.139464 0.0227957 0.000498387 0.3415 0.062325 0.429425 6.19248e-06 1
0.145553 0.00870366 0.00440197 0.3415 0.062325 0.429425 2.83386e-05 1
0.149261 0.007102 0.0104109 0.3415 0.062325 0.429425 4.34124e-06 1
0.142009 0.0236757 0.00326607 0.3415 0.062325 0.429425 1.3928e-05 1
0.13985 0.0192251 0.00517973 0.3415 0.062325 0.429425 3.56373e-06 1
0.140167 0.0246904 -0.0027946 0.3415 0.062325 0.429425 1.07126e-05 1
0.139615 0.0123406 0.00619135 0.3415 0.062325 0.429425 3.63733e-05 1
0.15168 0.00716591 0.00785381 0.3415 0.062325 0.429425 1.88663e-06 1
0.145382 0.0239468 -0.00210823 0.3415 0.062325 0.429425 2.03812e-05 1
0.13683 0.0237103 0.00257063 0.3415 0.062325 0.429425 3.80343e-06 1
0.147092 0.00824402 0.00132247 0.3415 0.062325 0.429425 2.29881e-05 1
0.142787 0.0100595 0.00729902 0.3415 0.062325 0.429425 1.16489e-05 1
0.145506 0.00258355 0.00983916 0.3415 0.062325 0.429425 6.13692e-07 1
0.139989 0.011505 0.0111396 0.3415 0.062325 0.429425 1.0106e-05 1
0.149724 0.00602493 0.00728953 0.3415 0.062325 0.429425 1.10446e-05 1
0.140386 0.0100603 0.0099113 0.3415 0.062325 0.429425 6.12843e-06 1
0.144596 0.00454049 -0.00733627 0.3415 0.062325 0.429425 2.41385e-05 1
0.144539 0.0229312 0.00674365 0.3415 0.062325 0.429425 1.38468e-06 1
0.144679 0.0220521 0.00118475 0.3415 0.062325 0.429425 9.56604e-06 1
0.13611 0.0204821 -0.00233858 0.3415 0.062325 0.429425 6.19425e-06 1
0.153646 0.00998168 0.000240907 0.3415 0.062325 0.429425 1.03229e-05 1
0.148942 0.0111575 -0.000550709 0.3415 0.062325 0.429425 2.87223e-05 1
0.146793 0.011259 0.0105345 0.3415 0.062325 0.429425 5.64587e-06 1
0.137184 0.0215207 -0.000144495 0.3415 0.062325 0.429425 2.78695e-06 1
0.152144 0.00608883 0.00473244 0.3415 0.062325 0.429425 7.47239e-06 1
0.133151 0.00399483 -0.00521188 0.3415 0.062325 0.429425 2.63946e-07 1
0.145278 0.00515821 -0.00104092 0.3415 0.062325 0.429425 3.39117e-06 1
0.137782 0.00224924 0.00525284 0.3415 0.062325 0.429425 9.42196e-06 1
0.146971 0.007237 -0.00434347 0.3415 0.062325 0.429425 3.25158e-06 1
0.135038 0.0166686 0.000146509 0.3415 0.062325 0.429425 1.26406e-05 1
0.135304 0.00268385 0.00308375 0.3415 0.062325 0.429425 7.48964e-06 1
0.137501 0.00771154 -0.000417877 0.3415 0.062325 0.429425 9.70566e-06 1
0.13285 0.00920312 -0.00622324 0.3415 0.062325 0.429425 3.15209e-06 1
0.135668 0.00246797 0.00827005 0.3415 0.062325 0.429425 5.51676e-06 1
0.137485 0.00935448 -0.00998159 0.3415 0.062325 0.429425 4.89358e-06 1
0.149731 0.00577938 -0.00454928 0.3415 0.062325 0.429425 1.22546e-05 1
0.137148 0.00858812 -0.00309804 0.3415 0.062325 0.429425 6.31309e-06 1
0.13751 0.00589636 0.00796726 0.3415 0.062325 0.429425 4.07946e-06 1
0.136239 0.00141585 0.0014421 0.3415 0.062325 0.429425 3.25799e-06 1
0.134038 0.00392355 -0.00767151 0.3415 0.062325 0.429425 1.91338e-06 1
0.144951 0.00755 -0.00302629 0.3415 0.062325 0.429425 1.16667e-05 1
0.140204 0.0039698 -0.00736404 0.3415 0.062325 0.429425 7.06408e-06 1
0.136272 0.00807205 -0.00690767 0.3415 0.062325 0.429425 1.12087e-05 1
0.139721 0.0055269 -0.0107788 0.3415 0.062325 0.429425 3.50697e-06 1
0.136449 0.0156692 -0.00484828 0.3415 0.062325 0.429425 4.77042e-06 1
0.145926 0.0169164 -0.00478797 0.3415 0.062325 0.429425 8.91694e-06 1
0.132638 0.0166693 0.00275879 0.3415 0.062325 0.429425 3.68193e-07 1
0.135312 0.0113434 -0.00437114 0.3415 0.062325 0.429425 4.2267e-06 1
0.148653 0.0155732 -0.00136396 0.3415 0.062325 0.429425 2.2809e-05 1
0.146352 0.0105561 -0.00459748 0.3415 0.062325 0.429425 1.52787e-05 1
0.134615 0.00837064 0.00584637 0.3415 0.062325 0.429425 1.3343e-05 1
0.139978 0.00727692 0.00175121 0.3415 0.062325 0.429425 2.49831e-05 1
0.142811 0.00706344 -0.00311073 0.3415 0.062325 0.429425 3.38483e-06 1
0.137591 0.00455584 0.0106363 0.3415 0.062325 0.429425 1.03663e-05 1
0.140302 0.00802991 0.00592839 0.3415 0.062325 0.429425 7.6965e-06 1
0.137186 0.00514337 0.00379008 0.3415 0.062325 0.429425 1.35744e-05 1
0.135509 0.0143709 -0.00469243 0.3415 0.062325 0.429425 3.28848e-06 1
0.152935 0.0073991 -0.0045341 0.3415 0.062325 0.429425 1.1019e-05 1
0.137917 0.0172239 -0.00430491 0.3415 0.062325 0.429425 2.82425e-06 1
0.143664 0.0061902 -0.010449 0.3415 0.062325 0.429425 1.35516e-05 1
0.139992 0.0193433 0.00144636 0.3415 0.062325 0.429425 5.0218e-06 1
0.13578 0.0157526 0.00334452 0.3415 0.062325 0.429425 1.0224e-05 1
0.137967 0.00288782 0.00892818 0.3415 0.062325 0.429425 2.40535e-06 1
0.152476 0.0138739 -0.00109477 0.3415 0.062325 0.429425 1.65145e-05 1
0.134917 0.00765225 0.0101049 0.3415 0.062325 0.429425 6.87409e-06 1
0.139966 0.00749819 -0.00287005 0.3415 0.062325 0.429425 1.66248e-05 1
0.134683 0.00880147 -0.000645864 0.3415 0.062325 0.429425 3.9619e-06 1
0.147265 0.00768461 -0.0066191 0.3415 0.062325 0.429425 1.32256e-05 1
0.137134 0.00756438 0.00967542 0.3415 0.062325 0.429425 1.06673e-05 1
0.136661 0.0193062 -0.00496058 0.3415 0.062325 0.429425 2.25361e-06 1
0.134453 0.0111669 -0.00199834 0.3415 0.062325 0.429425 1.00551e-05 1
0.137407 0.0105042 0.0038075 0.3415 0.062325 0.429425 2.61226e-05 1
0.13189 0.00666792 0.00139301 0.3415 0.062325 0.429425 1.70423e-06 1
0.134708 0.00557798 0.00162099 0.3415 0.062325 0.429425 1.01614e-05 1
0.143474 0.00574884 0.00703605 0.3415 0.062325 0.429425 1.46797e-06 1
0.13844 0.0194384 0.00051118 0.3415 0.062325 0.429425 4.53211e-06 1
0.137366 0.0183998 -0.00168291 0.3415 0.062325 0.429425 8.70489e-06 1
0.137612 0.0110276 -0.00494273 0.3415 0.062325 0.429425 9.2137e-06 1
0.138605 0.0158882 -0.00566162 0.3415 0.062325 0.429425 2.06677e-06 1
0.136113 0.0177071 0.0023406 0.3415 0.062325 0.429425 8.16425e-06 1
0.13465 0.0141943 -0.00231963 0.3415 0.062325 0.429425 9.43234e-06 1
0.143371 0.00561799 0.00444836 0.3415 0.062325 0.429425 4.92723e-06 1
0.133966 0.0067664 -0.00733039 0.3415 0.062325 0.429425 7.48484e-06 1
0.134274 0.00317956 -0.00532472 0.3415 0.062325 0.429425 1.19747e-06 1
0.135808 0.00563253 -0.00506298 0.3415 0.062325 0.429425 6.9443e-06 1
0.137907 0.00684368 -0.0105965 0.3415 0.062325 0.429425 5.70096e-06 1
0.136457 0.00806825 -0.00908778 0.3415 0.062325 0.429425 4.0755e-07 1
0.136925 0.00197572 -0.00300839 0.3415 0.062325 0.429425 3.82653e-06 1
0.138627 0.00454259 -0.00483499 0.3415 0.062325 0.429425 1.8853e-05 1
0.13867 0.00151683 -0.00762578 0.3415 0.062325 0.429425 1.67931e-06 1
0.137461 0.00157239 -0.00519421 0.3415 0.062325 0.429425 1.68778e-06 1
0.135064 0.00191454 -0.00525551 0.3415 0.062325 0.429425 8.22909e-07 1
0.0975816 0.0176597 0.00577535 0.3415 0.062325 0.429425 9.55099e-07 1
0.0936016 0.0327535 0.00307541 0.3415 0.062325 0.429425 1.57176e-05 1
0.0949839 0.0206831 0.000152996 0.3415 0.062325 0.429425 1.00926e-05 1
0.0999855 0.0320227 0.00310314 0.3415 0.062325 0.429425 1.49381e-05 1
0.0911577 0.0193707 0.000212176 0.3415 0.062325 0.429425 1.20844e-05 1
0.0948718 0.023196 0.00734747 0.3415 0.062325 0.429425 1.16126e-06 1
0.10246 0.0210219 0.00377924 0.3415 0.062325 0.429425 2.24163e-06 1
0.0989828 0.0275715 -0.000228745 0.3415 0.062325 0.429425 1.52552e-05 1
0.102778 0.0230552 0.00158484 0.3415 0.062325 0.429425 7.96364e-07 1
0.0948498 0.0176428 0.00324786 0.3415 0.062325 0.429425 8.19358e-06 1
0.0926444 0.0389634 0.00189613 0.3415 0.062325 0.429425 1.06131e-05 1
0.0961994 0.0165132 -5.4605e-05 0.3415 0.062325 0.429425 2.12978e-05 1
0.102322 0.0207799 0.00124391 0.3415 0.062325 0.429425 1.12164e-05 1
0.098742 0.0252929 0.00270582 0.3415 0.062325 0.429425 7.02502e-06 1
0.100564 0.0262192 -0.00328521 0.3415 0.062325 0.429425 1.20728e-05 1
0.100323 0.0239406 -0.000350646 0.3415 0.062325 0.429425 5.21733e-06 1
0.104869 0.0299929 -0.0044487 0.3415 0.062325 0.429425 1.00078e-05 1
0.105463 0.0325103 -0.00157243 0.3415 0.062325 0.429425 4.03062e-06 1
0.103613 0.0278511 0.00152655 0.3415 0.062325 0.429425 8.47637e-06 1
0.0918341 0.0263687 0.00424523 0.3415 0.062325 0.429425 1.76225e-05 1
0.0952319 0.0251105 0.00386217 0.3415 0.062325 0.429425 1.25827e-05 1
0.100778 0.0340275 -0.000123217 0.3415 0.062325 0.429425 7.75972e-06 1
0.0924166 0.02237 0.000432028 0.3415 0.062325 0.429425 1.96057e-05 1
0.0916241 0.0282074 0.000327081 0.3415 0.062325 0.429425 1.23385e-05 1
0.102984 0.0336141 -0.00317603 0.3415 0.062325 0.429425 7.42138e-06 1
0.108194 0.0377784 -0.00142919 0.3415 0.062325 0.429425 5.28524e-06 1
0.094893 0.0299699 8.30289e-05 0.3415 0.062325 0.429425 1.54467e-05 1
0.0976006 0.0304545 0.000113631 0.3415 0.062325 0.429425 5.02921e-06 1
0.0898327 0.0269148 0.000962294 0.3415 0.062325 0.429425 4.60531e-06 1
0.0946616 0.0227929 0.00417776 0.3415 0.062325 0.429425 9.70756e-06 1
0.104571 0.027345 -0.00245134 0.3415 0.062325 0.429425 1.14431e-05 1
0.103019 0.0253338 -0.00134972 0.3415 0.062325 0.429425 4.40616e-06 1
0.101368 0.0291396 0.00276076 0.3415 0.062325 0.429425 2.01681e-05 1
0.0909854 0.0252337 -0.00316651 0.3415 0.062325 0.429425 2.361e-05 1
0.082229 0.0231522 -0.00206251 0.3415 0.062325 0.429425 4.73454e-06 1
0.0842142 0.0209308 -0.00413963 0.3415 0.062325 0.429425 3.34627e-05 1
0.0971386 0.0211808 -0.00656212 0.3415 0.062325 0.429425 5.56242e-06 1
0.0863076 0.0178141 -0.00391925 0.3415 0.062325 0.429425 2.57568e-05 1
0.0881881 0.0198801 0.000500036 0.3415 0.062325 0.429425 2.1244e-05 1
0.0955991 0.0310006 -0.00316931 0.3415 0.062325 0.429425 1.48535e-05 1
0.0963335 0.0195535 -0.00314947 0.3415 0.062325 0.429425 2.55613e-05 1
0.0849333 0.0159381 0.000551532 0.3415 0.062325 0.429425 2.16665e-05 1
0.0870659 0.0349184 0.00337346 0.3415 0.062325 0.429425 2.6486e-06 1
0.0993837 0.0216037 -0.00281639 0.3415 0.062325 0.429425 1.73186e-05 1
0.0871969 0.013488 -0.00361856 0.3415 0.062325 0.429425 1.07083e-05 1
0.0903327 0.0309909 0.00331946 0.3415 0.062325 0.429425 3.14601e-05 1
0.0798367 0.0212572 -0.00222333 0.3415 0.062325 0.429425 4.41323e-05 1
0.0924828 0.0152712 0.00409774 0.3415 0.062325 0.429425 9.37741e-06 1
0.0927389 0.0202602 -0.00359274 0.3415 0.062325 0.429425 1.40679e-05 1
0.0882633 0.025647 6.84886e-05 0.3415 0.062325 0.429425 1.40048e-05 1
0.0856598 0.0271943 -0.00622834 0.3415 0.062325 0.429425 6.68491e-06 1
0.08629 0.0274903 -0.00255311 0.3415 0.062325 0.429425 1.51444e-05 1
0.0847289 0.0266584 -0.00288011 0.3415 0.062325 0.429425 3.36505e-06 1
0.0849538 0.0242996 -0.000290271 0.3415 0.062325 0.429425 2.23112e-05 1
0.0792091 0.010968 -0.0024772 0.3415 0.062325 0.429425 2.50047e-05 1
0.0776084 0.0239715 -0.00212296 0.3415 0.062325 0.429425 1.09966e-05 1
0.0853342 0.011821 -0.0043754 0.3415 0.062325 0.429425 2.16382e-05 1
0.0910356 0.017422 0.00480779 0.3415 0.062325 0.429425 1.56248e-05 1
0.0865679 0.0315415 0.00133308 0.3415 0.062325 0.429425 1.64145e-05 1
0.0829686 0.0265211 0.00178685 0.3415 0.062325 0.429425 7.0287e-06 1
0.0867249 0.0232928 0.00395488 0.3415 0.062325 0.429425 1.90535e-05 1
0.0940885 0.0191306 -0.00689521 0.3415 0.062325 0.429425 5.76101e-06 1
0.092831 0.0119173 -0.000178084 0.3415 0.062325 0.429425 4.08666e-06 1
0.0944577 0.0135029 -0.00330347 0.3415 0.062325 0.429425 8.22597e-06 1
0.079814 0.0227796 -0.00643672 0.3415 0.062325 0.429425 1.55609e-05 1
0.14439 0.036901 0.00272611 0.3415 0.062325 0.429425 6.80996e-06 1
0.147692 0.0370359 0.00210725 0.3415 0.062325 0.429425 2.26744e-06 1
0.139566 0.0290566 0.00160627 0.3415 0.062325 0.429425 4.4594e-06 1
0.132605 0.0325624 0.00130033 0.3415 0.062325 0.429425 4.89116e-06 1
0.132798 0.0416117 0.00321112 0.3415 0.062325 0.429425 9.8488e-06 1
0.127138 0.0441724 0.00241729 0.3415 0.062325 0.429425 9.24884e-06 1
0.137182 0.0311349 0.00457561 0.3415 0.062325 0.429425 6.09644e-07 1
0.14532 0.0351139 -0.00324288 0.3415 0.062325 0.429425 8.4882e-06 1
0.129338 0.0444004 -0.00285913 0.3415 0.062325 0.429425 7.55385e-06 1
0.141361 0.0438777 0.00474087 0.3415 0.062325 0.429425 4.32935e-06 1
0.140186 0.0361613 0.00318422 0.3415 0.062325 0.429425 1.00325e-05 1
0.142536 0.0382484 0.00292417 0.3415 0.062325 0.429425 1.32838e-05 1
0.145184 0.0305529 0.0049582 0.3415 0.062325 0.429425 2.4859e-06 1
0.131495 0.0466571 -0.00185345 0.3415 0.062325 0.429425 6.56729e-06 1
0.134105 0.0367418 -0.0021909 0.3415 0.062325 0.429425 6.12365e-06 1
0.137084 0.0318366 -0.00347494 0.3415 0.062325 0.429425 4.26689e-06 1
0.144961 0.0420225 -0.000731734 0.3415 0.062325 0.429425 9.74106e-06 1
0.135348 0.0316265 0.00215804 0.3415 0.062325 0.429425 8.87081e-07 1
0.141036 0.0345081 -0.00261448 0.3415 0.062325 0.429425 9.98635e-06 1
0.134595 0.0476441 0.000581652 0.3415 0.062325 0.429425 6.73931e-06 1
0.137449 0.032307 0.00180763 0.3415 0.062325 0.429425 7.35031e-06 1
0.13816 0.0477942 0.000399697 0.3415 0.062325 0.429425 8.93449e-06 1
0.133796 0.0464905 -0.00379595 0.3415 0.062325 0.429425 5.0179e-06 1
0.143152 0.0299821 0.00185913 0.3415 0.062325 0.429425 5.13671e-06 1
0.138338 0.0413414 -0.00261294 0.3415 0.062325 0.429425 1.29404e-05 1
0.143166 0.0431686 -0.00336441 0.3415 0.062325 0.429425 7.10288e-06 1
0.126721 0.0456679 4.93222e-05 0.3415 0.062325 0.429425 6.63378e-06 1
0.142794 0.0418525 0.00176141 0.3415 0.062325 0.429425 1.19857e-05 1
0.125808 0.0481416 0.00131581 0.3415 0.062325 0.429425 4.13774e-06 1
0.141007 0.032526 0.000264451 0.3415 0.062325 0.429425 7.97228e-06 1
0.129754 0.0429048 -0.000491165 0.3415 0.062325 0.429425 1.02781e-05 1
0.134219 0.0461696 -0.00239144 0.3415 0.062325 0.429425 3.21291e-06 1
0.144111 0.0333275 -0.000782182 0.3415 0.062325 0.429425 1.42656e-05 1
0.146704 0.0314079 0.00482445 0.3415 0.062325 0.429425 2.08769e-06 1
0.120747 0.0425458 0.000364503 0.3415 0.062325 0.429425 2.06149e-05 1
0.135155 0.0409488 0.0032609 0.3415 0.062325 0.429425 1.62646e-05 1
0.136905 0.0433666 0.000366525 0.3415 0.062325 0.429425 1.61729e-05 1
0.134555 0.0452041 -0.000646721 0.3415 0.062325 0.429425 9.51123e-06 1
0.137768 0.0389792 -0.0025909 0.3415 0.062325 0.429425 5.64158e-06 1
0.134946 0.034849 0.000682949 0.3415 0.062325 0.429425 7.02198e-06 1
0.132247 0.0441961 0.00225924 0.3415 0.062325 0.429425 8.05576e-06 1
0.130305 0.0403205 0.000460714 0.3415 0.062325 0.429425 1.11179e-05 1
0.132291 0.0356902 -0.000282278 0.3415 0.062325 0.429425 5.57883e-06 1
0.135615 0.0327985 -0.000609944 0.3415 0.062325 0.429425 3.87059e-06 1
0.137124 0.028331 -0.00337549 0.3415 0.062325 0.429425 9.01661e-06 1
0.144786 0.0288678 0.00185687 0.3415 0.062325 0.429425 9.4683e-06 1
0.138653 0.0270622 -0.00116367 0.3415 0.062325 0.429425 9.08362e-06 1
0.138609 0.0370865 0.000282957 0.3415 0.062325 0.429425 5.0186e-06 1
0.137816 0.0297176 0.00436857 0.3415 0.062325 0.429425 1.38639e-06 1
0.138918 0.0313451 -0.00105737 0.3415 0.062325 0.429425 1.49555e-05 1
0.139566 0.0450239 0.00210819 0.3415 0.062325 0.429425 1.48986e-05 1
0.128351 0.0368868 0.00238676 0.3415 0.062325 0.429425 8.17883e-06 1
0.145599 0.0386874 0.000265409 0.3415 0.062325 0.429425 1.08273e-05 1
0.146309 0.0362908 -0.000512927 0.3415 0.062325 0.429425 7.65837e-06 1
0.140999 0.0429987 -0.000871273 0.3415 0.062325 0.429425 1.16754e-05 1
0.1451 0.0345043 0.00194777 0.3415 0.062325 0.429425 4.16454e-06 1
0.124596 0.0468177 -0.000385126 0.3415 0.062325 0.429425 9.95476e-06 1
0.118301 0.0463558 0.00252167 0.3415 0.062325 0.429425 4.93968e-06 1
0.144254 0.0291896 0.00472058 0.3415 0.062325 0.429425 3.11573e-06 1
0.136447 0.0365599 0.00316483 0.3415 0.062325 0.429425 9.42259e-06 1
0.139538 0.0334879 0.00312945 0.3415 0.062325 0.429425 3.79133e-06 1
0.144082 0.0313454 0.00209675 0.3415 0.062325 0.429425 3.32124e-06 1
0.139567 0.03547 0.000250517 0.3415 0.062325 0.429425 3.06557e-06 1
0.135606 0.0384527 0.000290981 0.3415 0.062325 0.429425 9.8255e-06 1
0.134153 0.032442 0.00215969 0.3415 0.062325 0.429425 2.79162e-06 1
0.13468 0.033677 0.00345093 0.3415 0.062325 0.429425 1.83277e-06 1
0.105165 0.0298624 0.000424932 0.3415 0.062325 0.429425 1.76997e-05 1
0.100899 0.0374569 0.00299903 0.3415 0.062325 0.429425 2.203e-05 1
0.0971478 0.0356955 -0.00316268 0.3415 0.062325 0.429425 9.51555e-06 1
0.100735 0.0458156 -0.00413143 0.3415 0.062325 0.429425 4.56827e-07 1
0.0988234 0.040084 -0.00108587 0.3415 0.062325 0.429425 2.34012e-06 1
0.0935748 0.03422 -0.00227896 0.3415 0.062325 0.429425 2.35018e-05 1
0.0965779 0.0412245 0.00502567 0.3415 0.062325 0.429425 7.72482e-06 1
0.0990379 0.0437125 0.00402004 0.3415 0.062325 0.429425 2.96156e-06 1
0.0949381 0.0385878 -0.0011529 0.3415 0.062325 0.429425 1.25542e-05 1
0.105716 0.0388823 -0.0030328 0.3415 0.062325 0.429425 2.21793e-05 1
0.0917832 0.0352803 -0.00531985 0.3415 0.062325 0.429425 7.7222e-06 1
0.0969833 0.0422342 -0.00214967 0.3415 0.062325 0.429425 7.64494e-06 1
0.091367 0.0355698 0.00079606 0.3415 0.062325 0.429425 1.21655e-05 1
0.0919134 0.0378567 0.000859343 0.3415 0.062325 0.429425 1.00046e-06 1
0.102451 0.0424897 0.00205742 0.3415 0.062325 0.429425 1.29127e-05 1
0.105139 0.0449515 0.00514396 0.3415 0.062325 0.429425 5.21109e-06 1
0.0996824 0.0411603 0.00199627 0.3415 0.062325 0.429425 9.82295e-07 1
0.103876 0.04783 -0.00099745 0.3415 0.062325 0.429425 3.40206e-06 1
0.0947379 0.0433747 0.00396187 0.3415 0.062325 0.429425 2.83874e-06 1
0.10596 0.048524 -0.00194742 0.3415 0.062325 0.429425 2.87373e-06 1
0.109818 0.0354938 0.00468389 0.3415 0.062325 0.429425 6.97074e-06 1
0.11159 0.0457721 0.00280435 0.3415 0.062325 0.429425 1.47384e-06 1
0.110617 0.0456672 -0.000227528 0.3415 0.062325 0.429425 1.32329e-05 1
0.112208 0.0392136 0.00210319 0.3415 0.062325 0.429425 1.83663e-05 1
0.0996342 0.0403954 -0.00106624 0.3415 0.062325 0.429425 3.45237e-06 1
0.0941212 0.0365069 -0.00221567 0.3415 0.062325 0.429425 7.2886e-06 1
0.103951 0.041218 -0.00299383 0.3415 0.062325 0.429425 1.24094e-05 1
0.110554 0.0481274 -0.00224284 0.3415 0.062325 0.429425 4.57525e-06 1
0.0996143 0.0461902 -0.00107972 0.3415 0.062325 0.429425 1.60094e-06 1
0.112436 0.0449771 0.0035525 0.3415 0.062325 0.429425 5.09459e-06 1
0.108541 0.045515 0.00214409 0.3415 0.062325 0.429425 4.46476e-06 1
0.108671 0.0487728 -0.000623181 0.3415 0.062325 0.429425 2.1453e-06 1
0.110215 0.0413039 -0.000958513 0.3415 0.062325 0.429425 2.48109e-05 1
0.0877636 0.0377245 0.00102881 0.3415 0.062325 0.429425 3.88666e-06 1
0.103668 0.0387863 0.00306017 0.3415 0.062325 0.429425 2.37611e-05 1
0.101089 0.0481575 -9.13237e-05 0.3415 0.062325 0.429425 3.62341e-07 1
0.112136 0.0430158 -0.00570131 0.3415 0.062325 0.429425 6.05646e-06 1
0.095911 0.0449185 -0.00118888 0.3415 0.062325 0.429425 3.99544e-06 1
0.0912946 0.0423156 -0.00229269 0.3415 0.062325 0.429425 9.94055e-07 1
0.0900733 0.0400069 -0.000204458 0.3415 0.062325 0.429425 4.42758e-06 1
0.0953807 0.0405102 -0.00416674 0.3415 0.062325 0.429425 1.02009e-05 1
0.106993 0.0460217 0.00413282 0.3415 0.062325 0.429425 2.74422e-06 1
0.104118 0.0440816 -0.000950426 0.3415 0.062325 0.429425 1.51239e-05 1
0.0983756 0.0460109 -0.00216233 0.3415 0.062325 0.429425 2.6805e-06 1
0.0989898 0.0429476 0.00095753 0.3415 0.062325 0.429425 7.65461e-06 1
0.101973 0.0459949 -0.00304882 0.3415 0.062325 0.429425 3.41073e-06 1
0.109653 0.0395612 -0.00407247 0.3415 0.062325 0.429425 1.26158e-05 1
0.105384 0.0356856 -4.13084e-05 0.3415 0.062325 0.429425 1.68274e-05 1
0.102403 0.0417247 -0.00100509 0.3415 0.062325 0.429425 9.38293e-06 1
0.0965408 0.0403118 0.000864173 0.3415 0.062325 0.429425 1.97379e-05 1
0.0872657 0.0343476 -0.00101157 0.3415 0.062325 0.429425 1.54335e-05 1
0.0942471 0.0406874 0.0039132 0.3415 0.062325 0.429425 3.34317e-06 1
0.0943083 0.0431945 -0.00320595 0.3415 0.062325 0.429425 5.33062e-06 1
0.0985549 0.0471843 -0.000152676 0.3415 0.062325 0.429425 1.70489e-07 1
0.12099 0.0379965 0.0049094 0.3415 0.062325 0.429425 1.12217e-05 1
0.11989 0.0390887 -0.000869559 0.3415 0.062325 0.429425 1.16162e-05 1
0.12413 0.0361094 0.0014913 0.3415 0.062325 0.429425 4.6309e-06 1
0.12762 0.035489 -0.00300884 0.3415 0.062325 0.429425 1.16878e-05 1
0.128608 0.0375623 -0.00492063 0.3415 0.062325 0.429425 4.50849e-06 1
0.113132 0.0476724 0.0022757 0.3415 0.062325 0.429425 2.53833e-06 1
0.119982 0.0477505 0.00109471 0.3415 0.062325 0.429425 1.12259e-05 1
0.116104 0.0440354 0.000448347 0.3415 0.062325 0.429425 9.37244e-06 1
0.1231 0.0356757 -0.00148378 0.3415 0.062325 0.429425 5.19435e-06 1
0.1191 0.0374439 -0.00116599 0.3415 0.062325 0.429425 2.59546e-06 1
0.120749 0.0392076 0.00223074 0.3415 0.062325 0.429425 1.41383e-05 1
0.125585 0.0357921 -0.00124638 0.3415 0.062325 0.429425 7.22622e-06 1
0.113978 0.0468774 0.00302385 0.3415 0.062325 0.429425 1.69675e-06 1
0.109532 0.0452489 0.00239355 0.3415 0.062325 0.429425 1.16476e-06 1
0.121516 0.0349907 0.00421838 0.3415 0.062325 0.429425 2.56118e-07 1
0.109108 0.0476771 0.00136994 0.3415 0.062325 0.429425 3.63008e-06 1
0.126722 0.0402275 0.00338343 0.3415 0.062325 0.429425 1.27668e-05 1
0.130228 0.0379147 -0.000514577 0.3415 0.062325 0.429425 1.20265e-05 1
0.116252 0.0467663 -8.79318e-05 0.3415 0.062325 0.429425 2.19216e-06 1
0.10602 0.0459168 0.00110095 0.3415 0.062325 0.429425 1.51085e-05 1
0.10989 0.0500403 0.00127993 0.3415 0.062325 0.429425 4.91413e-07 1
0.111773 0.0493949 -0.000339732 0.3415 0.062325 0.429425 1.20895e-06 1
0.113518 0.0495616 -2.88852e-05 0.3415 0.062325 0.429425 9.76761e-07 1
0.11444 0.0489347 0.000593429 0.3415 0.062325 0.429425 2.37613e-06 1
0.113601 0.049679 0.00208575 0.3415 0.062325 0.429425 2.16292e-07 1
0.124229 0.0334193 0.000205326 0.3415 0.062325 0.429425 3.37226e-06 1
0.113469 0.0369448 -0.00403428 0.3415 0.062325 0.429425 2.86288e-05 1
0.115952 0.0403994 -0.00566312 0.3415 0.062325 0.429425 7.59421e-06 1
0.117908 0.0413115 -0.00254153 0.3415 0.062325 0.429425 8.60274e-06 1
0.115425 0.0378569 -0.000912686 0.3415 0.062325 0.429425 3.44815e-05 1
0.112888 0.0498598 -0.00127005 0.3415 0.062325 0.429425 1.4652e-06 1
0.130528 0.0369506 -0.00293509 0.3415 0.062325 0.429425 7.95956e-06 1
0.122447 0.0461383 -0.00109609 0.3415 0.062325 0.429425 7.58233e-06 1
0.123736 0.0466988 -0.00348543 0.3415 0.062325 0.429425 6.18812e-06 1
0.118157 0.049005 -0.000576079 0.3415 0.062325 0.429425 5.64398e-06 1
0.107862 0.0345817 0.00156229 0.3415 0.062325 0.429425 8.92231e-06 1
0.113456 0.0427819 0.00358233 0.3415 0.062325 0.429425 1.10708e-05 1
0.116521 0.0480261 -0.0017664 0.3415 0.062325 0.429425 3.05983e-06 1
0.116128 0.0502787 0.00140694 0.3415 0.062325 0.429425 1.03415e-06 1
0.123603 0.0391152 0.00218232 0.3415 0.062325 0.429425 1.72907e-05 1
0.121714 0.0385626 -0.00389307 0.3415 0.062325 0.429425 8.04666e-06 1
0.118153 0.0436249 0.00305795 0.3415 0.062325 0.429425 1.96893e-05 1
0.104715 0.0473797 0.00412034 0.3415 0.062325 0.429425 2.59932e-06 1
0.126616 0.0362258 0.0017287 0.3415 0.062325 0.429425 4.51335e-06 1
0.116617 0.0339893 0.000462853 0.3415 0.062325 0.429425 1.14522e-05 1
0.127688 0.041588 0.00336917 0.3415 0.062325 0.429425 6.94155e-06 1
0.00879073 0.00160834 -0.00657989 0.735683 0.215906 0.330245 1.68663e-05 2
0.0103875 -0.00174606 -0.00776748 0.735683 0.215906 0.330245 1.61183e-05 2
0.0025354 0.00105228 0.000892893 0.735683 0.215906 0.330245 4.88454e-06 2
0.00505173 0.00731104 -0.00285304 0.735683 0.215906 0.330245 2.73596e-06 2
0.0117755 0.00365287 -0.00492922 0.735683 0.215906 0.330245 1.48248e-05 2
0.00427475 0.00500423 0.00058247 0.735683 0.215906 0.330245 8.79179e-06 2
0.0139903 0.00346626 -0.00488438 0.735683 0.215906 0.330245 6.29884e-06 2
0.00470892 0.00326874 -0.000746523 0.735683 0.215906 0.330245 1.43033e-05 2
0.011472 -0.000135949 -0.00255195 0.735683 0.215906 0.330245 1.11305e-05 2
0.000375374 0.00302329 -0.00425692 0.735683 0.215906 0.330245 3.0883e-06 2
0.0054859 0.00557556 -0.00418204 0.735683 0.215906 0.330245 5.7486e-06 2
0.0136868 -0.000322567 -0.00250711 0.735683 0.215906 0.330245 4.3756e-06 2
0.016972 0.00840656 -0.00103574 0.735683 0.215906 0.330245 7.35837e-07 2
0.0138566 2.83504e-05 -0.00676627 0.735683 0.215906 0.330245 9.15103e-06 2
0.020203 0.00645673 -0.00719418 0.735683 0.215906 0.330245 2.96875e-06 2
0.0174641 0.00312888 -0.00819897 0.735683 0.215906 0.330245 1.25336e-05 2
-0.000746831 0.000775182 -0.00713922 0.735683 0.215906 0.330245 3.73036e-06 2
0.00137338 0.00701102 0.00101611 0.735683 0.215906 0.330245 1.08183e-06 2
0.0145019 0.00400285 -0.000994959 0.735683 0.215906 0.330245 3.03068e-06 2
0.00800881 0.00209964 -0.00241424 0.735683 0.215906 0.330245 1.73615e-05 2
0.0109936 0.00414417 -0.000763577 0.735683 0.215906 0.330245 1.96724e-05 2
0.0208655 0.00135288 -0.00611072 0.735683 0.215906 0.330245 3.03881e-05 2
0.0199373 0.00609918 -0.000589687 0.735683 0.215906 0.330245 9.85659e-06 2
0.0174672 0.00169546 -0.00054891 0.735683 0.215906 0.330245 3.31316e-05 2
-0.0114795 0.00619054 -0.00663079 0.735683 0.215906 0.330245 1.14841e-05 2
-0.0129054 0.00556233 -0.00320799 0.735683 0.215906 0.330245 2.42515e-05 2
-0.00853407 0.00480263 0.00375977 0.735683 0.215906 0.330245 5.9801e-06 2
-0.00865044 0.00515192 0.00140456 0.735683 0.215906 0.330245 2.20425e-05 2
-0.017267 0.00172704 -0.00515197 0.735683 0.215906 0.330245 1.2041e-05 2
-0.016258 0.00714156 -5.81004e-05 0.735683 0.215906 0.330245 1.06992e-05 2
-0.0169025 0.00381134 0.0062925 0.735683 0.215906 0.330245 6.44682e-06 2
-0.0147901 0.00741428 0.00364193 0.735683 0.215906 0.330245 1.03853e-05 2
-0.0151505 0.00055931 0.00789365 0.735683 0.215906 0.330245 1.35884e-05 2
-0.0109201 0.00665157 0.00411185 0.735683 0.215906 0.330245 2.53892e-05 2
-0.00920009 0.00396346 0.00647888 0.735683 0.215906 0.330245 1.17272e-05 2
-0.0089305 0.00554724 -0.00249149 0.735683 0.215906 0.330245 1.41561e-05 2
-0.0101695 -0.00764728 -0.00303019 0.735683 0.215906 0.330245 1.42134e-05 2
-0.0126413 -0.00721179 0.00149532 0.735683 0.215906 0.330245 2.75484e-05 2
-0.00187759 -0.001814 0.0028669 0.735683 0.215906 0.330245 1.64816e-05 2
-0.0113165 -0.00171684 -0.00419027 0.735683 0.215906 0.330245 2.1042e-05 2
-0.011215 -0.00408206 -0.00187667 0.735683 0.215906 0.330245 2.63051e-05 2
-0.00710896 0.000493915 0.00218913 0.735683 0.215906 0.330245 4.0729e-05 2
-0.00911059 -0.00234469 0.00567557 0.735683 0.215906 0.330245 2.83767e-05 2
-0.0117243 -0.00525475 0.00503603 0.735683 0.215906 0.330245 2.8355e-05 2
-0.0113181 0.00147414 0.00761011 0.735683 0.215906 0.330245 2.38907e-05 2
-0.0176257 -0.00495744 0.000748803 0.735683 0.215906 0.330245 9.46731e-06 2
-0.0162951 -0.00615673 0.00336132 0.735683 0.215906 0.330245 6.41982e-06 2
-0.0139719 -0.0060125 -0.0011172 0.735683 0.215906 0.330245 1.3168e-05 2
-0.0137588 -0.00214705 -0.00540081 0.735683 0.215906 0.330245 3.90832e-06 2
-0.0158961 -0.00158346 -0.00645976 0.735683 0.215906 0.330245 1.08222e-05 2
-0.0153781 -0.00419968 0.00690202 0.735683 0.215906 0.330245 1.28958e-05 2
-0.000761213 2.78689e-05 -0.00485553 0.735683 0.215906 0.330245 5.976e-06 2
-0.00995641 -0.00378182 -0.00731381 0.735683 0.215906 0.330245 1.27794e-05 2
-0.0021559 0.00238045 -0.00559509 0.735683 0.215906 0.330245 5.3243e-06 2
-0.0124741 -0.00741167 -0.00610347 0.735683 0.215906 0.330245 1.23504e-05 2
-0.000603249 0.00184723 0.00160277 0.735683 0.215906 0.330245 8.70046e-06 2
0.00848719 -0.00218048 -0.00420262 0.735683 0.215906 0.330245 1.00142e-05 2
0.00742347 -0.00517233 -0.00675686 0.735683 0.215906 0.330245 6.73177e-06 2
-0.00175413 0.00503629 0.00218096 0.735683 0.215906 0.330245 3.66297e-06 2
-0.000924652 -0.00663647 -0.00110333 0.735683 0.215906 0.330245 3.05003e-06 2
-0.000625207 -0.00310545 -0.00215233 0.735683 0.215906 0.330245 1.03435e-05 2
-0.00456996 0.00603306 0.00266052 0.735683 0.215906 0.330245 7.99065e-06 2
-0.00191837 -0.00311808 -0.000578285 0.735683 0.215906 0.330245 1.29772e-05 2
-0.00358659 -0.000745542 -0.00361991 0.735683 0.215906 0.330245 3.08286e-06 2
0.0020768 -0.00225054 -0.0038089 0.735683 0.215906 0.330245 4.17111e-06 2
0.00681743 -0.00605463 -0.0041399 0.735683 0.215906 0.330245 7.80819e-06 2
0.00296957 -0.000683206 -0.000436099 0.735683 0.215906 0.330245 7.2867e-06 2
-0.0136027 0.00383312 -0.00579597 0.735683 0.215906 0.330245 9.75292e-06 2
0.00164263 -0.000515053 -0.0024799 0.735683 0.215906 0.330245 2.69265e-06 2
0.000647852 -0.0015774 -0.00639966 0.735683 0.215906 0.330245 4.21335e-06 2
-0.0075507 -0.00197597 -0.00252066 0.735683 0.215906 0.330245 1.28256e-05 2
0.00051138 -0.00011003 -0.00155372 0.735683 0.215906 0.330245 1.16044e-05 2
0.00325987 0.00505997 0.00386386 0.735683 0.215906 0.330245 1.79513e-05 2
0.000132355 0.00308524 0.00502871 0.735683 0.215906 0.330245 8.72158e-06 2
0.00128324 -0.00010382 0.00445053 0.735683 0.215906 0.330245 1.92815e-05 2
-0.00738901 0.000889234 -0.00170692 0.735683 0.215906 0.330245 3.13161e-05 2
-0.0122318 0.000522626 -0.00710376 0.735683 0.215906 0.330245 3.19648e-05 2
0.00723183 -0.000207175 0.00102127 0.735683 0.215906 0.330245 4.31382e-05 2
0.0245013 -0.000203644 0.00969308 0.735683 0.215906 0.330245 3.91361e-06 2
0.0311626 0.00220485 0.00341522 0.735683 0.215906 0.330245 2.6207e-05 2
0.0175742 0.0048273 0.00716037 0.735683 0.215906 0.330245 7.31698e-06 2
0.0356981 0.0121849 0.00580535 0.735683 0.215906 0.330245 3.63754e-06 2
0.0206795 0.00724228 0.00556636 0.735683 0.215906 0.330245 3.44027e-06 2
0.0349128 0.0108496 0.00256139 0.735683 0.215906 0.330245 9.42806e-06 2
0.0114931 0.0034579 0.00767581 0.735683 0.215906 0.330245 5.90334e-06 2
0.0247032 0.00780951 0.00483143 0.735683 0.215906 0.330245 4.73538e-06 2
0.0268594 -0.00237551 -0.00924792 0.735683 0.215906 0.330245 5.18588e-06 2
0.0360738 0.00742479 0.00128627 0.735683 0.215906 0.330245 2.2332e-05 2
0.025913 0.00555706 0.00316487 0.735683 0.215906 0.330245 1.57123e-05 2
0.0299584 -0.00124499 -0.00691998 0.735683 0.215906 0.330245 8.97377e-06 2
0.0266559 -0.00329155 -0.00526461 0.735683 0.215906 0.330245 2.32798e-05 2
0.023557 -0.00442207 -0.00759255 0.735683 0.215906 0.330245 2.09381e-05 2
0.0147569 -0.00815904 -0.00395595 0.735683 0.215906 0.330245 4.06405e-06 2
0.0135531 -0.00376047 -0.004389 0.735683 0.215906 0.330245 4.43429e-06 2
0.0188302 0.00731685 0.00453759 0.735683 0.215906 0.330245 2.48594e-06 2
0.0174272 -0.00176208 -0.00351463 0.735683 0.215906 0.330245 4.07481e-05 2
0.0145543 0.0015733 0.00539344 0.735683 0.215906 0.330245 4.6282e-06 2
0.0132607 0.00152801 0.00566967 0.735683 0.215906 0.330245 9.41568e-06 2
0.0126303 0.00424732 0.00101456 0.735683 0.215906 0.330245 8.16212e-06 2
0.0126926 0.00395369 0.00343642 0.735683 0.215906 0.330245 1.08238e-05 2
0.0220694 -0.00304569 -0.00567768 0.735683 0.215906 0.330245 1.55232e-05 2
0.0217331 0.00530309 0.00256177 0.735683 0.215906 0.330245 1.17272e-05 2
0.0204771 0.00281354 0.00518456 0.735683 0.215906 0.330245 2.32019e-05 2
0.0174571 -0.000440452 0.00341763 0.735683 0.215906 0.330245 5.19268e-05 2
0.0276787 0.00323877 0.00562619 0.735683 0.215906 0.330245 1.42278e-05 2
0.0327638 -0.00435297 0.00175576 0.735683 0.215906 0.330245 1.1821e-05 2
0.0281515 -0.00941454 -0.00165965 0.735683 0.215906 0.330245 2.07949e-06 2
0.0265544 -0.00717238 -0.00132693 0.735683 0.215906 0.330245 1.41578e-05 2
0.0235521 -0.00224081 0.00853977 0.735683 0.215906 0.330245 1.01743e-05 2
0.026043 -0.00214215 0.00566873 0.735683 0.215906 0.330245 9.61422e-06 2
0.0231177 -0.00147805 0.00610303 0.735683 0.215906 0.330245 1.31363e-05 2
0.00549248 -0.00415913 0.0013317 0.735683 0.215906 0.330245 2.64281e-05 2
0.00459971 -0.00572646 -0.0020411 0.735683 0.215906 0.330245 1.56787e-05 2
0.010691 -0.000568683 0.00598902 0.735683 0.215906 0.330245 3.54526e-05 2
0.00842177 -0.00667947 0.00473323 0.735683 0.215906 0.330245 7.70708e-06 2
0.0120227 -0.00510791 0.00637983 0.735683 0.215906 0.330245 9.2934e-06 2
0.0236044 0.00468073 -0.00510593 0.735683 0.215906 0.330245 1.07125e-05 2
0.0269922 -0.000104983 0.00682204 0.735683 0.215906 0.330245 3.55238e-06 2
0.0174954 -0.00502497 0.00408467 0.735683 0.215906 0.330245 1.52634e-05 2
0.0271057 0.00432895 -0.00605145 0.735683 0.215906 0.330245 6.71564e-06 2
0.0281858 0.0055569 -0.00517694 0.735683 0.215906 0.330245 3.5956e-06 2
0.0274847 -0.00700052 0.00258702 0.735683 0.215906 0.330245 4.78002e-06 2
0.0295466 -0.00652478 0.00346704 0.735683 0.215906 0.330245 8.56837e-06 2
0.0283642 -0.00511663 0.00536753 0.735683 0.215906 0.330245 9.32628e-06 2
0.0226363 0.00596948 -0.00255062 0.735683 0.215906 0.330245 1.06329e-05 2
0.0304687 -0.00419901 0.00606215 0.735683 0.215906 0.330245 3.58518e-06 2
0.0228472 -0.00708711 0.0033556 0.735683 0.215906 0.330245 6.07331e-06 2
0.0254383 0.00680408 -0.00208004 0.735683 0.215906 0.330245 6.86202e-06 2
0.020782 -0.00497671 0.0053519 0.735683 0.215906 0.330245 2.24254e-05 2
0.0219885 -0.00748385 0.00113688 0.735683 0.215906 0.330245 1.35948e-05 2
0.0293634 -0.00239311 0.00701696 0.735683 0.215906 0.330245 4.02565e-06 2
0.0187092 -0.00728762 0.000551171 0.735683 0.215906 0.330245 1.14943e-05 2
0.0386564 0.0138569 0.00128822 0.735683 0.215906 0.330245 1.66555e-05 2
0.0329976 0.0062906 -0.00513877 0.735683 0.215906 0.330245 2.89375e-06 2
0.0295618 0.0120271 0.0016138 0.735683 0.215906 0.330245 3.72861e-06 2
0.0379642 -0.000123707 -0.00747639 0.735683 0.215906 0.330245 6.21859e-06 2
0.0482804 0.00849722 -0.00843194 0.735683 0.215906 0.330245 2.44748e-06 2
0.0389234 0.00276677 -0.00679356 0.735683 0.215906 0.330245 1.56337e-05 2
0.0476993 0.00882392 0.00463228 0.735683 0.215906 0.330245 1.67883e-05 2
0.0350138 0.0120403 -0.00349152 0.735683 0.215906 0.330245 4.77997e-06 2
0.032585 0.00181738 -0.00488638 0.735683 0.215906 0.330245 1.0352e-05 2
