ply
format ascii 1.0
comment Created by Open3D
element vertex 848
property float32 x
property float32 y
property float32 z
property float32 red
property float32 green
property float32 blue
property uint8 segmentation
end_header
0.0463792 0.00133509 0.00563711 0.898039 0.917647 0.929412 0
0.00596906 0.0409506 -0.01 0.921569 0.937255 0.823529 0
-0.00173396 0.0223943 0.0065 0.898039 0.917647 0.929412 0
0.0257333 0.007617 -0.01 0.945098 0.956863 0.717647 0
0.048 0.0268835 -0.000981166 0.898039 0.917647 0.929412 0
0.00510716 0.00023466 0.00964349 0.898039 0.917647 0.929412 0
0.0337184 0.045625 -0.01 0.937255 0.94902 0.756863 0
0.026703 0.0538856 0.00219773 0.898039 0.917647 0.929412 0
0.0205132 0.0413179 0.010885 0.898039 0.917647 0.929412 0
0.0151988 0 0.00724892 0.898039 0.917647 0.929412 0
0.0381201 0.00243552 0.01 0.898039 0.917647 0.929412 0
0.0168366 0.0150777 -0.01 0.988235 0.992157 0.537255 0
0.0315881 0.0329122 -0.01001 0.898039 0.917647 0.929412 0
0.0165601 0 -0.00318203 0.898039 0.917647 0.929412 0
0.0255164 0.00623163 -0.01 0.898039 0.917647 0.929412 0
0.0001 -0.00139972 0.00398053 0.898039 0.917647 0.929412 0
0 0.00550474 0.00793896 0.898039 0.917647 0.929412 0
0.0476184 0.0442519 0.00978461 0.898039 0.917647 0.929412 0
-0.00445853 0.0323857 -0.00342056 0.898039 0.917647 0.929412 0
0.0190423 0 -0.00584448 0.898039 0.917647 0.929412 0
0.00596906 0.0257311 -0.01 0.952941 0.960784 0.678431 0
0.0444083 0.0249815 -0.01 0.909804 0.92549 0.870588 0
0.0459623 0.0222433 0.01 0.898039 0.917647 0.929412 0
0.00706949 0.0397311 0.0099 0.87451 0.890196 0.898039 0
0.0236859 0.0544361 -0.00324872 0.898039 0.917647 0.929412 0
0.00328981 0.0488921 -0.00777256 0.898039 0.917647 0.929412 0
0.037933 0.0105862 -0.01 0.92549 0.941176 0.8 0
-0.00439435 0.0376493 0.00199929 0.898039 0.917647 0.929412 0
0.0478363 0.0470256 -0.00335109 0.898039 0.917647 0.929412 0
0.0374229 0.0323505 -0.01 1 1 0.501961 0
0.0203239 0.0220653 0.0123407 0.898039 0.917647 0.929412 0
0.0301683 0 -0.00450007 0.898039 0.917647 0.929412 0
0.048 0.0142616 0.00323934 0.898039 0.917647 0.929412 0
0.0392188 0.0348902 -0.01 1 1 0.501961 0
0.00360636 0.0411891 0.01 0.898039 0.917647 0.929412 0
0.0182078 0.0554356 -0.00714605 0.898039 0.917647 0.929412 0
0.0202747 0.0178416 -0.01 0.980392 0.984314 0.572549 0
-0.000852835 0.0224818 -0.00471184 0.898039 0.917647 0.929412 0
0.0235411 0.0246827 0.0128161 0.898039 0.917647 0.929412 0
0.0145893 0.0524025 -0.01 0.94902 0.956863 0.709804 0
0.048 0.0398502 -0.00452099 0.898039 0.917647 0.929412 0
0.00156733 0.000812223 -0.00998102 0.898039 0.917647 0.929412 0
0.0344832 0.0524661 0.00534243 0.898039 0.917647 0.929412 0
0.0315175 0.00827509 -0.01 0.937255 0.94902 0.745098 0
0.0237788 0.00903811 0.0099 0.87451 0.890196 0.898039 0
0.027208 0.0177326 -0.01 1 1 0.501961 0
0.0357561 0.016788 -0.01 0.980392 0.984314 0.572549 0
0.048 0.0107118 0.00501927 0.898039 0.917647 0.929412 0
0.0367811 0.0475185 -0.01 0.937255 0.94902 0.756863 0
0.00680813 0.0149879 -0.01 0.94902 0.960784 0.690196 0
0.002 0.00467318 -0.00326077 0.898039 0.917647 0.929412 0
-0.000725044 0.0288459 0.01 0.898039 0.917647 0.929412 0
0.0433683 0.000531158 -0.00986528 0.898039 0.917647 0.929412 0
0.0335145 0.0249815 -0.01 0.945098 0.956863 0.709804 0
0.0479976 0.0244244 -0.00903064 0.898039 0.917647 0.929412 0
0.048 0.00961609 -0.000109954 0.898039 0.917647 0.929412 0
0.0374052 0.00217015 -0.01 0.898039 0.917647 0.929412 0
0.0405336 0.0207742 0.0099 0.87451 0.890196 0.898039 0
0.0103722 0.0148312 0.0099 0.870588 0.886275 0.894118 0
0.0317896 0.00744833 0.01 0.898039 0.917647 0.929412 0
0.0447227 0.0312853 -0.01 0.909804 0.92549 0.870588 0
0.0331772 0.00606076 -0.01 0.945098 0.956863 0.717647 0
0.00547392 0.0486536 0.000119265 0.94902 0.956863 0.713726 0
0.048 0.00851565 0.000990477 0.898039 0.917647 0.929412 0
-9.491e-05 0.0415967 -0.00745188 0.898039 0.917647 0.929412 0
0.0285395 0.0193104 -0.01 1 1 0.501961 0
0.0424331 0.04757 0.01 0.898039 0.917647 0.929412 0
0.0001 -0.000265046 -0.00443453 0.898039 0.917647 0.929412 0
0.000705433 0.0268835 -0.01 0.917647 0.933333 0.835294 0
0.0020828 0.0125779 0.00538289 0.898039 0.917647 0.929412 0
0.0390039 0.0345865 0.0099 0.87451 0.890196 0.898039 0
0.048 0.0246827 0.000119265 0.898039 0.917647 0.929412 0
0.0317933 0 -0.00172491 0.898039 0.917647 0.929412 0
0.0343413 0.0389883 -0.01 0.984314 0.988235 0.556863 0
0.0233843 0.0058943 -0.01 0.898039 0.917647 0.929412 0
0.021554 0.00353595 -0.01 0.898039 0.917647 0.929412 0
0 0.00597534 -0.00452099 0.898039 0.917647 0.929412 0
0.048 0.0331001 -0.00336275 0.898039 0.917647 0.929412 0
0.0088436 0.035687 -0.01 0.968627 0.976471 0.611765 0
0.0356802 0.0319075 0.01 0.898039 0.917647 0.929412 0
0.0163959 0 0.00683483 0.898039 0.917647 0.929412 0
0.0298647 -4.67193e-18 -0.00298507 0.898039 0.917647 0.929412 0
0.0168402 0.0389883 0.0138964 0.898039 0.917647 0.929412 0
0.0272409 0.0465621 -0.01 0.94902 0.956863 0.701961 0
0.0254782 0.00297293 -0.01 0.898039 0.917647 0.929412 0
0.0137242 0.026082 -0.01 1 1 0.501961 0
0.0239511 0.0276817 -0.01 1 1 0.501961 0
0.031708 0.0529725 -0.00176648 0.898039 0.917647 0.929412 0
0.0121256 0.0339992 -0.01001 0.898039 0.917647 0.929412 0
0.048 0.0401022 0.00553293 0.898039 0.917647 0.929412 0
0.0136721 0 -0.0048374 0.898039 0.917647 0.929412 0
0.000761862 0.0130622 0.00806156 0.898039 0.917647 0.929412 0
0.00180586 0.00377448 -0.01 0.898039 0.917647 0.929412 0
0.00742879 0 -0.00689417 0.898039 0.917647 0.929412 0
0.0387927 0.00355772 0.01 0.898039 0.917647 0.929412 0
0.00898365 0.0559734 0.000510076 0.898039 0.917647 0.929412 0
0.0118003 0.00224009 -0.01 0.898039 0.917647 0.929412 0
0.0367811 0.04339 0.01 0.898039 0.917647 0.929412 0
0.048 0.0351134 -0.00708519 0.898039 0.917647 0.929412 0
0.0469442 0.00194888 -0.00442146 0.898039 0.917647 0.929412 0
0.0273935 0.035687 0.013556 0.898039 0.917647 0.929412 0
0.0360394 0.0521822 0.00342551 0.898039 0.917647 0.929412 0
0.048 0.0167411 0.00581274 0.898039 0.917647 0.929412 0
0.0321773 0.0345865 -0.01001 0.898039 0.917647 0.929412 0
0.048 0.00903811 0.0020816 0.898039 0.917647 0.929412 0
0.030538 0.0531859 -0.00472695 0.898039 0.917647 0.929412 0
0.0202747 0.018942 -0.01 0.980392 0.984314 0.572549 0
0.0050626 0.0191805 0.0099 0.87451 0.890196 0.898039 0
0.00480368 -1.16798e-18 0.00294382 0.898039 0.917647 0.929412 0
0.0345803 0 -0.00344435 0.898039 0.917647 0.929412 0
0.00560986 0.00276603 -0.01 0.898039 0.917647 0.929412 0
0.0429629 0.0348391 0.01 0.898039 0.917647 0.929412 0
0.0293069 0.0290068 0.01 0.898039 0.917647 0.929412 0
0.0287994 0 0.0056244 0.898039 0.917647 0.929412 0
-0.00380535 0.0290407 0.00275386 0.898039 0.917647 0.929412 0
0.025235 0.042051 0.01 0.898039 0.917647 0.929412 0
0.0268772 0.0132812 -0.01 0.956863 0.964706 0.666667 0
-0.00144989 0.0222433 0.0065 0.898039 0.917647 0.929412 0
0.048 0.0055024 -0.00411483 0.898039 0.917647 0.929412 0
0.0458035 0.00144742 0.00984124 0.898039 0.917647 0.929412 0
0.00730802 0.0222433 0.0099 0.87451 0.890196 0.898039 0
0.0350686 0.0246457 0.01 0.898039 0.917647 0.929412 0
0.0147725 0.00383753 0.01 0.898039 0.917647 0.929412 0
0.0353969 0.00747659 -0.01 0.941176 0.952941 0.737255 0
0.0458231 0.0399685 0.01 0.898039 0.917647 0.929412 0
0.00423999 0.0103771 -0.000467202 0.898039 0.917647 0.929412 0
0.0147137 0.0356634 0.0135176 0.898039 0.917647 0.929412 0
0.0234476 0.0103771 -0.01 0.952941 0.960784 0.686275 0
0.00486863 0.0137817 0.01 0.898039 0.917647 0.929412 0
0.00215089 0.036788 0.01 0.898039 0.917647 0.929412 0
0.0414214 0.0409506 0.01 0.898039 0.917647 0.929412 0
0.0326179 0.0451377 -0.01 0.968627 0.976471 0.611765 0
0.048 0.0151136 0.000617548 0.898039 0.917647 0.929412 0
0.0206457 0.025712 0.0125273 0.898039 0.917647 0.929412 0
0.0123366 0.0144514 0.0099 0.87451 0.890196 0.898039 0
0.0257682 0.0315499 0.0103 0.898039 0.917647 0.929412 0
0.0331191 0.0391274 0.0099441 0.890196 0.905882 0.917647 0
0.0205132 0 -0.00294382 0.898039 0.917647 0.929412 0
0.0289897 0 0.0048374 0.898039 0.917647 0.929412 0
0.002 0.00569712 -0.0027533 0.898039 0.917647 0.929412 0
-0.00286667 0.0402153 -0.002698 0.898039 0.917647 0.929412 0
0.0271158 0.0180801 -0.01 1 1 0.501961 0
0.000143164 0.00809554 -0.00468628 0.898039 0.917647 0.929412 0
0.0169734 0 -0.00033186 0.898039 0.917647 0.929412 0
0.0221238 0.0243984 0.0132534 0.898039 0.917647 0.929412 0
0.00620759 0.0169797 -0.01 0.94902 0.960784 0.690196 0
0.047746 0.00346743 0.00879558 0.898039 0.917647 0.929412 0
0.0435806 0.0447912 0.01 0.898039 0.917647 0.929412 0
0.0154607 0 -0.00304554 0.898039 0.917647 0.929412 0
0.00498276 0.0478102 -0.00061507 0.94902 0.956863 0.713726 0
0.0169316 0 0.00609951 0.898039 0.917647 0.929412 0
0.0401787 0.0140129 -0.01 0.941176 0.952941 0.741176 0
0.0378816 0.0123394 -0.01 0.929412 0.945098 0.784314 0
0.0136721 0.00377448 0.01 0.898039 0.917647 0.929412 0
0.00159104 0.00407336 -0.01 0.898039 0.917647 0.929412 0
0.0199491 0.0192888 -0.01 0.980392 0.984314 0.572549 0
0.000506787 0.0166278 0.00452099 0.898039 0.917647 0.929412 0
-0.00426118 0.0313751 -0.000225162 0.898039 0.917647 0.929412 0
0.048 0.0154839 -0.00458549 0.898039 0.917647 0.929412 0
0.00185487 0.0158498 0.00168621 0.898039 0.917647 0.929412 0
0.0314955 0.0454071 0.0099 0.870588 0.886275 0.894118 0
-0.000622365 0.0438037 0.00422838 0.898039 0.917647 0.929412 0
0.000669192 4.67193e-18 0.00672185 0.898039 0.917647 0.929412 0
0.048 0.0428437 0.00326843 0.898039 0.917647 0.929412 0
0.0245091 0.0134183 0.01 0.898039 0.917647 0.929412 0
0.000885136 0.0137903 0.00978461 0.898039 0.917647 0.929412 0
-0.000408446 0.0200744 0.00551974 0.898039 0.917647 0.929412 0
0.0304166 0.0530553 -0.0095251 0.898039 0.917647 0.929412 0
0.0345803 0.0422896 0.0099 0.87451 0.890196 0.898039 0
0.0324477 0.0398502 -0.01 0.984314 0.988235 0.556863 0
0.0321305 0.00778788 -0.01 0.937255 0.94902 0.756863 0
0.0244714 0.00255291 -0.01 0.898039 0.917647 0.929412 0
0.000466903 0 0.00605631 0.898039 0.917647 0.929412 0
0.0227141 0.0278801 0.0127509 0.898039 0.917647 0.929412 0
0.000843972 0.0160077 0.01 0.898039 0.917647 0.929412 0
0.0175332 0 0.00302556 0.898039 0.917647 0.929412 0
0.0411828 0.0178416 -0.01 0.933333 0.945098 0.768627 0
0.0239092 0.02881 0.0128468 0.898039 0.917647 0.929412 0
0.048 0.0423782 -0.00208454 0.898039 0.917647 0.929412 0
0.021519 0.0413738 0.0130295 0.898039 0.917647 0.929412 0
0.0474461 0.039393 -0.00989415 0.898039 0.917647 0.929412 0
0.0425125 0.0114775 0.01 0.898039 0.917647 0.929412 0
0.0250534 0.0054513 0.01 0.898039 0.917647 0.929412 0
0.0406363 0.0455061 0.01 0.898039 0.917647 0.929412 0
0.0351624 0.0242749 -0.0101 0.898039 0.917647 0.929412 0
0.00436426 0.0027283 -0.01 0.898039 0.917647 0.929412 0
0.00913692 0.0349624 0.01 0.898039 0.917647 0.929412 0
0.0227141 0.0546134 -0.00641196 0.898039 0.917647 0.929412 0
0.0260153 0.0322036 0.0131968 0.898039 0.917647 0.929412 0
0.0194128 0.0431515 0.0099 0.87451 0.890196 0.898039 0
0.0364628 0 0.00342056 0.898039 0.917647 0.929412 0
0.0423537 0.0365489 0.01 0.898039 0.917647 0.929412 0
0.048 0.032706 -0.00777769 0.898039 0.917647 0.929412 0
0.0334062 0.0186655 -0.01 0.960784 0.968627 0.647059 0
0.00864699 0.0140106 0.0099 0.87451 0.890196 0.898039 0
0.0331185 0.0103799 -0.01 0.937255 0.94902 0.745098 0
0.000837509 0.0140106 -0.0065 0.898039 0.917647 0.929412 0
0.0207627 0.0326778 -0.01001 0.898039 0.917647 0.929412 0
0.048 0.0422896 -0.00163115 0.898039 0.917647 0.929412 0
0.0385212 0.0517294 0.00471021 0.898039 0.917647 0.929412 0
0.0378459 0.020067 -0.01 0.956863 0.964706 0.666667 0
0.0180738 0.0378878 0.0137829 0.898039 0.917647 0.929412 0
0.0411874 0.0288459 -0.01 0.964706 0.968627 0.643137 0
0.048 0.0294044 -0.00108034 0.898039 0.917647 0.929412 0
0.0039459 0.0169545 -0.01 0.945098 0.956863 0.713726 0
0.048 0.0398502 -0.0012197 0.898039 0.917647 0.929412 0
0.0037682 0 0.00761255 0.898039 0.917647 0.929412 0
0.048 0.0317773 0.00452099 0.898039 0.917647 0.929412 0
0.00730802 0.00934412 -0.01 0.913725 0.929412 0.854902 0
-0.00333754 0.026645 -0.00472512 0.898039 0.917647 0.929412 0
0.0260153 0.0102319 0.0099 0.87451 0.890196 0.898039 0
0.0137242 0.0192888 -0.01 1 1 0.501961 0
0.0138928 0.0253451 0.01 0.898039 0.917647 0.929412 0
0.0126978 0.0414011 -0.01 0.972549 0.976471 0.603922 0
0.048 0.039325 0.00753096 0.898039 0.917647 0.929412 0
0.0213751 0.0466913 0.0099 0.87451 0.890196 0.898039 0
0.00394059 0.00880961 -0.0027533 0.898039 0.917647 0.929412 0
0.048 0.0162932 0.00425649 0.898039 0.917647 0.929412 0
0.0173997 0.0215256 0.0103 0.898039 0.917647 0.929412 0
0.00199993 0.011575 0.0065 0.898039 0.917647 0.929412 0
0.0258478 0.0366248 -0.01 0.984314 0.988235 0.556863 0
0.0329269 0.0435991 -0.01 0.968627 0.976471 0.611765 0
0.0232834 0.0177326 -0.01 0.980392 0.984314 0.572549 0
0.048 0.032973 0.00129277 0.898039 0.917647 0.929412 0
0.0252238 0.0440687 -0.01 0.964706 0.968627 0.639216 0
0.0336218 4.67193e-18 -0.00234045 0.898039 0.917647 0.929412 0
-0.00131043 0.0427035 -0.00425425 0.898039 0.917647 0.929412 0
0.00402556 0.00133509 -0.00047451 0.898039 0.917647 0.929412 0
0.048 0.0397658 0.00675284 0.898039 0.917647 0.929412 0
0.0469235 0.0150686 0.01 0.898039 0.917647 0.929412 0
0.002 0.00377448 -0.00232013 0.898039 0.917647 0.929412 0
0.00400673 0.00728735 0.01 0.898039 0.917647 0.929412 0
0.00811632 0.00573681 0.01 0.898039 0.917647 0.929412 0
0.0403209 0.0451377 -0.01 0.921569 0.937255 0.815686 0
0.0246764 0 -0.000168666 0.898039 0.917647 0.929412 0
0.0376817 0 -0.00342056 0.898039 0.917647 0.929412 0
0.0205132 0.0264628 -0.01 1 1 0.501961 0
0.0371353 0 0.00433687 0.898039 0.917647 0.929412 0
0.0194128 0.0513627 -0.01 0.945098 0.956863 0.713726 0
0.00816992 0.0277454 -0.01 0.968627 0.972549 0.619608 0
0.0156602 0.0136784 0.0099 0.87451 0.890196 0.898039 0
0.00549993 0.0407278 0.01 0.898039 0.917647 0.929412 0
0.001472 0.0114775 0.00758375 0.898039 0.917647 0.929412 0
0.00966933 0 -0.00452099 0.898039 0.917647 0.929412 0
0.0262227 0.0156407 -0.01 1 1 0.501961 0
0.0001 -0.00269356 -0.00336275 0.898039 0.917647 0.929412 0
0.0363719 0.0490748 -0.01 0.921569 0.937255 0.815686 0
0.0213751 0.0148013 0.0125759 0.898039 0.917647 0.929412 0
0.0117097 0 -0.000981166 0.898039 0.917647 0.929412 0
0.048 0.0366674 0.00676687 0.898039 0.917647 0.929412 0
0.00603 0.0182892 -0.01 0.952941 0.960784 0.686275 0
0.0339553 0.0150777 -0.01 0.984314 0.988235 0.556863 0
0.0147308 0 0.00738875 0.898039 0.917647 0.929412 0
0.0131596 0.0563566 0.00365346 0.898039 0.917647 0.929412 0
0.00975195 0 -0.00408558 0.898039 0.917647 0.929412 0
0.0216358 0.00014863 -0.009523 0.898039 0.917647 0.929412 0
0.0241771 0.0249815 -0.01 1 1 0.501961 0
0.048 0.0158792 -0.00868418 0.898039 0.917647 0.929412 0
0.02298 0.0267096 0.0126302 0.898039 0.917647 0.929412 0
0.048 0.034348 -0.00342056 0.898039 0.917647 0.929412 0
0.0177834 0.0339045 0.0133722 0.898039 0.917647 0.929412 0
0.048 0.0255446 0.00318203 0.898039 0.917647 0.929412 0
0.0434615 0.0508281 -0.00750107 0.898039 0.917647 0.929412 0
0.0029063 0.0460924 0.00374192 0.898039 0.917647 0.929412 0
0.0118499 0.0565567 0.00618126 0.898039 0.917647 0.929412 0
0.048 0.0298837 0.00758375 0.898039 0.917647 0.929412 0
0.048 0.043166 0.00514699 0.898039 0.917647 0.929412 0
0.048 0.0174337 0.00428246 0.898039 0.917647 0.929412 0
0.0369811 0.0290748 0.01 0.898039 0.917647 0.929412 0
0.000335099 0.0233437 0.01 0.898039 0.917647 0.929412 0
0.0128851 0.0453523 0.0099 0.87451 0.890196 0.898039 0
0 0.000345826 -0.00484589 0.898039 0.917647 0.929412 0
0.0019376 0.00982245 -0.00952167 0.898039 0.917647 0.929412 0
0.00486141 0.0179499 -0.01 0.952941 0.960784 0.686275 0
0.048 0.0210982 0.00486659 0.898039 0.917647 0.929412 0
0.0264023 0 0.00761255 0.898039 0.917647 0.929412 0
0.048 0.0367064 -0.00868418 0.898039 0.917647 0.929412 0
0.0365187 0.0286476 -0.01 1 1 0.501961 0
0.0424578 0.0217941 -0.01 0.933333 0.945098 0.768627 0
0.0276488 -2.33597e-18 -0.000532305 0.898039 0.917647 0.929412 0
-0.00122397 0.0257831 -0.00294888 0.898039 0.917647 0.929412 0
0.0101709 0.00517379 -0.01 0.898039 0.917647 0.929412 0
0.00180586 0.0321193 0.01 0.898039 0.917647 0.929412 0
0.0129791 0.016788 -0.01 1 1 0.501961 0
-0.00212007 0.0335753 -0.006 0.898039 0.917647 0.929412 0
0.048 0.0354018 0.000420243 0.898039 0.917647 0.929412 0
0.048 0.0094779 0.00158447 0.898039 0.917647 0.929412 0
0.0141578 0.0261255 -0.01 1 1 0.501961 0
0.0402403 2.33597e-18 0.00172491 0.898039 0.917647 0.929412 0
0.0205132 0.034234 -0.01001 0.898039 0.917647 0.929412 0
0.0286498 0 0.00711203 0.898039 0.917647 0.929412 0
0.00254982 0.0475532 -0.00661898 0.898039 0.917647 0.929412 0
0.019442 0.044406 -0.01 0.996078 0.996078 0.509804 0
0.00535234 0.0352162 0.0099 0.87451 0.890196 0.898039 0
0.0103614 0.055675 -0.00997119 0.898039 0.917647 0.929412 0
0.0132834 0.0247357 -0.01 0.960784 0.964706 0.654902 0
0.0284269 0.0233606 0.01 0.898039 0.917647 0.929412 0
0.00647079 0.0149879 -0.01 0.933333 0.945098 0.772549 0
0.0260153 0.0162722 0.0119089 0.898039 0.917647 0.929412 0
0.0433799 0.00288315 -0.01 0.898039 0.917647 0.929412 0
0.011439 0.0565952 -0.00117962 0.898039 0.917647 0.929412 0
0.0227141 0.000383732 -0.00978461 0.898039 0.917647 0.929412 0
0.0188655 -2.33597e-18 0.00883439 0.898039 0.917647 0.929412 0
0.0330956 0.00795453 0.01 0.898039 0.917647 0.929412 0
0.00598529 0.0314311 -0.01 0.945098 0.956863 0.713726 0
0.00861242 0.00573681 0.01 0.898039 0.917647 0.929412 0
0.0443339 0.0319561 -0.01 0.909804 0.92549 0.870588 0
0.048 0.0237841 -0.00129358 0.898039 0.917647 0.929412 0
0.0425218 0.0509995 -0.000119265 0.898039 0.917647 0.929412 0
0.017174 0.033295 -0.01001 0.898039 0.917647 0.929412 0
0.00818579 0 -0.00139019 0.898039 0.917647 0.929412 0
0.00516989 0.0517771 0.00811637 0.898039 0.917647 0.929412 0
0.0115982 0.0100625 0.01 0.898039 0.917647 0.929412 0
0.0160563 0.0488921 0.01 0.898039 0.917647 0.929412 0
0.0413651 0.00106238 0.01 0.898039 0.917647 0.929412 0
0.00270414 0.011239 0.00442905 0.898039 0.917647 0.929412 0
0.048 0.0377688 -0.00180651 0.898039 0.917647 0.929412 0
0.0255288 0.0540999 -0.0075812 0.898039 0.917647 0.929412 0
0.048 0.0283274 -0.000119265 0.898039 0.917647 0.929412 0
0.048 0.0377121 -0.00277162 0.898039 0.917647 0.929412 0
0.047986 0.0459908 -0.00102839 0.898039 0.917647 0.929412 0
0.0115585 0.024567 0.01 0.898039 0.917647 0.929412 0
0.0182499 0.0300839 0.0103 0.898039 0.917647 0.929412 0
0.00801754 0.0552562 -0.00270751 0.898039 0.917647 0.929412 0
0.0205663 0.00573681 0.01 0.898039 0.917647 0.929412 0
0.00599157 0.0178416 -0.01 0.952941 0.960784 0.686275 0
0.0469235 0.0489119 -0.00782228 0.898039 0.917647 0.929412 0
0.047426 0.00270565 0.00318203 0.898039 0.917647 0.929412 0
0.0184415 0.0222433 -0.01 0.956863 0.964706 0.670588 0
0.00197073 0.0304402 0.01 0.898039 0.917647 0.929412 0
0.0258505 0.0540412 -0.00231548 0.898039 0.917647 0.929412 0
0.0453769 0.0502159 0.0081957 0.898039 0.917647 0.929412 0
0.0224755 0.0195061 -0.01 0.980392 0.984314 0.572549 0
0.00400673 0.0460863 -0.000119265 0.941176 0.952941 0.737255 0
0.0295931 0.0238375 -0.01 0.964706 0.972549 0.631373 0
0.00566637 0 -0.00318203 0.898039 0.917647 0.929412 0
-0.000573229 0.0387497 -0.00978461 0.898039 0.917647 0.929412 0
0.048 0.0336301 -0.0042301 0.898039 0.917647 0.929412 0
0.000292983 0.017411 -0.00512969 0.898039 0.917647 0.929412 0
0.0100775 0 -0.00254111 0.898039 0.917647 0.929412 0
0.0425218 0 0.00399954 0.898039 0.917647 0.929412 0
0.048 0.016565 -0.00163115 0.898039 0.917647 0.929412 0
0.0150118 0.00778788 -0.01 0.898039 0.917647 0.929412 0
0.0265539 0.04339 0.0099 0.870588 0.886275 0.894118 0
0.0382586 0.00233881 0.01 0.898039 0.917647 0.929412 0
0.00905542 0.0208451 -0.01 0.980392 0.984314 0.572549 0
0.0238212 0.0233437 0.0127589 0.898039 0.917647 0.929412 0
0.043606 0.014492 0.01 0.898039 0.917647 0.929412 0
0.0190894 5.89392e-06 -0.00909165 0.898039 0.917647 0.929412 0
0.0266829 0.0215291 0.012096 0.898039 0.917647 0.929412 0
0.0149802 0.040781 0.0136557 0.898039 0.917647 0.929412 0
0.00383961 0.0217941 -0.01 0.968627 0.972549 0.615686 0
0.0473521 0.00946455 0.00993532 0.898039 0.917647 0.929412 0
0.00845041 0 0.00672185 0.898039 0.917647 0.929412 0
0.00510716 0.0088436 0.01 0.898039 0.917647 0.929412 0
0.0432112 1.84777e-05 -0.00297213 0.898039 0.917647 0.929412 0
0.0262767 0.0411891 0.0132897 0.898039 0.917647 0.929412 0
0.048 0.00838215 -0.00354475 0.898039 0.917647 0.929412 0
0.0268772 0.0464528 -0.01 0.960784 0.964706 0.658824 0
0.00303096 0.0129085 -0.00030297 0.898039 0.917647 0.929412 0
0.0261539 0.00589209 0.01 0.898039 0.917647 0.929412 0
0.0363391 0.0228916 -0.0100231 0.909804 0.92549 0.870588 0
0.0294553 0.00402707 0.01 0.898039 0.917647 0.929412 0
0.0198388 0.0282354 0.0127876 0.898039 0.917647 0.929412 0
-0.00194283 0.0244441 -0.00955539 0.898039 0.917647 0.929412 0
0.0128102 0.0564204 -0.00523299 0.898039 0.917647 0.929412 0
0.0412936 0.0399411 0.01 0.898039 0.917647 0.929412 0
0.00800206 0.0214629 0.0099 0.87451 0.890196 0.898039 0
0.0267476 0.0176126 -0.01 1 1 0.501961 0
-0.00445124 0.0374989 -0.00173904 0.898039 0.917647 0.929412 0
0.0372582 0.0167858 0.0099 0.87451 0.890196 0.898039 0
0.00329588 0.0488921 -0.00730431 0.898039 0.917647 0.929412 0
0.0115853 0.00023466 0.00964349 0.898039 0.917647 0.929412 0
0.0356505 0.0408481 -0.01 0.984314 0.988235 0.556863 0
0.0240084 0.0136733 0.0136182 0.898039 0.917647 0.929412 0
0.0334798 0.0101385 -0.01 0.937255 0.94902 0.745098 0
0.0178437 0.00454872 -0.01 0.898039 0.917647 0.929412 0
0.036856 0.0235822 -0.01 0.952941 0.960784 0.690196 0
0.0100022 0.0167858 0.0099 0.87451 0.890196 0.898039 0
0.0170906 0.00311915 -0.01 0.898039 0.917647 0.929412 0
0.0417366 0.0224013 -0.01 0.968627 0.972549 0.627451 0
0.0397373 0.0139408 0.01 0.898039 0.917647 0.929412 0
0.0224755 0 0.00122438 0.898039 0.917647 0.929412 0
0.0201178 0.0175639 0.011717 0.898039 0.917647 0.929412 0
0.0364584 0.0407184 0.0099 0.87451 0.890196 0.898039 0
0.0103708 0.0276817 -0.01 1 1 0.501961 0
0.0342455 0.00670499 0.01 0.898039 0.917647 0.929412 0
0.024257 0 -0.00334855 0.898039 0.917647 0.929412 0
0.0358489 0.0238811 -0.01 0.980392 0.984314 0.572549 0
0.00261862 0.0400887 -0.01 0.905882 0.92549 0.878431 0
0.0367429 0.0461255 0.01 0.898039 0.917647 0.929412 0
0.014885 0.0403442 0.0104437 0.898039 0.917647 0.929412 0
0.0333459 0.0381404 0.01 0.898039 0.917647 0.929412 0
0.00620759 0.00133509 0.01 0.898039 0.917647 0.929412 0
0.0477854 0.00361447 0.00172636 0.898039 0.917647 0.929412 0
0.0161115 0.0431515 0.0099 0.87451 0.890196 0.898039 0
0.04048 0.0430192 0.01 0.898039 0.917647 0.929412 0
0.0244256 0.0244967 -0.01 0.960784 0.968627 0.654902 0
0.0334798 0.0526492 -0.00871351 0.898039 0.917647 0.929412 0
0.048 0.0115076 0.00222095 0.898039 0.917647 0.929412 0
0.0238145 0.0254938 -0.0101 0.898039 0.917647 0.929412 0
0.048 0.0418768 -0.00236723 0.898039 0.917647 0.929412 0
0.00934271 0.0227818 0.01 0.898039 0.917647 0.929412 0
0.00844597 0.0230108 0.01 0.898039 0.917647 0.929412 0
0.0276524 0.0518227 0.01 0.898039 0.917647 0.929412 0
0.0445988 0.0226909 -0.01 0.909804 0.92549 0.870588 0
-0.000523668 0.0439615 -0.00264716 0.898039 0.917647 0.929412 0
0.0444732 0.00023806 -0.00232013 0.898039 0.917647 0.929412 0
0.048 0.0177326 0.00222095 0.898039 0.917647 0.929412 0
0.0294553 0.0443574 0.0099 0.87451 0.890196 0.898039 0
0.00400673 0.0425125 -0.01 0.921569 0.937255 0.823529 0
0.0216429 0.0412936 -0.01 0.968627 0.972549 0.627451 0
-0.00393482 0.0345865 0.006 0.898039 0.917647 0.929412 0
0.048 0.00921147 0.00394156 0.898039 0.917647 0.929412 0
0.0294553 0.0319075 0.01 0.898039 0.917647 0.929412 0
0.0385811 0.0180131 0.0099 0.87451 0.890196 0.898039 0
0.0150234 0.00679822 -0.01 0.898039 0.917647 0.929412 0
0.0338225 0.0401317 -0.01 0.968627 0.976471 0.611765 0
0.0318561 0.0409506 0.0099 0.87451 0.890196 0.898039 0
0.00850626 0.00133509 -0.01 0.898039 0.917647 0.929412 0
0.046155 0.0116866 -0.01 0.909804 0.92549 0.870588 0
0.0224755 0.00238744 -0.01 0.898039 0.917647 0.929412 0
0.0359485 0.0210624 -0.01 0.980392 0.984314 0.572549 0
0.002 0.00588474 0.00195379 0.898039 0.917647 0.929412 0
0.0160563 0.0149257 0.01 0.898039 0.917647 0.929412 0
0.0305961 0.0352318 0.01 0.898039 0.917647 0.929412 0
0.0125716 0.0525816 -0.01 0.92549 0.937255 0.807843 0
0.0352613 0.0523242 -0.00658862 0.898039 0.917647 0.929412 0
0.0037682 0 -0.000119265 0.898039 0.917647 0.929412 0
0.0366248 0.00240245 0.01 0.898039 0.917647 0.929412 0
0.0335285 0.0307675 -0.01 0.984314 0.988235 0.560784 0
0.0342927 0.0458897 -0.01 0.937255 0.94902 0.756863 0
0.0156863 0.0315499 0.0103 0.898039 0.917647 0.929412 0
0.0187302 0.00407336 -0.01 0.898039 0.917647 0.929412 0
0.0437608 0.0105608 0.01 0.898039 0.917647 0.929412 0
0.0279544 0.0117881 0.0099 0.87451 0.890196 0.898039 0
0.0234836 0.0279544 0.0127586 0.898039 0.917647 0.929412 0
0.048 0.0275969 0.00703388 0.898039 0.917647 0.929412 0
-0.000881096 0.04339 0.0015414 0.898039 0.917647 0.929412 0
0.00486863 0.029238 -0.01 0.976471 0.980392 0.584314 0
-0.00456492 0.0329305 -0.00353231 0.898039 0.917647 0.929412 0
0.0151541 0.0343149 0.0134145 0.898039 0.917647 0.929412 0
0.00620759 0.0514811 -0.00342056 0.898039 0.917647 0.929412 0
0.000466903 0.00817621 0.00960643 0.898039 0.917647 0.929412 0
0.0301785 0 -0.00562142 0.898039 0.917647 0.929412 0
0.0310115 0.0530849 -0.00916887 0.898039 0.917647 0.929412 0
0.0261323 0.0502915 -0.01 0.921569 0.937255 0.815686 0
0.031894 0.0394604 -0.01 0.984314 0.988235 0.556863 0
0.048 0.0380052 0.00776737 0.898039 0.917647 0.929412 0
0.0246616 0.037017 0.0136931 0.898039 0.917647 0.929412 0
0.0469235 0.0365489 0.01 0.898039 0.917647 0.929412 0
0.00896318 0 -0.0085712 0.898039 0.917647 0.929412 0
0.0337435 0.0305673 -0.01 0.984314 0.988235 0.560784 0
0.00811308 0 0.00868418 0.898039 0.917647 0.929412 0
0.0001 -0.000942343 0.00217905 0.898039 0.917647 0.929412 0
0.00119261 0.00076122 0.00996736 0.898039 0.917647 0.929412 0
0.0175332 -2.33597e-18 0.00213939 0.898039 0.917647 0.929412 0
0.0134539 0.0302937 0.01 0.898039 0.917647 0.929412 0
0.0380191 0 -0.00648332 0.898039 0.917647 0.929412 0
0.010469 0.0232115 0.01 0.898039 0.917647 0.929412 0
0.0170504 0.018342 0.0103 0.898039 0.917647 0.929412 0
0.0433837 3.357e-05 -0.00652327 0.898039 0.917647 0.929412 0
0.00739846 0.0339067 -0.01 0.956863 0.960784 0.678431 0
0.0297664 0.0533267 0.00441395 0.898039 0.917647 0.929412 0
-0.00342145 0.0270747 0.00306187 0.898039 0.917647 0.929412 0
0.0169734 0.0307842 -0.01001 0.898039 0.917647 0.929412 0
0.0362875 0.0305136 0.01 0.898039 0.917647 0.929412 0
0.0125716 0.00549993 -0.01 0.898039 0.917647 0.929412 0
0.0251457 0.0541698 -0.0073655 0.898039 0.917647 0.929412 0
0.0174538 0.0530553 0.01 0.898039 0.917647 0.929412 0
0.0283085 0.00294827 -0.01 0.898039 0.917647 0.929412 0
0.0134256 0.0137269 0.0099 0.87451 0.890196 0.898039 0
0.0131191 0 -0.00648332 0.898039 0.917647 0.929412 0
0.0270269 0.0435815 -0.01 0.976471 0.980392 0.592157 0
-0.00139018 0.0198983 0.00673199 0.898039 0.917647 0.929412 0
0.00525188 0.0513086 0.0065 0.898039 0.917647 0.929412 0
0.0412696 0 -0.00558644 0.898039 0.917647 0.929412 0
0.0317528 0 -0.00655684 0.898039 0.917647 0.929412 0
0.0198841 0.0350517 0.0134905 0.898039 0.917647 0.929412 0
0.0458231 0.0431515 0.01 0.898039 0.917647 0.929412 0
0.0227141 0.0169797 -0.01 0.980392 0.984314 0.572549 0
0.0409655 0.0512834 -0.00131496 0.898039 0.917647 0.929412 0
0.00443485 0.00999952 0.000981166 0.898039 0.917647 0.929412 0
0.048 0.0366501 0.000181582 0.898039 0.917647 0.929412 0
0.0287436 0.00920883 0.0099 0.87451 0.890196 0.898039 0
0.0422808 0.010563 -0.01 0.941176 0.952941 0.741176 0
0.0166938 0.034297 0.0134127 0.898039 0.917647 0.929412 0
-0.000331617 -0.000109231 -0.005 0.898039 0.917647 0.929412 0
0.048 0.0439442 0.00436886 0.898039 0.917647 0.929412 0
0.0106603 0.0409506 -0.01 0.956863 0.964706 0.666667 0
0.0224755 0.0205205 0.011992 0.898039 0.917647 0.929412 0
0.0232303 0.0396887 0.013998 0.898039 0.917647 0.929412 0
0.0382663 0.0378526 0.0099 0.87451 0.890196 0.898039 0
0.0434647 0.0404178 -0.01 0.933333 0.945098 0.768627 0
0.0271158 0.0292909 0.0128964 0.898039 0.917647 0.929412 0
0.0377801 0.036688 0.0099 0.87451 0.890196 0.898039 0
0.0323794 0 -0.00639364 0.898039 0.917647 0.929412 0
0.0464924 0.0424987 -0.01 0.909804 0.92549 0.870588 0
0.00966947 0.0298465 0.01 0.898039 0.917647 0.929412 0
0.048 0.0191805 -0.00648332 0.898039 0.917647 0.929412 0
0.0282779 0.0425884 -0.01 0.968627 0.976471 0.611765 0
0.0125052 0.00995137 -0.01 0.937255 0.94902 0.745098 0
0.0370917 0 0.00613551 0.898039 0.917647 0.929412 0
0.0268604 0.00860941 -0.01 0.968627 0.976471 0.611765 0
0.00546835 0.04419 0.01 0.898039 0.917647 0.929412 0
0.0181316 0.0213283 0.0120753 0.898039 0.917647 0.929412 0
0.00430509 0.0228372 0.0099 0.87451 0.890196 0.898039 0
0.0206457 0.00135195 0.01 0.898039 0.917647 0.929412 0
0 0.000618164 -0.00551365 0.898039 0.917647 0.929412 0
0.0298145 0.0391974 -0.01 0.984314 0.988235 0.556863 0
0.0370197 0.00410688 0.01 0.898039 0.917647 0.929412 0
0.0400824 0.0514446 0.00342056 0.898039 0.917647 0.929412 0
0.0180738 0.00383753 0.01 0.898039 0.917647 0.929412 0
0.023576 0.0101687 -0.01 0.952941 0.960784 0.686275 0
0.0309864 0.020067 -0.01 1 1 0.501961 0
0.0129245 0.0386816 0.01 0.898039 0.917647 0.929412 0
0.0477644 0.00353595 -0.00342056 0.898039 0.917647 0.929412 0
0.0161115 0.0129438 -0.01 0.976471 0.980392 0.596078 0
0.048 0.0130462 0.00735364 0.898039 0.917647 0.929412 0
0.033013 0 0.000981166 0.898039 0.917647 0.929412 0
0.000834663 0.00883466 0.00562142 0.898039 0.917647 0.929412 0
0.0365248 0.0134398 0.0099 0.87451 0.890196 0.898039 0
0.0425218 0.0509995 0.00318203 0.898039 0.917647 0.929412 0
0.0306175 0.00511932 -0.01 0.898039 0.917647 0.929412 0
0.0222835 0.0107295 -0.01 0.960784 0.968627 0.647059 0
0.0181811 0.0213405 -0.01 0.980392 0.984314 0.572549 0
0.0231011 0.0300625 -0.01 0.968627 0.972549 0.627451 0
0.00533348 0.00589209 0.01 0.898039 0.917647 0.929412 0
0.00782454 0.0519549 -0.000981166 0.933333 0.94902 0.760784 0
0.0100625 0.00463638 -0.01 0.898039 0.917647 0.929412 0
6.88444e-06 0.001 -0.00400059 0.898039 0.917647 0.929412 0
0.00778552 0.0295753 -0.01 0.976471 0.980392 0.584314 0
0.0229494 0.0295753 -0.01 0.980392 0.984314 0.572549 0
0.048 0.0156407 0.00648332 0.898039 0.917647 0.929412 0
0.044406 0.0427857 0.01 0.898039 0.917647 0.929412 0
0.0469235 0.0295753 -0.01 0.909804 0.92549 0.870588 0
0.0218427 0.0194794 -0.01 0.980392 0.984314 0.572549 0
0.0342351 0.0235822 0.01 0.898039 0.917647 0.929412 0
0.046685 0.0231191 0.01 0.898039 0.917647 0.929412 0
0.0380146 0.0311293 0.0099 0.87451 0.890196 0.898039 0
0 0.00047319 -0.00892271 0.898039 0.917647 0.929412 0
0.00626987 0.0288374 0.0099 0.87451 0.890196 0.898039 0
0.048 0.0413221 0.000527859 0.898039 0.917647 0.929412 0
0.0278174 0.0469004 -0.01 0.968627 0.976471 0.611765 0
0.0422538 0.0510484 -0.00375201 0.898039 0.917647 0.929412 0
0.048 0.0175376 0.00753096 0.898039 0.917647 0.929412 0
0.048 0.0169797 -0.00318203 0.898039 0.917647 0.929412 0
0.0029063 0.0200424 0.01 0.898039 0.917647 0.929412 0
0.0462412 0.00119705 -0.00258463 0.898039 0.917647 0.929412 0
0.00303088 0.0129086 0.00134574 0.898039 0.917647 0.929412 0
0.0425511 0.0117249 -0.01 0.937255 0.94902 0.756863 0
0.0139114 0.00934412 -0.01 0.941176 0.952941 0.733333 0
0.0209562 0.0114183 -0.01 0.964706 0.972549 0.631373 0
-0.000113375 -0.0042235 0.005 0.898039 0.917647 0.929412 0
0.0432112 0.0156575 0.01 0.898039 0.917647 0.929412 0
0.0216847 0.0285063 -0.01 0.980392 0.984314 0.572549 0
0.000414484 -2.33597e-18 0.00525188 0.898039 0.917647 0.929412 0
0.0345803 0.0179437 0.0099 0.870588 0.886275 0.894118 0
0.0114435 0.00623163 -0.01 0.898039 0.917647 0.929412 0
0.0287374 0.0519549 -0.01 0.921569 0.937255 0.815686 0
0.0170504 0.0339045 0.0103 0.898039 0.917647 0.929412 0
0.0302937 0.0289146 -0.01 0.972549 0.976471 0.603922 0
0.00221655 -1.16798e-18 -0.00562142 0.898039 0.917647 0.929412 0
-2.71343e-06 0.0235822 -0.00232013 0.898039 0.917647 0.929412 0
0.048 0.013647 -0.00880961 0.898039 0.917647 0.929412 0
0.016554 -2.33597e-18 0.00116377 0.898039 0.917647 0.929412 0
0.00231085 1.16798e-18 -0.00530171 0.898039 0.917647 0.929412 0
0.000178407 0.00223159 -0.00155009 0.898039 0.917647 0.929412 0
0.0325062 0.000383732 -0.00978461 0.898039 0.917647 0.929412 0
0.0363478 0.0518106 0.00972302 0.898039 0.917647 0.929412 0
0.00557908 0.0193331 0.0099 0.87451 0.890196 0.898039 0
0.0181811 0.0301848 -0.01 0.968627 0.976471 0.611765 0
0.0445484 0.0380256 -0.01 0.929412 0.941176 0.784314 0
0.0314687 0.00833164 0.01 0.898039 0.917647 0.929412 0
0.00266777 0.0365489 -0.01 0.933333 0.945098 0.764706 0
0.0379568 0.0419188 0.01 0.898039 0.917647 0.929412 0
0.00729681 0.0401378 0.0099 0.87451 0.890196 0.898039 0
0.0125716 0.0323857 0.01 0.898039 0.917647 0.929412 0
0.0380394 2.33597e-18 0.0048374 0.898039 0.917647 0.929412 0
0.0109144 0.00383753 0.01 0.898039 0.917647 0.929412 0
0.0163925 0.0285271 0.0103 0.898039 0.917647 0.929412 0
0.00302508 0.0129212 0.000119265 0.898039 0.917647 0.929412 0
0.048 0.0138058 -0.000706571 0.898039 0.917647 0.929412 0
0.00826822 0.0554947 0.00654331 0.898039 0.917647 0.929412 0
0.017174 0.0146201 -0.01001 0.898039 0.917647 0.929412 0
0.0290781 0 0.00122438 0.898039 0.917647 0.929412 0
0.048 0.0142812 0.00270025 0.898039 0.917647 0.929412 0
0.0129438 0.00157362 0.01 0.898039 0.917647 0.929412 0
0.0346519 0.0343649 0.01 0.898039 0.917647 0.929412 0
0.0199679 0.0167858 0.0117842 0.898039 0.917647 0.929412 0
0.0271253 0 0.00672185 0.898039 0.917647 0.929412 0
0.0409584 3.22305e-06 0.00903891 0.898039 0.917647 0.929412 0
0.0304021 0.0513919 -0.01 0.921569 0.937255 0.815686 0
0.0393206 -2.33597e-18 0.00058315 0.898039 0.917647 0.929412 0
9.14044e-05 0.0433054 -0.006 0.898039 0.917647 0.929412 0
0.00840845 0 -0.00538289 0.898039 0.917647 0.929412 0
0.0191742 0.0261635 0.0125739 0.898039 0.917647 0.929412 0
0.0125716 0.00487491 0.01 0.898039 0.917647 0.929412 0
0.0193939 0.0550331 0.00957014 0.898039 0.917647 0.929412 0
-0.00143323 0.0276035 0.00999029 0.898039 0.917647 0.929412 0
0.00233853 0.00751011 -0.000602976 0.898039 0.917647 0.929412 0
0.0307936 0.040105 -0.01 0.984314 0.988235 0.556863 0
0.00816992 0.0163875 0.0099 0.87451 0.890196 0.898039 0
0.0257305 0.0399636 0.0100231 0.898039 0.917647 0.929412 0
0.031621 0 0.00683483 0.898039 0.917647 0.929412 0
0.0163104 0 -0.00845041 0.898039 0.917647 0.929412 0
0.0420093 0.051093 0.00562142 0.898039 0.917647 0.929412 0
0.0317747 0.0258943 0.01 0.898039 0.917647 0.929412 0
0.046685 0.0335123 -0.01 0.909804 0.92549 0.870588 0
0.0403666 0.00255064 0.01 0.898039 0.917647 0.929412 0
0.0408903 0.00217015 -0.01 0.898039 0.917647 0.929412 0
0.0411828 0.0512438 -0.00750028 0.898039 0.917647 0.929412 0
0.0157704 0.0494789 0.01 0.898039 0.917647 0.929412 0
0.048 0.0268454 -0.00488929 0.898039 0.917647 0.929412 0
0.048 0.0377688 -0.00647524 0.898039 0.917647 0.929412 0
0.0294552 0.0175639 0.01 0.898039 0.917647 0.929412 0
0.0271158 0 0.00892271 0.898039 0.917647 0.929412 0
0.0235887 0.0104998 0.0099 0.870588 0.886275 0.894118 0
0.0037682 0.0299463 -0.01 0.952941 0.960784 0.678431 0
0.0353176 0.000148994 -0.00952264 0.898039 0.917647 0.929412 0
0.0356807 0.00023466 -0.00964349 0.898039 0.917647 0.929412 0
0.00817509 0.037688 0.0099 0.87451 0.890196 0.898039 0
0.00243716 0.0142565 0.00147465 0.898039 0.917647 0.929412 0
0.0198675 0.0226185 0.0123195 0.898039 0.917647 0.929412 0
0.023576 0.0409445 0.010885 0.898039 0.917647 0.929412 0
0.00252945 0.034244 -0.01 0.92549 0.941176 0.8 0
0.0183123 0.0191688 -0.01 0.960784 0.968627 0.654902 0
0.00398328 0.0499926 0.00912698 0.898039 0.917647 0.929412 0
0.038982 0.0167411 -0.01 0.956863 0.964706 0.666667 0
0.048 0.0335408 0.00830908 0.898039 0.917647 0.929412 0
0.0249149 0.0316288 -0.01001 0.898039 0.917647 0.929412 0
-0.000462732 0.0405391 -0.00898657 0.898039 0.917647 0.929412 0
0.0205638 -4.67193e-18 0.00172491 0.898039 0.917647 0.929412 0
0.0141101 0.0136784 -0.01 0.941176 0.952941 0.737255 0
0.014004 0.0290844 0.01 0.898039 0.917647 0.929412 0
0.020015 0.0248842 -0.0100224 0.92549 0.941176 0.8 0
0.048 0.0212459 0.000569944 0.898039 0.917647 0.929412 0
0.0334123 0.011724 0.0099 0.87451 0.890196 0.898039 0
0.0268772 0.0163936 -0.01 1 1 0.501961 0
0.0299912 2.33597e-18 -0.00138758 0.898039 0.917647 0.929412 0
0.00377064 0.0477157 0.00380901 0.898039 0.917647 0.929412 0
0.0226864 0.0293833 -0.01 0.980392 0.984314 0.572549 0
0.0374538 0.0158792 -0.01 0.972549 0.976471 0.611765 0
0.00221655 -1.16798e-18 0.00648332 0.898039 0.917647 0.929412 0
0.0318499 0.0284588 -0.01 0.988235 0.988235 0.54902 0
0.048 0.0374455 0.00598875 0.898039 0.917647 0.929412 0
0.0124533 0 -0.00416948 0.898039 0.917647 0.929412 0
0.0379257 0.051838 -0.00329969 0.898039 0.917647 0.929412 0
0.0422833 -2.33597e-18 0.00868418 0.898039 0.917647 0.929412 0
0.00205011 0.0213814 0.01 0.898039 0.917647 0.929412 0
-0.0032893 0.0264374 0.006 0.898039 0.917647 0.929412 0
0.0374052 0.0441887 -0.01 0.921569 0.937255 0.815686 0
0.0042057 0 0.00866827 0.898039 0.917647 0.929412 0
0.017589 0.0555485 0.00649988 0.898039 0.917647 0.929412 0
0.048 0.0122857 0.00820017 0.898039 0.917647 0.929412 0
0.0422833 -2.33597e-18 -0.00452099 0.898039 0.917647 0.929412 0
0.0161115 0.00360636 -0.01 0.898039 0.917647 0.929412 0
0.0433837 0.00911295 0.01 0.898039 0.917647 0.929412 0
0.0381201 0.0518026 -0.00684017 0.898039 0.917647 0.929412 0
0.0088436 0.00148689 -0.01 0.898039 0.917647 0.929412 0
0.048 0.0203467 -0.00650917 0.898039 0.917647 0.929412 0
0.0326789 0.0224818 0.01 0.898039 0.917647 0.929412 0
0.0436222 0.033175 -0.01 0.929412 0.941176 0.784314 0
-0.00215028 0.0249323 0.00700197 0.898039 0.917647 0.929412 0
0.0228114 0.0545957 -0.00658862 0.898039 0.917647 0.929412 0
0.0390411 0 0.00294382 0.898039 0.917647 0.929412 0
0.00400673 0.0233503 -0.01 0.968627 0.972549 0.615686 0
0.00417486 0.0154519 -0.01 0.933333 0.945098 0.768627 0
0.048 0.0432632 -0.00409327 0.898039 0.917647 0.929412 0
0.0194892 0.0400013 -0.01 0.980392 0.980392 0.580392 0
-0.000402534 0.0200424 -0.00638105 0.898039 0.917647 0.929412 0
0.00705618 0.0442961 0.01 0.898039 0.917647 0.929412 0
0.00197073 0.0189588 0.01 0.898039 0.917647 0.929412 0
0.0269564 0.00195025 0.01 0.898039 0.917647 0.929412 0
0.0144983 0.0381811 -0.01 0.984314 0.988235 0.560784 0
-0.00173396 0.0420264 0.000160907 0.898039 0.917647 0.929412 0
-0.000192853 0.0444904 -0.00191776 0.898039 0.917647 0.929412 0
0.0193441 0 -0.00868418 0.898039 0.917647 0.929412 0
0.000410738 0.0169797 -0.00286293 0.898039 0.917647 0.929412 0
0.042807 0.0509475 -0.00385294 0.898039 0.917647 0.929412 0
0.0373542 0.0295753 -0.01 1 1 0.501961 0
0.0197373 0.0224818 -0.01 0.960784 0.968627 0.654902 0
0.0245303 0.0334583 -0.01001 0.898039 0.917647 0.929412 0
-0.00157574 0.0361445 -0.00779935 0.898039 0.917647 0.929412 0
0.0198675 0.0153575 0.0103 0.898039 0.917647 0.929412 0
0.0142046 0.056166 -0.00330318 0.898039 0.917647 0.929412 0
0.0337184 0.0321193 0.01 0.898039 0.917647 0.929412 0
0.046155 0.00728488 -0.01 0.933333 0.945098 0.768627 0
0.0447674 0.0068541 0.01 0.898039 0.917647 0.929412 0
0.048 0.0152488 -0.0043267 0.898039 0.917647 0.929412 0
0.00377305 0.0113091 -0.00181003 0.898039 0.917647 0.929412 0
0.0368086 0 -0.00222544 0.898039 0.917647 0.929412 0
0.00839927 0.000758434 0.00996661 0.898039 0.917647 0.929412 0
0.0295664 0.00267405 0.01 0.898039 0.917647 0.929412 0
0.0339553 0.0370863 -0.01 1 1 0.501961 0
0.0213751 -2.33597e-18 0.0020816 0.898039 0.917647 0.929412 0
0.0478799 0.00396716 0.00447376 0.898039 0.917647 0.929412 0
0.0029063 0.0280191 -0.01 0.976471 0.980392 0.584314 0
0.0293795 0.0413207 0.010885 0.898039 0.917647 0.929412 0
0.0293166 0.00487491 -0.01 0.898039 0.917647 0.929412 0
0.00927035 0.0148374 -0.01 0.984314 0.988235 0.556863 0
0.0305534 0 0.00555578 0.898039 0.917647 0.929412 0
0.0191742 0.0121193 -0.01 0.956863 0.964706 0.662745 0
0.0302289 0 -0.00672185 0.898039 0.917647 0.929412 0
0.00861242 0.0463082 0.01 0.898039 0.917647 0.929412 0
0.0117097 0.05657 -0.00601166 0.898039 0.917647 0.929412 0
0.014252 0.0524025 -0.01 0.933333 0.94902 0.760784 0
0.0261741 0 -0.00526991 0.898039 0.917647 0.929412 0
0.0371016 0.0309004 0.01 0.898039 0.917647 0.929412 0
0.00364167 0.016788 -0.01 0.945098 0.956863 0.713726 0
0.0267183 0.010563 -0.01 0.956863 0.964706 0.666667 0
0.0127851 0.0233437 0.01 0.898039 0.917647 0.929412 0
-0.000113375 0.00223159 -0.000598929 0.898039 0.917647 0.929412 0
0.048 0.031354 0.0076785 0.898039 0.917647 0.929412 0
0.0350573 0.042023 0.0099 0.87451 0.890196 0.898039 0
0.0475207 0.0153982 -0.00985256 0.898039 0.917647 0.929412 0
0.00393492 0.0480242 0.00619805 0.898039 0.917647 0.929412 0
0.00156733 0.0385754 -0.01 0.917647 0.933333 0.839216 0
0.0368176 0.02049 -0.01 0.972549 0.976471 0.611765 0
0.0117097 0.0181811 0.01 0.898039 0.917647 0.929412 0
0.0262118 0.024435 0.0123957 0.898039 0.917647 0.929412 0
0.0345803 -2.33597e-18 0.000981166 0.898039 0.917647 0.929412 0
0.00845252 0.0309956 -0.01 0.976471 0.980392 0.584314 0
0.000768923 0.0260357 0.01 0.898039 0.917647 0.929412 0
0.0280206 0.0312853 0.0131021 0.898039 0.917647 0.929412 0
0.00896373 0.00394369 -0.01 0.898039 0.917647 0.929412 0
0.0458231 0.0409506 0.01 0.898039 0.917647 0.929412 0
0.0161115 0.0403442 0.0104437 0.898039 0.917647 0.929412 0
0.048 0.0345524 0.00758375 0.898039 0.917647 0.929412 0
0.000466903 0.043158 0.00836675 0.898039 0.917647 0.929412 0
0.0347312 0.00487491 0.01 0.898039 0.917647 0.929412 0
0.000831201 0.0191111 0.01 0.898039 0.917647 0.929412 0
0.0316098 0 0.00187247 0.898039 0.917647 0.929412 0
0.048 0.0287679 0.0037446 0.898039 0.917647 0.929412 0
0.0107803 0.0128952 0.0099 0.87451 0.890196 0.898039 0
0.0268772 0.00903811 -0.01 0.956863 0.964706 0.666667 0
-0.0005 -0.00130598 -8.15969e-05 0.898039 0.917647 0.929412 0
0.048 0.00793768 -0.000652371 0.898039 0.917647 0.929412 0
0.0160585 0.0161781 -0.01 0.984314 0.988235 0.560784 0
0.048 0.0409506 0.00892523 0.898039 0.917647 0.929412 0
0.00688972 0.0136733 0.01 0.898039 0.917647 0.929412 0
0.0142811 0.0191688 -0.01 1 1 0.501961 0
0.00710335 0 0.000168666 0.898039 0.917647 0.929412 0
-0.00156934 0.0422896 0.00534213 0.898039 0.917647 0.929412 0
0.0346519 0.00182901 0.01 0.898039 0.917647 0.929412 0
0.048 0.0257961 0.00291933 0.898039 0.917647 0.929412 0
0.0458231 0.000896109 -0.00648332 0.898039 0.917647 0.929412 0
0.001472 0.0114775 -0.00892271 0.898039 0.917647 0.929412 0
0.0326179 0.0321472 0.01 0.898039 0.917647 0.929412 0
0.0362875 0.0102825 0.01 0.898039 0.917647 0.929412 0
0.0378437 0.046207 0.01 0.898039 0.917647 0.929412 0
-0.002698 0.0263337 -0.00350038 0.898039 0.917647 0.929412 0
0.00533348 0.0167858 0.01 0.898039 0.917647 0.929412 0
0.0393996 0.0476817 0.01 0.898039 0.917647 0.929412 0
0.014252 0.00618444 -0.01 0.898039 0.917647 0.929412 0
0.048 0.0196505 -0.00872842 0.898039 0.917647 0.929412 0
0.0370678 0.0282828 -0.01 1 1 0.501961 0
0.00638568 0.00778788 -0.01 0.898039 0.917647 0.929412 0
0.0238563 0.0487374 -0.01 0.945098 0.956863 0.713726 0
0.00730802 0.0533626 -0.00995638 0.898039 0.917647 0.929412 0
0.014403 0.0541476 0.01 0.898039 0.917647 0.929412 0
0.0430425 0.0509045 0.00140193 0.898039 0.917647 0.929412 0
0.022312 0.0178603 0.0117313 0.898039 0.917647 0.929412 0
0.023576 0.0466913 0.0099 0.87451 0.890196 0.898039 0
0.0214238 0.0158346 0.0103 0.898039 0.917647 0.929412 0
0.00998733 0.0258943 0.01 0.898039 0.917647 0.929412 0
0.048 0.0156407 -0.000652371 0.898039 0.917647 0.929412 0
0.0205846 0.0147107 0.0126347 0.898039 0.917647 0.929412 0
0.0196631 0.0413623 0.0119855 0.898039 0.917647 0.929412 0
0.0222432 0.0277454 0.012737 0.898039 0.917647 0.929412 0
0.039874 0.0182811 0.0099 0.87451 0.890196 0.898039 0
0.031279 0 0.00122438 0.898039 0.917647 0.929412 0
0.048 0.0274709 0.00679492 0.898039 0.917647 0.929412 0
0.044216 0.0506612 0.00330473 0.898039 0.917647 0.929412 0
0.0372484 0.0519562 0.00906731 0.898039 0.917647 0.929412 0
0.0237563 0.0139254 0.0133244 0.898039 0.917647 0.929412 0
0.0172119 0.042051 0.01 0.898039 0.917647 0.929412 0
-0.000286387 -0.00426841 -0.0020113 0.898039 0.917647 0.929412 0
0.0420821 0.0237348 0.0099 0.87451 0.890196 0.898039 0
0.0183123 0.000298913 -0.00970774 0.898039 0.917647 0.929412 0
0.0453331 0.0171269 -0.01 0.909804 0.92549 0.870588 0
0.0415247 0.035687 -0.01 0.933333 0.945098 0.768627 0
0.0147312 0.0194665 -0.01 1 1 0.501961 0
0.0158975 0.0200424 0.01 0.898039 0.917647 0.929412 0
0.0269522 0.00957551 -0.01 0.956863 0.964706 0.666667 0
-0.000907333 0.0326878 -0.01 0.909804 0.92549 0.870588 0
0.048 0.0151721 0.00625348 0.898039 0.917647 0.929412 0
0.0370172 0.0195 0.0099 0.870588 0.886275 0.894118 0
0.00612919 0.00255064 0.01 0.898039 0.917647 0.929412 0
0.0117249 0.00986994 0.01 0.898039 0.917647 0.929412 0
0.0001 -0.00132438 0.0020816 0.898039 0.917647 0.929412 0
0.00427792 0.0420295 0.01 0.898039 0.917647 0.929412 0
0.00966933 0 0.00428246 0.898039 0.917647 0.929412 0
0.0459623 0.00463638 0.01 0.898039 0.917647 0.929412 0
0.0253702 0.0541288 0.00399719 0.898039 0.917647 0.929412 0
0.0202747 0.041649 0.012224 0.898039 0.917647 0.929412 0
0.0156051 0.0502915 -0.01 0.933333 0.94902 0.760784 0
0.00102394 0.0445046 0.00897383 0.898039 0.917647 0.929412 0
0.048 0.0387419 -0.00280414 0.898039 0.917647 0.929412 0
0.0404601 0.0103771 0.01 0.898039 0.917647 0.929412 0
0.000462502 0.0208594 0.000759347 0.898039 0.917647 0.929412 0
0.0223516 0.0546795 -0.00790208 0.898039 0.917647 0.929412 0
0.025102 0.0457381 -0.01 0.964706 0.968627 0.639216 0
0.00400673 0 0.00452099 0.898039 0.917647 0.929412 0
0.0186259 0.046694 -0.01 0.980392 0.984314 0.564706 0
0.0244902 0.00182621 0.01 0.898039 0.917647 0.929412 0
0.0279777 0.018942 -0.01 1 1 0.501961 0
0.00274885 0 0.00805065 0.898039 0.917647 0.929412 0
0.00950888 0.0200424 0.01 0.898039 0.917647 0.929412 0
0.0390039 0.0367874 0.0099 0.870588 0.886275 0.894118 0
0.0378459 0.0139772 -0.01 0.929412 0.945098 0.784314 0
0.048 0.0125779 -0.00342753 0.898039 0.917647 0.929412 0
0.00620759 0.0290844 -0.01 0.976471 0.980392 0.584314 0
0.048 0.0098632 0.00763776 0.898039 0.917647 0.929412 0
0 0.00353595 0.00782228 0.898039 0.917647 0.929412 0
0.0037682 0 -0.00328115 0.898039 0.917647 0.929412 0
0.0319561 0.0162198 0.01 0.898039 0.917647 0.929412 0
0.0332322 0.0262316 0.01 0.898039 0.917647 0.929412 0
0.048 0.0242034 -0.00880961 0.898039 0.917647 0.929412 0
0.0370197 0.0321193 0.01 0.898039 0.917647 0.929412 0
0.00102747 0.0352318 0.01 0.898039 0.917647 0.929412 0
0.0169734 0.044406 -0.01 0.984314 0.988235 0.556863 0
0.0211193 0.0179013 0.0117333 0.898039 0.917647 0.929412 0
0.0303998 0.0255446 0.01 0.898039 0.917647 0.929412 0
0.0139106 0.0155691 -0.01 1 1 0.501961 0
0.048 0.0431515 0.00648332 0.898039 0.917647 0.929412 0
0.0352997 0.00157362 -0.01 0.898039 0.917647 0.929412 0
0.0424331 0.0327411 0.0099 0.87451 0.890196 0.898039 0
0.0213751 0.0548577 0.00672185 0.898039 0.917647 0.929412 0
-0.0005 -0.00383687 -0.0020816 0.898039 0.917647 0.929412 0
0.0261076 0.0122857 -0.01 0.980392 0.984314 0.568627 0
0.0410831 0.0291748 0.0099 0.87451 0.890196 0.898039 0
0.031279 0.00695002 0.01 0.898039 0.917647 0.929412 0
0.0292866 0.0525012 -0.00999109 0.898039 0.917647 0.929412 0
-0.0005 0.00056563 -0.00164152 0.898039 0.917647 0.929412 0
0.0475207 0.0294044 -0.00985256 0.898039 0.917647 0.929412 0
-0.0005 -0.00172767 -0.00342056 0.898039 0.917647 0.929412 0
0.0234476 0.0367874 -0.01 1 1 0.501961 0
0.0293166 0.0531109 -0.00970475 0.898039 0.917647 0.929412 0
0.00400673 0 0.00892271 0.898039 0.917647 0.929412 0
0.0416773 0.0303998 -0.01 0.964706 0.968627 0.643137 0
0.0239268 0.0391974 -0.01 0.984314 0.988235 0.556863 0
0.0478875 0.0468339 -0.00187145 0.898039 0.917647 0.929412 0
-0.00283439 0.0279561 -0.006 0.898039 0.917647 0.929412 0
0.00533719 0.0385122 0.0099 0.87451 0.890196 0.898039 0
0.00932572 0.0302937 0.01 0.898039 0.917647 0.929412 0
0.0265601 0.0389883 -0.01 0.968627 0.976471 0.619608 0
0.0276121 0.0272185 0.0103 0.898039 0.917647 0.929412 0
