ply
format ascii 1.0
comment Created by Open3D
element vertex 674
property float32 x
property float32 y
property float32 z
property float32 red
property float32 green
property float32 blue
property float32 volume
property uint8 segmentation
end_header
-0.0903049 -0.108673 0.389863 0.735683 0.215906 0.330245 4.37488e-07 2
-0.088892 -0.1006 0.393236 0.735683 0.215906 0.330245 6.71376e-07 2
-0.0895722 -0.101901 0.391508 0.735683 0.215906 0.330245 9.0185e-07 2
-0.0850149 -0.104693 0.388968 0.735683 0.215906 0.330245 3.23599e-06 2
-0.0875762 -0.10432 0.394722 0.735683 0.215906 0.330245 3.50445e-06 2
-0.0891999 -0.10715 0.395048 0.735683 0.215906 0.330245 2.18842e-06 2
-0.0906531 -0.109123 0.391952 0.735683 0.215906 0.330245 4.28982e-07 2
-0.0881319 -0.110075 0.390863 0.735683 0.215906 0.330245 1.74783e-06 2
-0.0884931 -0.105814 0.384653 0.735683 0.215906 0.330245 1.72513e-06 2
-0.087266 -0.111232 0.393136 0.735683 0.215906 0.330245 1.00465e-06 2
-0.0863726 -0.108017 0.385403 0.735683 0.215906 0.330245 9.82712e-07 2
-0.0874607 -0.101171 0.388356 0.735683 0.215906 0.330245 2.53e-06 2
-0.0866013 -0.107229 0.384409 0.735683 0.215906 0.330245 1.53673e-06 2
-0.078055 -0.105552 0.388003 0.735683 0.215906 0.330245 1.31692e-05 2
-0.0831477 -0.106106 0.390964 0.735683 0.215906 0.330245 3.3736e-06 2
-0.0895149 -0.112217 0.394229 0.735683 0.215906 0.330245 3.44516e-07 2
-0.0856025 -0.106543 0.395357 0.735683 0.215906 0.330245 1.98967e-06 2
-0.089143 -0.101909 0.393994 0.735683 0.215906 0.330245 1.06071e-06 2
-0.0861337 -0.1123 0.389259 0.735683 0.215906 0.330245 1.66092e-06 2
-0.0849863 -0.104279 0.386958 0.735683 0.215906 0.330245 5.60754e-06 2
-0.0862827 -0.107844 0.393629 0.735683 0.215906 0.330245 1.8261e-06 2
-0.0894813 -0.110269 0.393229 0.735683 0.215906 0.330245 8.7143e-07 2
-0.0856025 -0.100484 0.388965 0.735683 0.215906 0.330245 1.58629e-06 2
-0.0888713 -0.103155 0.389963 0.735683 0.215906 0.330245 1.53059e-06 2
-0.0908258 -0.106877 0.387599 0.735683 0.215906 0.330245 3.42381e-07 2
-0.0699478 -0.100382 0.377225 0.735683 0.215906 0.330245 1.56445e-05 2
-0.0788391 -0.0932306 0.375021 0.735683 0.215906 0.330245 4.40399e-06 2
-0.0716311 -0.101787 0.37911 0.735683 0.215906 0.330245 1.28776e-05 2
-0.0825997 -0.0940034 0.376219 0.735683 0.215906 0.330245 7.25567e-06 2
-0.0768957 -0.0951077 0.377974 0.735683 0.215906 0.330245 5.61009e-06 2
-0.0794385 -0.0968227 0.380437 0.735683 0.215906 0.330245 7.38285e-06 2
-0.0661117 -0.0993474 0.380682 0.735683 0.215906 0.330245 5.98164e-06 2
-0.0636234 -0.10419 0.373577 0.735683 0.215906 0.330245 2.57638e-05 2
-0.0833291 -0.0959545 0.379216 0.735683 0.215906 0.330245 6.83193e-06 2
-0.0542721 -0.0934527 0.370305 0.735683 0.215906 0.330245 1.90064e-07 2
-0.0595953 -0.0926865 0.37593 0.735683 0.215906 0.330245 4.41091e-06 2
-0.0705613 -0.0989524 0.372458 0.735683 0.215906 0.330245 9.87242e-06 2
-0.0670329 -0.0939365 0.381592 0.735683 0.215906 0.330245 2.28976e-07 2
-0.0737429 -0.0925507 0.373291 0.735683 0.215906 0.330245 1.54243e-06 2
-0.0742288 -0.0958619 0.378729 0.735683 0.215906 0.330245 5.35253e-06 2
-0.0567753 -0.0921195 0.369778 0.735683 0.215906 0.330245 8.71888e-07 2
-0.0728437 -0.0925699 0.379925 0.735683 0.215906 0.330245 7.63322e-07 2
-0.0551069 -0.0922859 0.365921 0.735683 0.215906 0.330245 1.39184e-07 2
-0.0639575 -0.093338 0.380934 0.735683 0.215906 0.330245 6.87939e-07 2
-0.0615389 -0.0917841 0.368547 0.735683 0.215906 0.330245 6.98318e-06 2
-0.0621465 -0.0918533 0.374087 0.735683 0.215906 0.330245 1.68518e-06 2
-0.0545919 -0.0946373 0.366789 0.735683 0.215906 0.330245 1.25628e-06 2
-0.0658334 -0.097736 0.368871 0.735683 0.215906 0.330245 2.91252e-05 2
-0.0636169 -0.0979544 0.367153 0.735683 0.215906 0.330245 9.43961e-06 2
-0.070869 -0.0949712 0.378135 0.735683 0.215906 0.330245 4.12031e-07 2
-0.0637553 -0.0915657 0.370265 0.735683 0.215906 0.330245 4.073e-06 2
-0.0775528 -0.0925557 0.373261 0.735683 0.215906 0.330245 1.54243e-06 2
-0.0631616 -0.0889983 0.363559 0.735683 0.215906 0.330245 1.7635e-06 2
-0.0563607 -0.0928204 0.375235 0.735683 0.215906 0.330245 1.70857e-06 2
-0.0720212 -0.0930253 0.374344 0.735683 0.215906 0.330245 3.08487e-06 2
-0.0545918 -0.093863 0.364467 0.735683 0.215906 0.330245 4.59953e-07 2
-0.0721701 -0.0986648 0.368636 0.735683 0.215906 0.330245 2.40333e-05 2
-0.0632549 -0.0895678 0.367057 0.735683 0.215906 0.330245 1.97011e-06 2
-0.0743902 -0.0936966 0.381053 0.735683 0.215906 0.330245 9.2832e-07 2
-0.0549101 -0.0933633 0.36254 0.735683 0.215906 0.330245 5.4555e-07 2
-0.0735385 -0.0924991 0.370003 0.735683 0.215906 0.330245 7.44723e-06 2
-0.0618609 -0.0897397 0.361943 0.735683 0.215906 0.330245 3.73361e-06 2
-0.0634373 -0.0981426 0.364488 0.735683 0.215906 0.330245 2.36602e-05 2
-0.0600092 -0.0924133 0.362421 0.735683 0.215906 0.330245 6.52359e-06 2
-0.0726823 -0.0947352 0.377601 0.735683 0.215906 0.330245 2.30894e-06 2
-0.0554252 -0.0917861 0.363994 0.735683 0.215906 0.330245 3.65993e-07 2
-0.055107 -0.0930601 0.368244 0.735683 0.215906 0.330245 1.46778e-07 2
-0.0559404 -0.0925121 0.371839 0.735683 0.215906 0.330245 1.74378e-06 2
-0.0603306 -0.0944965 0.378796 0.735683 0.215906 0.330245 6.08528e-06 2
-0.0537328 -0.094464 0.36057 0.735683 0.215906 0.330245 1.59053e-07 2
-0.0536281 -0.0954122 0.375616 0.735683 0.215906 0.330245 1.27628e-06 2
-0.0642245 -0.0980236 0.372693 0.735683 0.215906 0.330245 1.23928e-05 2
-0.0723413 -0.0937807 0.376138 0.735683 0.215906 0.330245 2.20199e-06 2
-0.0723465 -0.10652 0.379404 0.735683 0.215906 0.330245 1.91656e-05 2
-0.061974 -0.109874 0.373218 0.735683 0.215906 0.330245 4.68498e-06 2
-0.0699601 -0.105119 0.373343 0.735683 0.215906 0.330245 1.55468e-05 2
-0.0710165 -0.110806 0.3751 0.735683 0.215906 0.330245 1.06309e-05 2
-0.0641981 -0.10408 0.363536 0.735683 0.215906 0.330245 1.48492e-05 2
-0.0587018 -0.107831 0.36491 0.735683 0.215906 0.330245 8.85084e-06 2
-0.0553634 -0.110129 0.363216 0.735683 0.215906 0.330245 2.28862e-06 2
-0.0693589 -0.108148 0.362896 0.735683 0.215906 0.330245 1.8029e-05 2
-0.0562312 -0.108954 0.375701 0.735683 0.215906 0.330245 3.88972e-06 2
-0.0548088 -0.106429 0.362606 0.735683 0.215906 0.330245 5.64436e-06 2
-0.0760036 -0.110815 0.364663 0.735683 0.215906 0.330245 9.67339e-06 2
-0.0738445 -0.104835 0.364988 0.735683 0.215906 0.330245 1.76856e-05 2
-0.0789717 -0.0925492 0.366164 0.735683 0.215906 0.330245 9.59671e-06 2
-0.0849722 -0.0910546 0.377077 0.735683 0.215906 0.330245 1.05916e-06 2
-0.0856427 -0.0939221 0.364068 0.735683 0.215906 0.330245 8.46864e-06 2
-0.0838555 -0.0890772 0.364038 0.735683 0.215906 0.330245 2.42178e-06 2
-0.0800783 -0.0891225 0.363482 0.735683 0.215906 0.330245 2.0007e-06 2
-0.0827489 -0.0925039 0.36672 0.735683 0.215906 0.330245 1.05674e-05 2
-0.0861434 -0.0947518 0.374741 0.735683 0.215906 0.330245 7.31055e-06 2
-0.0852736 -0.0931149 0.369343 0.735683 0.215906 0.330245 4.83446e-06 2
-0.0697485 -0.102203 0.35869 0.735683 0.215906 0.330245 2.89423e-05 2
-0.0774534 -0.102105 0.359994 0.735683 0.215906 0.330245 3.09977e-05 2
-0.0773483 -0.0925042 0.369973 0.735683 0.215906 0.330245 7.44723e-06 2
-0.0852601 -0.0889817 0.359235 0.735683 0.215906 0.330245 1.60106e-06 2
-0.0753497 -0.099485 0.354984 0.735683 0.215906 0.330245 2.85275e-05 2
-0.0793073 -0.0959821 0.359818 0.735683 0.215906 0.330245 1.41287e-05 2
-0.0738761 -0.0992294 0.348098 0.735683 0.215906 0.330245 1.47305e-05 2
-0.0769542 -0.0933659 0.353459 0.735683 0.215906 0.330245 1.08917e-05 2
-0.0795563 -0.0931905 0.355222 0.735683 0.215906 0.330245 4.54562e-06 2
-0.0659088 -0.0946511 0.328561 0.735683 0.215906 0.330245 2.81792e-05 2
-0.0607041 -0.0918313 0.337771 0.735683 0.215906 0.330245 1.34949e-05 2
-0.0543294 -0.0925364 0.338805 0.735683 0.215906 0.330245 1.34155e-06 2
-0.0581162 -0.0916955 0.34059 0.735683 0.215906 0.330245 5.00584e-06 2
-0.0611033 -0.097255 0.333814 0.735683 0.215906 0.330245 5.5418e-06 2
-0.0832087 -0.0984773 0.333172 0.735683 0.215906 0.330245 3.15591e-05 2
-0.0731034 -0.0955116 0.334676 0.735683 0.215906 0.330245 1.29916e-05 2
-0.0706914 -0.0947416 0.327222 0.735683 0.215906 0.330245 1.46486e-05 2
-0.0555498 -0.0901339 0.340171 0.735683 0.215906 0.330245 2.37161e-07 2
-0.0785718 -0.0951895 0.332358 0.735683 0.215906 0.330245 9.79068e-06 2
-0.0641545 -0.0980908 0.337687 0.735683 0.215906 0.330245 4.3988e-05 2
-0.0543004 -0.0928358 0.34089 0.735683 0.215906 0.330245 1.22892e-06 2
-0.0711352 -0.0954737 0.338098 0.735683 0.215906 0.330245 2.81788e-05 2
-0.0592623 -0.0958156 0.328892 0.735683 0.215906 0.330245 3.1037e-05 2
-0.0644316 -0.0946167 0.325276 0.735683 0.215906 0.330245 2.17335e-05 2
-0.0748176 -0.0989525 0.342175 0.735683 0.215906 0.330245 2.98165e-05 2
-0.0781816 -0.0931455 0.348054 0.735683 0.215906 0.330245 1.23059e-05 2
-0.0750053 -0.0930315 0.345991 0.735683 0.215906 0.330245 8.85596e-06 2
-0.0627314 -0.10968 0.333984 0.735683 0.215906 0.330245 8.4527e-06 2
-0.0750046 -0.100181 0.32649 0.735683 0.215906 0.330245 3.72219e-06 2
-0.0724291 -0.112779 0.331444 0.735683 0.215906 0.330245 7.8271e-07 2
-0.0760541 -0.100581 0.329353 0.735683 0.215906 0.330245 6.89377e-06 2
-0.0709221 -0.105634 0.32043 0.735683 0.215906 0.330245 1.75143e-05 2
-0.0657389 -0.105807 0.32039 0.735683 0.215906 0.330245 1.02775e-05 2
-0.0675538 -0.11308 0.33209 0.735683 0.215906 0.330245 6.54603e-07 2
-0.0726949 -0.100205 0.323967 0.735683 0.215906 0.330245 2.55109e-05 2
-0.0540408 -0.108277 0.336655 0.735683 0.215906 0.330245 3.00729e-06 2
-0.0591301 -0.111383 0.324222 0.735683 0.215906 0.330245 6.57227e-06 2
-0.0764499 -0.106029 0.326304 0.735683 0.215906 0.330245 2.40253e-05 2
-0.0586996 -0.108571 0.338518 0.735683 0.215906 0.330245 1.11414e-05 2
-0.0645537 -0.103515 0.33373 0.735683 0.215906 0.330245 2.43486e-05 2
-0.0572484 -0.102444 0.326353 0.735683 0.215906 0.330245 1.92265e-05 2
-0.0612514 -0.112125 0.340842 0.735683 0.215906 0.330245 7.79218e-06 2
-0.0598845 -0.113156 0.328523 0.735683 0.215906 0.330245 1.68731e-06 2
-0.0600956 -0.113214 0.321502 0.735683 0.215906 0.330245 5.2593e-07 2
-0.0705858 -0.100903 0.331671 0.735683 0.215906 0.330245 8.43409e-06 2
-0.0620903 -0.112784 0.325415 0.735683 0.215906 0.330245 1.12737e-06 2
-0.0569243 -0.111755 0.32733 0.735683 0.215906 0.330245 5.61535e-06 2
-0.0543768 -0.107658 0.329639 0.735683 0.215906 0.330245 4.42018e-06 2
-0.0572615 -0.106507 0.332684 0.735683 0.215906 0.330245 1.0843e-05 2
-0.051863 -0.111127 0.330104 0.735683 0.215906 0.330245 1.85039e-07 2
-0.0541163 -0.110829 0.334803 0.735683 0.215906 0.330245 2.22967e-06 2
-0.0532777 -0.107546 0.335001 0.735683 0.215906 0.330245 2.65844e-06 2
-0.057337 -0.109059 0.330832 0.735683 0.215906 0.330245 2.44797e-06 2
-0.0530598 -0.112273 0.332699 0.735683 0.215906 0.330245 3.25505e-07 2
-0.0553798 -0.112622 0.333177 0.735683 0.215906 0.330245 1.34876e-06 2
-0.0577489 -0.110811 0.330142 0.735683 0.215906 0.330245 1.33042e-06 2
-0.0585705 -0.111698 0.32984 0.735683 0.215906 0.330245 1.51641e-06 2
-0.054183 -0.111476 0.330582 0.735683 0.215906 0.330245 7.66724e-07 2
-0.0527432 -0.112169 0.327846 0.735683 0.215906 0.330245 5.10544e-07 2
-0.0736885 -0.10515 0.344282 0.735683 0.215906 0.330245 3.08678e-05 2
-0.0736388 -0.106767 0.331279 0.735683 0.215906 0.330245 1.54708e-05 2
-0.0762631 -0.111383 0.344635 0.735683 0.215906 0.330245 4.89226e-06 2
-0.0673722 -0.0980689 0.313314 0.735683 0.215906 0.330245 6.45324e-06 2
-0.0654863 -0.0955995 0.316659 0.735683 0.215906 0.330245 5.9082e-06 2
-0.0767203 -0.0980399 0.314023 0.735683 0.215906 0.330245 1.53115e-05 2
-0.0741585 -0.10218 0.314723 0.735683 0.215906 0.330245 9.6579e-06 2
-0.0658221 -0.0970227 0.314746 0.735683 0.215906 0.330245 6.45324e-06 2
-0.0637837 -0.101271 0.316649 0.735683 0.215906 0.330245 4.4062e-06 2
-0.0674414 -0.100136 0.3204 0.735683 0.215906 0.330245 1.53323e-05 2
-0.0573423 -0.0967966 0.312128 0.735683 0.215906 0.330245 1.4734e-06 2
-0.0547623 -0.099883 0.313958 0.735683 0.215906 0.330245 1.98271e-06 2
-0.0671963 -0.100716 0.305542 0.735683 0.215906 0.330245 3.0752e-06 2
-0.0653784 -0.0978431 0.297552 0.735683 0.215906 0.330245 3.4463e-07 2
-0.0750201 -0.100368 0.30112 0.735683 0.215906 0.330245 9.4254e-07 2
-0.0651206 -0.0996623 0.311357 0.735683 0.215906 0.330245 1.76654e-06 2
-0.0657185 -0.104266 0.303152 0.735683 0.215906 0.330245 5.81558e-06 2
-0.0688975 -0.107597 0.311879 0.735683 0.215906 0.330245 4.59006e-06 2
-0.0719504 -0.105699 0.316898 0.735683 0.215906 0.330245 4.7789e-06 2
-0.0695806 -0.102148 0.314239 0.735683 0.215906 0.330245 8.87678e-06 2
-0.0635757 -0.103298 0.300669 0.735683 0.215906 0.330245 2.93618e-06 2
-0.0641196 -0.102694 0.314737 0.735683 0.215906 0.330245 1.92341e-06 2
-0.0674006 -0.100909 0.303621 0.735683 0.215906 0.330245 1.24355e-06 2
-0.0648312 -0.0976915 0.300312 0.735683 0.215906 0.330245 3.4463e-07 2
-0.06596 -0.103746 0.310795 0.735683 0.215906 0.330245 5.56757e-06 2
-0.0669267 -0.104521 0.298941 0.735683 0.215906 0.330245 1.3054e-06 2
-0.0711056 -0.104077 0.309703 0.735683 0.215906 0.330245 6.44352e-06 2
-0.0604837 -0.100896 0.30044 0.735683 0.215906 0.330245 2.23462e-06 2
-0.0717887 -0.0986277 0.312064 0.735683 0.215906 0.330245 1.46136e-05 2
-0.0634358 -0.106665 0.302745 0.735683 0.215906 0.330245 3.55498e-06 2
-0.0625664 -0.107214 0.297625 0.735683 0.215906 0.330245 1.65865e-06 2
-0.0648492 -0.104815 0.298031 0.735683 0.215906 0.330245 4.00695e-06 2
-0.0628338 -0.103852 0.298965 0.735683 0.215906 0.330245 8.202e-07 2
-0.0705506 -0.107859 0.300777 0.735683 0.215906 0.330245 1.5721e-05 2
-0.0670541 -0.104526 0.302358 0.735683 0.215906 0.330245 1.23595e-06 2
-0.0703068 -0.100755 0.306403 0.735683 0.215906 0.330245 7.20876e-06 2
-0.0667868 -0.107888 0.301017 0.735683 0.215906 0.330245 5.84214e-06 2
-0.0650576 -0.100187 0.307759 0.735683 0.215906 0.330245 3.04057e-06 2
-0.0594731 -0.1016 0.298134 0.735683 0.215906 0.330245 8.01458e-07 2
-0.0631803 -0.100235 0.300228 0.735683 0.215906 0.330245 2.43545e-06 2
-0.0641655 -0.103445 0.313862 0.735683 0.215906 0.330245 9.87744e-07 2
-0.074068 -0.10388 0.305266 0.735683 0.215906 0.330245 1.38455e-05 2
-0.0578447 -0.104355 0.307366 0.735683 0.215906 0.330245 4.67572e-06 2
-0.0561917 -0.098792 0.30765 0.735683 0.215906 0.330245 3.56798e-06 2
-0.0562584 -0.102593 0.307691 0.735683 0.215906 0.330245 5.94548e-06 2
-0.0548904 -0.0997175 0.310469 0.735683 0.215906 0.330245 2.67358e-06 2
-0.0633509 -0.107888 0.314406 0.735683 0.215906 0.330245 3.49078e-06 2
-0.0602079 -0.107567 0.313392 0.735683 0.215906 0.330245 3.69924e-06 2
-0.0626419 -0.103824 0.307207 0.735683 0.215906 0.330245 7.74494e-06 2
-0.0611214 -0.105127 0.323193 0.735683 0.215906 0.330245 3.60755e-05 2
-0.0562103 -0.105907 0.303096 0.735683 0.215906 0.330245 2.34976e-06 2
-0.0556472 -0.110204 0.31622 0.735683 0.215906 0.330245 1.02291e-06 2
-0.0580041 -0.105427 0.313242 0.735683 0.215906 0.330245 3.94817e-06 2
-0.0586099 -0.112172 0.316492 0.735683 0.215906 0.330245 1.76772e-06 2
-0.0604012 -0.107062 0.30923 0.735683 0.215906 0.330245 8.59919e-06 2
-0.0612273 -0.107345 0.311042 0.735683 0.215906 0.330245 2.98069e-06 2
-0.0643703 -0.107666 0.312055 0.735683 0.215906 0.330245 7.37167e-06 2
-0.0617212 -0.110328 0.303058 0.735683 0.215906 0.330245 2.52592e-06 2
-0.0549572 -0.103519 0.310511 0.735683 0.215906 0.330245 3.49582e-06 2
-0.0566291 -0.111723 0.317489 0.735683 0.215906 0.330245 5.9991e-07 2
-0.055347 -0.106525 0.306582 0.735683 0.215906 0.330245 3.30274e-06 2
-0.0603159 -0.111276 0.309932 0.735683 0.215906 0.330245 1.58597e-06 2
-0.0568157 -0.104256 0.315347 0.735683 0.215906 0.330245 7.60384e-06 2
-0.0595111 -0.104005 0.302457 0.735683 0.215906 0.330245 4.03645e-06 2
-0.0620677 -0.106712 0.304321 0.735683 0.215906 0.330245 7.41359e-06 2
-0.0600853 -0.101117 0.305344 0.735683 0.215906 0.330245 5.25619e-06 2
-0.0554866 -0.111303 0.31872 0.735683 0.215906 0.330245 1.288e-06 2
-0.0554241 -0.108513 0.315072 0.735683 0.215906 0.330245 2.33215e-06 2
-0.055888 -0.0903218 0.326463 0.735683 0.215906 0.330245 5.45214e-06 2
-0.0594925 -0.0968906 0.307011 0.735683 0.215906 0.330245 9.24179e-07 2
-0.0624141 -0.0988668 0.313124 0.735683 0.215906 0.330245 1.89497e-06 2
-0.0593957 -0.10117 0.313517 0.735683 0.215906 0.330245 6.45828e-06 2
-0.0567402 -0.0930517 0.320382 0.735683 0.215906 0.330245 6.02321e-06 2
-0.0591662 -0.100591 0.319453 0.735683 0.215906 0.330245 1.49529e-05 2
-0.0555865 -0.0960991 0.315592 0.735683 0.215906 0.330245 5.17461e-06 2
-0.0563152 -0.0984773 0.33403 0.735683 0.215906 0.330245 1.44704e-05 2
-0.0506178 -0.0937234 0.326431 0.735683 0.215906 0.330245 3.01015e-06 2
-0.0572428 -0.0989021 0.32751 0.735683 0.215906 0.330245 2.02989e-05 2
-0.0561929 -0.105329 0.319212 0.735683 0.215906 0.330245 1.87392e-05 2
-0.0519047 -0.0969838 0.318249 0.735683 0.215906 0.330245 5.71318e-06 2
-0.0512209 -0.110704 0.322598 0.735683 0.215906 0.330245 1.7097e-06 2
-0.0491903 -0.106453 0.32968 0.735683 0.215906 0.330245 2.30577e-07 2
-0.0498077 -0.0942515 0.324389 0.735683 0.215906 0.330245 2.31392e-06 2
-0.0528825 -0.0946471 0.341785 0.735683 0.215906 0.330245 1.13977e-06 2
-0.050085 -0.0986739 0.322798 0.735683 0.215906 0.330245 9.89158e-06 2
-0.0512983 -0.0956446 0.338784 0.735683 0.215906 0.330245 7.74123e-07 2
-0.0498269 -0.0926204 0.321134 0.735683 0.215906 0.330245 1.25084e-06 2
-0.05118 -0.0936614 0.318271 0.735683 0.215906 0.330245 2.29763e-06 2
-0.0521291 -0.0938945 0.336202 0.735683 0.215906 0.330245 1.04303e-06 2
-0.0483552 -0.0955659 0.327776 0.735683 0.215906 0.330245 1.22786e-06 2
-0.0487941 -0.105912 0.324483 0.735683 0.215906 0.330245 1.69154e-06 2
-0.0538685 -0.0934083 0.32508 0.735683 0.215906 0.330245 6.1891e-06 2
-0.0542957 -0.101564 0.332647 0.735683 0.215906 0.330245 1.0347e-05 2
-0.0537669 -0.0977892 0.320141 0.735683 0.215906 0.330245 9.092e-06 2
-0.0523199 -0.102646 0.322371 0.735683 0.215906 0.330245 7.16547e-06 2
-0.0520667 -0.111323 0.319881 0.735683 0.215906 0.330245 4.79735e-07 2
-0.0528739 -0.106285 0.333426 0.735683 0.215906 0.330245 4.88377e-06 2
-0.0491822 -0.105962 0.331945 0.735683 0.215906 0.330245 7.04898e-07 2
-0.0499056 -0.104393 0.334498 0.735683 0.215906 0.330245 1.64348e-06 2
-0.0552932 -0.097908 0.322613 0.735683 0.215906 0.330245 5.72955e-06 2
-0.0515291 -0.111817 0.325899 0.735683 0.215906 0.330245 1.0988e-06 2
-0.0480969 -0.105405 0.32731 0.735683 0.215906 0.330245 3.50615e-07 2
-0.0546407 -0.110685 0.321436 0.735683 0.215906 0.330245 4.62473e-06 2
-0.050065 -0.0984567 0.317915 0.735683 0.215906 0.330245 4.01533e-06 2
-0.0492472 -0.108615 0.322485 0.735683 0.215906 0.330245 1.17683e-06 2
-0.0494361 -0.103209 0.317364 0.735683 0.215906 0.330245 8.78035e-07 2
-0.0515035 -0.100398 0.314935 0.735683 0.215906 0.330245 2.79185e-06 2
-0.0479976 -0.101267 0.320343 0.735683 0.215906 0.330245 1.47002e-06 2
-0.0479785 -0.102898 0.323598 0.735683 0.215906 0.330245 2.52982e-06 2
-0.0892748 -0.0982123 0.352435 0.735683 0.215906 0.330245 1.10326e-05 2
-0.0883135 -0.106447 0.340792 0.735683 0.215906 0.330245 8.04938e-06 2
-0.0861478 -0.0960675 0.340165 0.735683 0.215906 0.330245 1.17616e-05 2
-0.0872457 -0.109123 0.343088 0.735683 0.215906 0.330245 4.86361e-06 2
-0.0898078 -0.10998 0.338473 0.735683 0.215906 0.330245 4.18994e-06 2
-0.0890744 -0.108899 0.354541 0.735683 0.215906 0.330245 4.60429e-06 2
-0.0913835 -0.101327 0.344463 0.735683 0.215906 0.330245 5.51052e-06 2
-0.0916172 -0.0948837 0.335898 0.735683 0.215906 0.330245 2.54324e-06 2
-0.0896973 -0.0977006 0.340579 0.735683 0.215906 0.330245 9.6903e-06 2
-0.089624 -0.108619 0.352635 0.735683 0.215906 0.330245 2.24856e-06 2
-0.0911504 -0.0985436 0.346685 0.735683 0.215906 0.330245 4.0059e-06 2
-0.0909314 -0.101876 0.341201 0.735683 0.215906 0.330245 5.60494e-06 2
-0.0907457 -0.107405 0.344457 0.735683 0.215906 0.330245 5.18135e-06 2
-0.0879643 -0.0905585 0.349302 0.735683 0.215906 0.330245 1.67188e-06 2
-0.0893283 -0.0957502 0.346468 0.735683 0.215906 0.330245 5.47769e-06 2
-0.086772 -0.0940752 0.349726 0.735683 0.215906 0.330245 5.85115e-06 2
-0.0846814 -0.0944128 0.344559 0.735683 0.215906 0.330245 9.95311e-06 2
-0.0868953 -0.0940868 0.34776 0.735683 0.215906 0.330245 2.31412e-06 2
-0.0878273 -0.090989 0.359813 0.735683 0.215906 0.330245 3.2344e-06 2
-0.0851562 -0.0925873 0.335211 0.735683 0.215906 0.330245 1.28153e-05 2
-0.0906464 -0.0922454 0.344038 0.735683 0.215906 0.330245 3.316e-07 2
-0.0864034 -0.0942827 0.355665 0.735683 0.215906 0.330245 1.19295e-05 2
-0.086009 -0.094407 0.342235 0.735683 0.215906 0.330245 1.26884e-06 2
-0.0869997 -0.0943648 0.345947 0.735683 0.215906 0.330245 1.48698e-06 2
-0.0813913 -0.0928615 0.347159 0.735683 0.215906 0.330245 5.14934e-06 2
-0.0835864 -0.0928018 0.350514 0.735683 0.215906 0.330245 4.97481e-06 2
-0.0859994 -0.0909079 0.342129 0.735683 0.215906 0.330245 4.14906e-06 2
-0.0829787 -0.0929105 0.353173 0.735683 0.215906 0.330245 4.41506e-06 2
-0.0883178 -0.0908599 0.343518 0.735683 0.215906 0.330245 2.0238e-06 2
-0.0893144 -0.0972364 0.367737 0.735683 0.215906 0.330245 5.76734e-06 2
-0.0885159 -0.091803 0.3756 0.735683 0.215906 0.330245 2.0125e-06 2
-0.08997 -0.103599 0.370191 0.735683 0.215906 0.330245 5.20855e-06 2
-0.0881451 -0.106814 0.37102 0.735683 0.215906 0.330245 9.6091e-06 2
-0.0921846 -0.10513 0.349675 0.735683 0.215906 0.330245 2.9556e-06 2
-0.0864393 -0.0943965 0.371839 0.735683 0.215906 0.330245 6.93609e-06 2
-0.0893774 -0.101966 0.375609 0.735683 0.215906 0.330245 1.09466e-05 2
-0.0888118 -0.0914476 0.372697 0.735683 0.215906 0.330245 1.91994e-06 2
-0.091833 -0.0961977 0.356129 0.735683 0.215906 0.330245 5.87739e-06 2
-0.0906825 -0.11077 0.371513 0.735683 0.215906 0.330245 1.94461e-06 2
-0.0893521 -0.0958162 0.370976 0.735683 0.215906 0.330245 2.20886e-06 2
-0.0884056 -0.0987086 0.376992 0.735683 0.215906 0.330245 1.01443e-05 2
-0.0876461 -0.0901661 0.370201 0.735683 0.215906 0.330245 1.31332e-06 2
-0.086712 -0.0978539 0.362522 0.735683 0.215906 0.330245 1.98345e-05 2
-0.0895139 -0.0983112 0.355715 0.735683 0.215906 0.330245 3.4588e-06 2
-0.0867474 -0.107515 0.363942 0.735683 0.215906 0.330245 1.13805e-05 2
-0.0877322 -0.107504 0.368724 0.735683 0.215906 0.330245 3.02012e-06 2
-0.0841539 -0.0998686 0.358829 0.735683 0.215906 0.330245 2.70258e-05 2
-0.0875338 -0.106603 0.374987 0.735683 0.215906 0.330245 9.58159e-06 2
-0.0881674 -0.0945332 0.366691 0.735683 0.215906 0.330245 3.89096e-06 2
-0.0914312 -0.108933 0.369621 0.735683 0.215906 0.330245 8.30892e-07 2
-0.0894846 -0.110639 0.361071 0.735683 0.215906 0.330245 2.72199e-06 2
-0.0877374 -0.112625 0.364492 0.735683 0.215906 0.330245 2.52545e-06 2
-0.0897207 -0.112465 0.367746 0.735683 0.215906 0.330245 1.83636e-06 2
-0.0930071 -0.0958185 0.367422 0.735683 0.215906 0.330245 8.57056e-07 2
-0.0900153 -0.0980051 0.370995 0.735683 0.215906 0.330245 3.07396e-06 2
-0.0900216 -0.100852 0.372206 0.735683 0.215906 0.330245 7.81095e-06 2
-0.0878276 -0.0984492 0.356725 0.735683 0.215906 0.330245 6.56164e-06 2
-0.0893334 -0.0972379 0.369526 0.735683 0.215906 0.330245 1.51647e-06 2
-0.0954901 -0.106149 0.349236 0.735683 0.215906 0.330245 2.15229e-06 2
-0.0916634 -0.106492 0.352484 0.735683 0.215906 0.330245 6.74469e-06 2
-0.0918848 -0.10576 0.348252 0.735683 0.215906 0.330245 4.10969e-06 2
-0.0925065 -0.10352 0.351257 0.735683 0.215906 0.330245 2.96863e-06 2
-0.0898798 -0.103403 0.366099 0.735683 0.215906 0.330245 5.10843e-06 2
-0.0894794 -0.105518 0.365304 0.735683 0.215906 0.330245 3.51852e-06 2
-0.0899 -0.100654 0.365164 0.735683 0.215906 0.330245 1.0317e-05 2
-0.0873141 -0.109115 0.356673 0.735683 0.215906 0.330245 4.90059e-06 2
-0.0796125 -0.108085 0.359669 0.735683 0.215906 0.330245 2.12625e-05 2
-0.0922657 -0.104181 0.345423 0.735683 0.215906 0.330245 4.08038e-06 2
-0.0845769 -0.105991 0.359544 0.735683 0.215906 0.330245 2.5678e-05 2
-0.0852775 -0.11114 0.351829 0.735683 0.215906 0.330245 4.68564e-06 2
-0.0846266 -0.111211 0.355206 0.735683 0.215906 0.330245 5.29038e-06 2
-0.0870379 -0.110923 0.351828 0.735683 0.215906 0.330245 2.63645e-06 2
-0.0912457 -0.111148 0.355562 0.735683 0.215906 0.330245 8.25147e-07 2
-0.0946891 -0.102346 0.344024 0.735683 0.215906 0.330245 3.14088e-07 2
-0.0948255 -0.101406 0.351671 0.735683 0.215906 0.330245 1.50474e-06 2
-0.0912202 -0.101017 0.350686 0.735683 0.215906 0.330245 7.63543e-06 2
-0.0885596 -0.111951 0.323274 0.735683 0.215906 0.330245 5.8051e-06 2
-0.0876841 -0.108833 0.336322 0.735683 0.215906 0.330245 1.52754e-06 2
-0.0891321 -0.111993 0.335194 0.735683 0.215906 0.330245 5.93094e-06 2
-0.0890819 -0.113144 0.34875 0.735683 0.215906 0.330245 2.23289e-07 2
-0.0875875 -0.110643 0.349923 0.735683 0.215906 0.330245 1.2737e-06 2
-0.0897747 -0.110186 0.326284 0.735683 0.215906 0.330245 6.60277e-06 2
-0.087684 -0.109865 0.335177 0.735683 0.215906 0.330245 3.35081e-06 2
-0.0826658 -0.103086 0.325991 0.735683 0.215906 0.330245 2.96816e-05 2
-0.0870083 -0.111878 0.331898 0.735683 0.215906 0.330245 6.91178e-06 2
-0.0918787 -0.109927 0.335194 0.735683 0.215906 0.330245 8.58351e-07 2
-0.0842003 -0.101957 0.338125 0.735683 0.215906 0.330245 3.44518e-05 2
-0.0851319 -0.108162 0.33813 0.735683 0.215906 0.330245 1.24463e-05 2
-0.0875159 -0.110627 0.347614 0.735683 0.215906 0.330245 4.15222e-06 2
-0.0782311 -0.104839 0.338567 0.735683 0.215906 0.330245 3.1916e-05 2
-0.0761564 -0.101376 0.334284 0.735683 0.215906 0.330245 2.48579e-05 2
-0.081994 -0.111422 0.3459 0.735683 0.215906 0.330245 2.04648e-06 2
-0.0819941 -0.111419 0.348843 0.735683 0.215906 0.330245 1.26389e-06 2
-0.0834614 -0.111349 0.345971 0.735683 0.215906 0.330245 1.61903e-06 2
-0.08072 -0.111419 0.34538 0.735683 0.215906 0.330245 1.39597e-06 2
-0.0834615 -0.111346 0.348914 0.735683 0.215906 0.330245 9.99901e-07 2
-0.0783237 -0.11139 0.342534 0.735683 0.215906 0.330245 7.9215e-06 2
-0.0851501 -0.111115 0.344786 0.735683 0.215906 0.330245 3.37275e-06 2
-0.0791627 -0.111044 0.338573 0.735683 0.215906 0.330245 1.20399e-05 2
-0.0903648 -0.108984 0.347286 0.735683 0.215906 0.330245 7.01204e-06 2
-0.0855993 -0.10138 0.310701 0.735683 0.215906 0.330245 2.95372e-06 2
-0.0883293 -0.106051 0.31234 0.735683 0.215906 0.330245 2.26652e-06 2
-0.086052 -0.110413 0.316581 0.735683 0.215906 0.330245 4.306e-06 2
-0.0905461 -0.0943947 0.316121 0.735683 0.215906 0.330245 8.93034e-07 2
-0.0895908 -0.104067 0.314138 0.735683 0.215906 0.330245 1.03231e-06 2
-0.0879634 -0.0971781 0.312549 0.735683 0.215906 0.330245 5.53776e-07 2
-0.0848678 -0.101311 0.314096 0.735683 0.215906 0.330245 3.59247e-06 2
-0.0864849 -0.106646 0.315784 0.735683 0.215906 0.330245 7.86346e-06 2
-0.0917017 -0.0955226 0.31987 0.735683 0.215906 0.330245 3.05842e-06 2
-0.0853398 -0.105008 0.314227 0.735683 0.215906 0.330245 1.32549e-06 2
-0.0879079 -0.0943005 0.314239 0.735683 0.215906 0.330245 1.59296e-06 2
-0.0773681 -0.0961143 0.319065 0.735683 0.215906 0.330245 2.99893e-05 2
-0.0854996 -0.0929687 0.318165 0.735683 0.215906 0.330245 7.62343e-06 2
-0.0882655 -0.0924273 0.325824 0.735683 0.215906 0.330245 6.57602e-06 2
-0.0881255 -0.0940993 0.322084 0.735683 0.215906 0.330245 1.13811e-05 2
-0.087038 -0.0899597 0.326095 0.735683 0.215906 0.330245 1.92933e-06 2
-0.0753469 -0.0948024 0.323832 0.735683 0.215906 0.330245 1.17822e-05 2
-0.0804184 -0.090658 0.319109 0.735683 0.215906 0.330245 7.46e-06 2
-0.0869846 -0.0899262 0.330954 0.735683 0.215906 0.330245 1.92933e-06 2
-0.0824492 -0.098425 0.318121 0.735683 0.215906 0.330245 2.22318e-05 2
-0.0918418 -0.0938506 0.32361 0.735683 0.215906 0.330245 1.62098e-06 2
-0.0929912 -0.0953527 0.326014 0.735683 0.215906 0.330245 6.12192e-07 2
-0.0850041 -0.111253 0.321029 0.735683 0.215906 0.330245 8.38625e-06 2
-0.0929688 -0.0972344 0.329711 0.735683 0.215906 0.330245 4.99329e-07 2
-0.086907 -0.100926 0.329854 0.735683 0.215906 0.330245 1.59773e-05 2
-0.0894564 -0.0957235 0.329643 0.735683 0.215906 0.330245 4.65254e-06 2
-0.0904608 -0.105263 0.330192 0.735683 0.215906 0.330245 4.30497e-06 2
-0.0882021 -0.0932392 0.332344 0.735683 0.215906 0.330245 9.37704e-06 2
-0.0904706 -0.106482 0.32624 0.735683 0.215906 0.330245 8.60995e-06 2
-0.09282 -0.0964193 0.333443 0.735683 0.215906 0.330245 1.69742e-06 2
-0.0862295 -0.10761 0.323523 0.735683 0.215906 0.330245 1.58597e-05 2
-0.0904407 -0.106954 0.333515 0.735683 0.215906 0.330245 4.30497e-06 2
-0.0886387 -0.10408 0.319572 0.735683 0.215906 0.330245 1.60939e-05 2
-0.0850751 -0.0995556 0.32204 0.735683 0.215906 0.330245 3.36797e-05 2
-0.0929023 -0.100038 0.319737 0.735683 0.215906 0.330245 2.67053e-06 2
-0.066624 -0.0976478 0.285188 0.978422 0.557937 0.034931 3.51486e-07 3
-0.063138 -0.104177 0.276532 0.978422 0.557937 0.034931 8.32168e-07 3
-0.0612239 -0.10052 0.281508 0.978422 0.557937 0.034931 6.12547e-07 3
-0.0602701 -0.10169 0.279226 0.978422 0.557937 0.034931 2.50872e-07 3
-0.0623295 -0.100884 0.286619 0.978422 0.557937 0.034931 2.36743e-06 3
-0.0619221 -0.101119 0.278951 0.978422 0.557937 0.034931 5.49015e-07 3
-0.0613005 -0.107936 0.275692 0.978422 0.557937 0.034931 1.0255e-06 3
-0.0806552 -0.103674 0.297916 0.978422 0.557937 0.034931 2.78377e-06 3
-0.0841674 -0.102462 0.297615 0.978422 0.557937 0.034931 7.78763e-07 3
-0.0640888 -0.103028 0.282674 0.978422 0.557937 0.034931 8.17893e-07 3
-0.0700827 -0.107529 0.279263 0.978422 0.557937 0.034931 8.45533e-06 3
-0.0751193 -0.0975196 0.294986 0.978422 0.557937 0.034931 4.51967e-07 3
-0.0619312 -0.10019 0.274357 0.978422 0.557937 0.034931 2.10305e-06 3
-0.0601921 -0.101672 0.275916 0.978422 0.557937 0.034931 3.10694e-07 3
-0.0636307 -0.0996286 0.276038 0.978422 0.557937 0.034931 1.16964e-06 3
-0.060386 -0.1008 0.28055 0.978422 0.557937 0.034931 3.92009e-07 3
-0.0613733 -0.106154 0.277561 0.978422 0.557937 0.034931 7.07023e-07 3
-0.0823157 -0.100774 0.297125 0.978422 0.557937 0.034931 1.54627e-06 3
-0.0603353 -0.100274 0.276516 0.978422 0.557937 0.034931 4.45927e-07 3
-0.0619023 -0.104302 0.296582 0.978422 0.557937 0.034931 1.73228e-06 3
-0.0648771 -0.102695 0.274974 0.978422 0.557937 0.034931 4.88504e-06 3
-0.0683486 -0.10125 0.296063 0.978422 0.557937 0.034931 3.49617e-06 3
-0.0613344 -0.102266 0.272948 0.978422 0.557937 0.034931 1.67067e-06 3
-0.0708394 -0.104094 0.28138 0.978422 0.557937 0.034931 3.00105e-06 3
-0.0667237 -0.10107 0.282882 0.978422 0.557937 0.034931 3.28289e-07 3
-0.0650383 -0.10567 0.278483 0.978422 0.557937 0.034931 7.80519e-06 3
-0.0825068 -0.105362 0.298406 0.978422 0.557937 0.034931 2.08741e-06 3
-0.0636648 -0.099663 0.279999 0.978422 0.557937 0.034931 8.57883e-07 3
-0.0649704 -0.10695 0.28993 0.978422 0.557937 0.034931 8.66776e-06 3
-0.0632737 -0.107647 0.279512 0.978422 0.557937 0.034931 1.23523e-06 3
-0.0628507 -0.0999536 0.281233 0.978422 0.557937 0.034931 6.17651e-07 3
-0.0638269 -0.101834 0.295285 0.978422 0.557937 0.034931 1.86559e-06 3
-0.0612655 -0.107449 0.277945 0.978422 0.557937 0.034931 1.10478e-06 3
-0.063313 -0.104081 0.29269 0.978422 0.557937 0.034931 6.22649e-06 3
-0.0613885 -0.106549 0.293987 0.978422 0.557937 0.034931 5.98445e-06 3
-0.0631602 -0.104193 0.280392 0.978422 0.557937 0.034931 2.3372e-06 3
-0.0618916 -0.101111 0.277597 0.978422 0.557937 0.034931 1.28968e-07 3
-0.0667276 -0.101099 0.285712 0.978422 0.557937 0.034931 7.63808e-06 3
-0.0649029 -0.102738 0.28144 0.978422 0.557937 0.034931 3.48842e-06 3
-0.0631474 -0.105159 0.273749 0.978422 0.557937 0.034931 3.14339e-06 3
-0.0605593 -0.102821 0.283716 0.978422 0.557937 0.034931 8.56162e-07 3
-0.0632174 -0.10887 0.281852 0.978422 0.557937 0.034931 1.72649e-06 3
-0.0615913 -0.101187 0.289772 0.978422 0.557937 0.034931 4.84814e-06 3
-0.0612632 -0.108169 0.280663 0.978422 0.557937 0.034931 1.54417e-06 3
-0.0657428 -0.10135 0.296534 0.978422 0.557937 0.034931 4.43509e-06 3
-0.0680901 -0.104604 0.292054 0.978422 0.557937 0.034931 6.04419e-06 3
-0.0767928 -0.104039 0.294955 0.978422 0.557937 0.034931 7.30642e-06 3
-0.076746 -0.100544 0.292606 0.978422 0.557937 0.034931 5.07031e-06 3
-0.0749131 -0.100607 0.288723 0.978422 0.557937 0.034931 8.89785e-06 3
-0.0749606 -0.110527 0.29026 0.978422 0.557937 0.034931 2.35695e-06 3
-0.0817697 -0.101406 0.289379 0.978422 0.557937 0.034931 5.72814e-06 3
-0.080694 -0.101053 0.285525 0.978422 0.557937 0.034931 4.74013e-06 3
-0.0622898 -0.105706 0.283966 0.978422 0.557937 0.034931 3.09254e-06 3
-0.06406 -0.10377 0.286869 0.978422 0.557937 0.034931 8.55136e-06 3
-0.0831049 -0.10341 0.308514 0.978422 0.557937 0.034931 1.88766e-06 3
-0.0800756 -0.106035 0.310394 0.978422 0.557937 0.034931 5.11336e-06 3
-0.0829114 -0.10106 0.306696 0.978422 0.557937 0.034931 7.79391e-07 3
-0.0841958 -0.10497 0.303855 0.978422 0.557937 0.034931 1.11778e-06 3
-0.0778782 -0.107181 0.313281 0.978422 0.557937 0.034931 5.90357e-06 3
-0.0839241 -0.10053 0.300019 0.978422 0.557937 0.034931 7.78763e-07 3
-0.076795 -0.100148 0.302774 0.978422 0.557937 0.034931 6.11576e-06 3
-0.0813226 -0.101279 0.303984 0.978422 0.557937 0.034931 3.74838e-06 3
-0.0711247 -0.0972156 0.304689 0.978422 0.557937 0.034931 3.99972e-07 3
-0.0795927 -0.100557 0.302291 0.978422 0.557937 0.034931 3.7759e-06 3
-0.0793696 -0.106048 0.308185 0.978422 0.557937 0.034931 7.70241e-06 3
-0.069137 -0.101359 0.298029 0.978422 0.557937 0.034931 1.2134e-06 3
-0.0825881 -0.108057 0.299311 0.978422 0.557937 0.034931 1.63584e-06 3
-0.0814275 -0.109148 0.309262 0.978422 0.557937 0.034931 2.29898e-06 3
-0.0861712 -0.10437 0.309532 0.978422 0.557937 0.034931 1.11197e-06 3
-0.0823394 -0.0980692 0.307865 0.978422 0.557937 0.034931 8.10693e-07 3
-0.0804401 -0.103041 0.312581 0.978422 0.557937 0.034931 8.7428e-06 3
-0.082533 -0.100419 0.309683 0.978422 0.557937 0.034931 4.31371e-06 3
-0.0835063 -0.104002 0.313599 0.978422 0.557937 0.034931 3.81362e-06 3
-0.0822099 -0.103255 0.305798 0.978422 0.557937 0.034931 2.38428e-06 3
-0.0715876 -0.0976698 0.290209 0.978422 0.557937 0.034931 1.10271e-06 3
-0.0833085 -0.102995 0.302041 0.978422 0.557937 0.034931 1.35808e-06 3
-0.0768542 -0.103908 0.300311 0.978422 0.557937 0.034931 5.68562e-06 3
-0.0688639 -0.101151 0.288995 0.978422 0.557937 0.034931 7.2877e-06 3
-0.071649 -0.104726 0.297583 0.978422 0.557937 0.034931 6.84701e-06 3
-0.0743749 -0.107428 0.302903 0.978422 0.557937 0.034931 1.06336e-05 3
-0.080147 -0.106305 0.294846 0.978422 0.557937 0.034931 8.2855e-06 3
-0.0817511 -0.105793 0.300418 0.978422 0.557937 0.034931 1.75502e-06 3
-0.0728039 -0.0972813 0.299526 0.978422 0.557937 0.034931 1.45362e-07 3
-0.0730844 -0.0976868 0.298045 0.978422 0.557937 0.034931 2.82087e-07 3
-0.0714157 -0.107541 0.290568 0.978422 0.557937 0.034931 1.27823e-05 3
-0.0748668 -0.107202 0.308567 0.978422 0.557937 0.034931 1.2171e-05 3
-0.0792301 -0.110293 0.312149 0.978422 0.557937 0.034931 3.11684e-07 3
-0.0721895 -0.104088 0.287509 0.978422 0.557937 0.034931 1.67538e-05 3
-0.0748859 -0.100341 0.303553 0.978422 0.557937 0.034931 7.70304e-07 3
-0.0844391 -0.106902 0.301452 0.978422 0.557937 0.034931 1.11778e-06 3
-0.0798995 -0.104105 0.299928 0.978422 0.557937 0.034931 1.72237e-06 3
-0.0818075 -0.103405 0.294056 0.978422 0.557937 0.034931 4.61886e-06 3
-0.0742556 -0.10121 0.298407 0.978422 0.557937 0.034931 4.00086e-06 3
-0.0741861 -0.107555 0.294131 0.978422 0.557937 0.034931 1.25472e-05 3
-0.0837551 -0.106048 0.290937 0.978422 0.557937 0.034931 3.32972e-06 3
-0.0799601 -0.100777 0.292487 0.978422 0.557937 0.034931 5.82558e-06 3
-0.0689323 -0.107295 0.188153 0.978422 0.557937 0.034931 1.88377e-06 3
-0.073622 -0.101362 0.174265 0.978422 0.557937 0.034931 1.84292e-06 3
-0.0704573 -0.105724 0.17597 0.978422 0.557937 0.034931 5.10844e-06 3
-0.0752645 -0.10324 0.176085 0.978422 0.557937 0.034931 2.79233e-06 3
-0.0738048 -0.105903 0.176481 0.978422 0.557937 0.034931 4.69163e-06 3
-0.0689307 -0.104186 0.17744 0.978422 0.557937 0.034931 7.07841e-07 3
-0.0705908 -0.101376 0.174219 0.978422 0.557937 0.034931 1.88878e-06 3
-0.0688858 -0.103076 0.175528 0.978422 0.557937 0.034931 1.84204e-06 3
-0.0688707 -0.103667 0.173914 0.978422 0.557937 0.034931 3.93902e-07 3
-0.0743304 -0.104795 0.192734 0.978422 0.557937 0.034931 4.48643e-06 3
-0.0766267 -0.102389 0.189077 0.978422 0.557937 0.034931 2.11557e-06 3
-0.0691321 -0.104243 0.193555 0.978422 0.557937 0.034931 6.02462e-07 3
-0.0704044 -0.10926 0.188216 0.978422 0.557937 0.034931 5.75094e-07 3
-0.0714225 -0.104084 0.181098 0.978422 0.557937 0.034931 1.60456e-06 3
-0.0698592 -0.103931 0.191833 0.978422 0.557937 0.034931 1.43434e-06 3
-0.0778957 -0.100781 0.184299 0.978422 0.557937 0.034931 1.54847e-07 3
-0.078309 -0.107219 0.188387 0.978422 0.557937 0.034931 9.47694e-07 3
-0.0681621 -0.106941 0.179428 0.978422 0.557937 0.034931 3.177e-06 3
-0.0781279 -0.105414 0.190514 0.978422 0.557937 0.034931 2.23908e-06 3
-0.0668573 -0.100895 0.184281 0.978422 0.557937 0.034931 4.53688e-07 3
-0.0710813 -0.109711 0.190506 0.978422 0.557937 0.034931 1.04137e-06 3
-0.0747838 -0.104157 0.179498 0.978422 0.557937 0.034931 3.5621e-06 3
-0.0762435 -0.101494 0.179102 0.978422 0.557937 0.034931 2.06444e-06 3
-0.0762684 -0.107067 0.19257 0.978422 0.557937 0.034931 3.10105e-06 3
-0.0698822 -0.10465 0.179733 0.978422 0.557937 0.034931 4.60175e-06 3
-0.0731646 -0.101692 0.180507 0.978422 0.557937 0.034931 1.89244e-06 3
-0.0723961 -0.104447 0.182496 0.978422 0.557937 0.034931 2.80608e-06 3
-0.0698359 -0.0997282 0.183449 0.978422 0.557937 0.034931 2.93445e-07 3
-0.0698816 -0.102113 0.183127 0.978422 0.557937 0.034931 1.9606e-06 3
-0.0682956 -0.100294 0.182083 0.978422 0.557937 0.034931 1.14225e-06 3
-0.0690674 -0.102484 0.185438 0.978422 0.557937 0.034931 8.3955e-07 3
-0.0780115 -0.106115 0.185813 0.978422 0.557937 0.034931 4.76655e-07 3
-0.0665072 -0.106692 0.183358 0.978422 0.557937 0.034931 9.99594e-07 3
-0.0666212 -0.10497 0.181457 0.978422 0.557937 0.034931 1.98836e-06 3
-0.0666507 -0.106692 0.187348 0.978422 0.557937 0.034931 9.4059e-07 3
-0.0779118 -0.102678 0.180463 0.978422 0.557937 0.034931 8.61301e-07 3
-0.0777302 -0.103693 0.189019 0.978422 0.557937 0.034931 1.24199e-06 3
-0.0764521 -0.10534 0.180859 0.978422 0.557937 0.034931 1.06309e-06 3
-0.0740562 -0.105626 0.182641 0.978422 0.557937 0.034931 2.49084e-06 3
-0.073718 -0.108158 0.1838 0.978422 0.557937 0.034931 3.03298e-06 3
-0.0746522 -0.105302 0.184905 0.978422 0.557937 0.034931 1.26528e-06 3
-0.0778269 -0.10077 0.181755 0.978422 0.557937 0.034931 2.6317e-07 3
-0.0778711 -0.107032 0.183797 0.978422 0.557937 0.034931 1.42435e-06 3
-0.076114 -0.107872 0.182018 0.978422 0.557937 0.034931 2.28756e-06 3
-0.0750864 -0.101838 0.190736 0.978422 0.557937 0.034931 3.95015e-06 3
-0.0720204 -0.110187 0.184823 0.978422 0.557937 0.034931 5.75094e-07 3
-0.0670186 -0.100949 0.188321 0.978422 0.557937 0.034931 3.26978e-07 3
-0.0736483 -0.104368 0.185825 0.978422 0.557937 0.034931 1.90593e-06 3
-0.076779 -0.103369 0.187102 0.978422 0.557937 0.034931 4.23099e-07 3
-0.0760851 -0.102796 0.185197 0.978422 0.557937 0.034931 7.89048e-07 3
-0.0768794 -0.103986 0.186022 0.978422 0.557937 0.034931 1.25332e-06 3
-0.0770176 -0.100468 0.185082 0.978422 0.557937 0.034931 2.45958e-07 3
-0.0778119 -0.101658 0.185907 0.978422 0.557937 0.034931 3.90678e-07 3
-0.0683413 -0.102679 0.181762 0.978422 0.557937 0.034931 3.60639e-06 3
-0.0688866 -0.104911 0.188475 0.978422 0.557937 0.034931 1.97708e-06 3
-0.0690173 -0.104287 0.190044 0.978422 0.557937 0.034931 2.62871e-06 3
-0.0715424 -0.101599 0.184515 0.978422 0.557937 0.034931 1.54706e-06 3
-0.0721986 -0.101844 0.18558 0.978422 0.557937 0.034931 1.52762e-06 3
-0.0696946 -0.105374 0.186778 0.978422 0.557937 0.034931 7.12636e-07 3
-0.0718604 -0.104375 0.186738 0.978422 0.557937 0.034931 1.12089e-06 3
-0.0726566 -0.101635 0.188849 0.978422 0.557937 0.034931 3.61526e-06 3
-0.0706215 -0.10201 0.190458 0.978422 0.557937 0.034931 3.69627e-06 3
-0.0668804 -0.102639 0.189808 0.978422 0.557937 0.034931 7.317e-07 3
-0.0723255 -0.0988514 0.184684 0.978422 0.557937 0.034931 3.06735e-07 3
-0.0720357 -0.0987483 0.188452 0.978422 0.557937 0.034931 4.25159e-07 3
-0.0729817 -0.099096 0.18575 0.978422 0.557937 0.034931 2.06469e-07 3
-0.0793435 -0.10653 0.25181 0.978422 0.557937 0.034931 2.27186e-06 3
-0.0737693 -0.103975 0.251329 0.978422 0.557937 0.034931 2.9025e-06 3
-0.0837638 -0.108701 0.25749 0.978422 0.557937 0.034931 6.00642e-08 3
-0.0706685 -0.107425 0.262943 0.978422 0.557937 0.034931 4.79619e-06 3
-0.0781057 -0.107355 0.265912 0.978422 0.557937 0.034931 7.94903e-06 3
-0.0750328 -0.100532 0.252768 0.978422 0.557937 0.034931 7.80036e-06 3
-0.0764795 -0.107338 0.252606 0.978422 0.557937 0.034931 2.52833e-06 3
-0.073471 -0.10397 0.261187 0.978422 0.557937 0.034931 6.71833e-06 3
-0.0826887 -0.103425 0.26529 0.978422 0.557937 0.034931 2.9813e-06 3
-0.079765 -0.106916 0.25857 0.978422 0.557937 0.034931 4.42953e-06 3
-0.0822538 -0.10371 0.251703 0.978422 0.557937 0.034931 1.77763e-06 3
-0.0818685 -0.106123 0.258916 0.978422 0.557937 0.034931 2.10658e-06 3
-0.0824767 -0.105685 0.256506 0.978422 0.557937 0.034931 5.1631e-06 3
-0.0710995 -0.10738 0.26013 0.978422 0.557937 0.034931 6.79288e-06 3
-0.0831356 -0.101003 0.256745 0.978422 0.557937 0.034931 5.18977e-06 3
-0.0833446 -0.106184 0.272439 0.978422 0.557937 0.034931 3.23476e-06 3
-0.0826168 -0.100785 0.249023 0.978422 0.557937 0.034931 2.67999e-06 3
-0.083338 -0.102973 0.259205 0.978422 0.557937 0.034931 3.63831e-06 3
-0.0770822 -0.107353 0.263444 0.978422 0.557937 0.034931 3.40959e-06 3
-0.0808737 -0.100819 0.26265 0.978422 0.557937 0.034931 3.96999e-06 3
-0.0824026 -0.100814 0.268363 0.978422 0.557937 0.034931 3.31295e-06 3
-0.0805201 -0.110282 0.259458 0.978422 0.557937 0.034931 2.96535e-07 3
-0.0797691 -0.106937 0.262245 0.978422 0.557937 0.034931 3.46832e-07 3
-0.079014 -0.103571 0.261358 0.978422 0.557937 0.034931 5.03929e-06 3
-0.0827298 -0.10341 0.261615 0.978422 0.557937 0.034931 1.72715e-06 3
-0.0696759 -0.100627 0.267782 0.978422 0.557937 0.034931 8.2546e-06 3
-0.0680639 -0.104053 0.265826 0.978422 0.557937 0.034931 7.01944e-06 3
-0.077743 -0.103895 0.254045 0.978422 0.557937 0.034931 6.81301e-06 3
-0.0822743 -0.103715 0.254046 0.978422 0.557937 0.034931 1.11462e-06 3
-0.0803584 -0.101132 0.253129 0.978422 0.557937 0.034931 6.00877e-06 3
-0.0753909 -0.10063 0.265699 0.978422 0.557937 0.034931 3.93148e-06 3
-0.0678741 -0.100771 0.280599 0.978422 0.557937 0.034931 2.30536e-06 3
-0.0740631 -0.107413 0.274284 0.978422 0.557937 0.034931 1.27488e-05 3
-0.0622905 -0.104553 0.267977 0.978422 0.557937 0.034931 4.73848e-06 3
-0.0797374 -0.100967 0.270797 0.978422 0.557937 0.034931 3.06986e-06 3
-0.0607077 -0.100365 0.25583 0.978422 0.557937 0.034931 7.02896e-07 3
-0.0739021 -0.103924 0.258374 0.978422 0.557937 0.034931 6.56706e-06 3
-0.0788134 -0.101177 0.27842 0.978422 0.557937 0.034931 1.71533e-06 3
-0.0760041 -0.100554 0.276472 0.978422 0.557937 0.034931 2.96643e-06 3
-0.0807926 -0.106939 0.264713 0.978422 0.557937 0.034931 2.23432e-06 3
-0.0615251 -0.100979 0.269194 0.978422 0.557937 0.034931 3.95843e-06 3
-0.0841809 -0.103431 0.271263 0.978422 0.557937 0.034931 1.1644e-06 3
-0.0725348 -0.100612 0.26433 0.978422 0.557937 0.034931 1.71204e-05 3
-0.065793 -0.107023 0.261338 0.978422 0.557937 0.034931 3.22646e-06 3
-0.0605542 -0.107072 0.265837 0.978422 0.557937 0.034931 7.31575e-07 3
-0.0734235 -0.1075 0.270864 0.978422 0.557937 0.034931 9.03618e-06 3
-0.0657916 -0.10361 0.26519 0.978422 0.557937 0.034931 4.31059e-06 3
-0.0761599 -0.104018 0.268736 0.978422 0.557937 0.034931 8.28097e-06 3
-0.0743677 -0.100589 0.277719 0.978422 0.557937 0.034931 4.11185e-06 3
-0.0632249 -0.099768 0.264155 0.978422 0.557937 0.034931 2.58511e-06 3
-0.0623586 -0.099691 0.257761 0.978422 0.557937 0.034931 1.45434e-06 3
-0.0615013 -0.102277 0.267307 0.978422 0.557937 0.034931 1.79552e-06 3
-0.0681836 -0.107552 0.269323 0.978422 0.557937 0.034931 5.63891e-06 3
-0.069547 -0.10075 0.275746 0.978422 0.557937 0.034931 3.16718e-06 3
-0.0697955 -0.104126 0.271279 0.978422 0.557937 0.034931 6.09764e-06 3
-0.0775457 -0.100592 0.270451 0.978422 0.557937 0.034931 3.93101e-06 3
-0.0632487 -0.0984699 0.266041 0.978422 0.557937 0.034931 4.40692e-07 3
-0.0767925 -0.103935 0.274105 0.978422 0.557937 0.034931 5.61508e-06 3
-0.0735716 -0.100609 0.280201 0.978422 0.557937 0.034931 3.0079e-06 3
-0.0716437 -0.104066 0.276392 0.978422 0.557937 0.034931 6.00782e-06 3
-0.0845447 -0.106016 0.264256 0.978422 0.557937 0.034931 1.04053e-06 3
-0.0781958 -0.10093 0.276817 0.978422 0.557937 0.034931 2.79429e-06 3
-0.0683384 -0.100725 0.274053 0.978422 0.557937 0.034931 4.37959e-06 3
-0.0684964 -0.107421 0.259162 0.978422 0.557937 0.034931 7.10833e-06 3
-0.0641272 -0.106148 0.270664 0.978422 0.557937 0.034931 7.4568e-06 3
-0.0687442 -0.10079 0.281836 0.978422 0.557937 0.034931 1.65979e-06 3
-0.067986 -0.104214 0.278618 0.978422 0.557937 0.034931 5.2682e-06 3
-0.0815663 -0.103567 0.269539 0.978422 0.557937 0.034931 4.36231e-06 3
-0.0775091 -0.107287 0.256957 0.978422 0.557937 0.034931 3.74326e-06 3
-0.064014 -0.102044 0.264824 0.978422 0.557937 0.034931 5.21941e-06 3
-0.0659112 -0.107109 0.268687 0.978422 0.557937 0.034931 3.44511e-06 3
-0.0639623 -0.102407 0.256484 0.978422 0.557937 0.034931 5.7931e-06 3
-0.0818524 -0.106178 0.266467 0.978422 0.557937 0.034931 3.89157e-06 3
-0.072964 -0.107061 0.283638 0.978422 0.557937 0.034931 8.18568e-06 3
-0.0763271 -0.103987 0.262556 0.978422 0.557937 0.034931 3.77922e-06 3
-0.0756962 -0.103576 0.282459 0.978422 0.557937 0.034931 7.53031e-06 3
-0.0721902 -0.110513 0.286697 0.978422 0.557937 0.034931 6.79303e-07 3
-0.061351 -0.107248 0.256437 0.978422 0.557937 0.034931 1.1065e-06 3
-0.0613615 -0.106325 0.253094 0.978422 0.557937 0.034931 7.51078e-07 3
-0.0665723 -0.100865 0.254385 0.978422 0.557937 0.034931 7.20254e-06 3
-0.0681718 -0.104323 0.252367 0.978422 0.557937 0.034931 1.88639e-06 3
-0.0721903 -0.100522 0.255691 0.978422 0.557937 0.034931 1.22973e-05 3
-0.0605966 -0.100815 0.253531 0.978422 0.557937 0.034931 2.77071e-07 3
-0.0709323 -0.107408 0.253273 0.978422 0.557937 0.034931 2.83188e-06 3
-0.0673663 -0.107817 0.251636 0.978422 0.557937 0.034931 6.05587e-06 3
-0.0693328 -0.103951 0.255292 0.978422 0.557937 0.034931 8.4521e-06 3
-0.0614044 -0.10767 0.251219 0.978422 0.557937 0.034931 1.07689e-06 3
-0.0613782 -0.105858 0.254913 0.978422 0.557937 0.034931 1.65946e-06 3
-0.064037 -0.106368 0.25124 0.978422 0.557937 0.034931 5.28979e-06 3
-0.0622529 -0.103585 0.254483 0.978422 0.557937 0.034931 2.20732e-06 3
-0.0705796 -0.104057 0.247663 0.978422 0.557937 0.034931 5.81081e-06 3
-0.0698601 -0.107601 0.244486 0.978422 0.557937 0.034931 6.73318e-06 3
-0.0689151 -0.100602 0.246843 0.978422 0.557937 0.034931 2.9832e-06 3
-0.0632367 -0.108575 0.24948 0.978422 0.557937 0.034931 1.0444e-06 3
-0.0605602 -0.106124 0.26088 0.978422 0.557937 0.034931 6.5823e-07 3
-0.0665018 -0.0974247 0.252526 0.978422 0.557937 0.034931 4.26277e-07 3
-0.0605274 -0.10123 0.249483 0.978422 0.557937 0.034931 8.40238e-07 3
-0.0622827 -0.107663 0.259091 0.978422 0.557937 0.034931 1.56392e-06 3
-0.0605412 -0.107131 0.262208 0.978422 0.557937 0.034931 3.65787e-07 3
-0.0698848 -0.100653 0.238707 0.978422 0.557937 0.034931 4.21833e-06 3
-0.0606064 -0.0998947 0.249966 0.978422 0.557937 0.034931 4.25825e-07 3
-0.0621717 -0.100054 0.248645 0.978422 0.557937 0.034931 1.54245e-06 3
-0.0640193 -0.105094 0.259567 0.978422 0.557937 0.034931 5.64309e-06 3
-0.0615076 -0.101279 0.260687 0.978422 0.557937 0.034931 1.12742e-06 3
-0.0613714 -0.102262 0.246885 0.978422 0.557937 0.034931 2.50556e-06 3
-0.0622967 -0.103555 0.261356 0.978422 0.557937 0.034931 2.37509e-06 3
-0.0622363 -0.104052 0.252664 0.978422 0.557937 0.034931 1.14349e-06 3
-0.0631662 -0.105135 0.24762 0.978422 0.557937 0.034931 4.18746e-06 3
-0.0681305 -0.104148 0.240827 0.978422 0.557937 0.034931 7.09946e-06 3
-0.0639665 -0.102927 0.24938 0.978422 0.557937 0.034931 1.30326e-06 3
-0.0665931 -0.100918 0.249101 0.978422 0.557937 0.034931 1.51901e-06 3
-0.0825812 -0.103677 0.241033 0.978422 0.557937 0.034931 2.1329e-06 3
-0.0806515 -0.10639 0.234741 0.978422 0.557937 0.034931 7.10629e-06 3
-0.0733308 -0.100573 0.248165 0.978422 0.557937 0.034931 5.46275e-06 3
-0.0819128 -0.0994029 0.23118 0.978422 0.557937 0.034931 1.60221e-06 3
-0.0833491 -0.100886 0.241623 0.978422 0.557937 0.034931 7.00002e-07 3
