ply
format ascii 1.0
comment Created by Open3D
element vertex 706
property float32 x
property float32 y
property float32 z
property float32 red
property float32 green
property float32 blue
property float32 volume
property uint8 segmentation
end_header
0.109858 0.24512 0.158595 0.3415 0.062325 0.429425 5.61824e-06 1
0.111636 0.242711 0.151385 0.3415 0.062325 0.429425 6.62385e-06 1
0.100024 0.246137 0.158609 0.3415 0.062325 0.429425 9.11268e-06 1
0.0975504 0.251386 0.158744 0.3415 0.062325 0.429425 5.16615e-06 1
0.108603 0.242703 0.154364 0.3415 0.062325 0.429425 5.10311e-06 1
0.0968516 0.247914 0.159748 0.3415 0.062325 0.429425 6.54083e-06 1
0.103717 0.242608 0.151747 0.3415 0.062325 0.429425 5.98204e-06 1
0.106123 0.232597 0.150257 0.3415 0.062325 0.429425 1.03312e-06 1
0.0918177 0.249697 0.153867 0.3415 0.062325 0.429425 1.2328e-05 1
0.101271 0.238587 0.15386 0.3415 0.062325 0.429425 1.86216e-06 1
0.120173 0.239339 0.153918 0.3415 0.062325 0.429425 6.563e-06 1
0.102452 0.232121 0.150407 0.3415 0.062325 0.429425 1.5988e-06 1
0.109749 0.2327 0.150232 0.3415 0.062325 0.429425 2.06623e-06 1
0.111811 0.234519 0.159482 0.3415 0.062325 0.429425 1.50129e-06 1
0.104998 0.231517 0.150618 0.3415 0.062325 0.429425 1.69704e-06 1
0.0862266 0.247618 0.159403 0.3415 0.062325 0.429425 1.01841e-05 1
0.101469 0.240222 0.151053 0.3415 0.062325 0.429425 3.351e-06 1
0.108807 0.240979 0.165866 0.3415 0.062325 0.429425 1.23404e-05 1
0.10288 0.229669 0.15428 0.3415 0.062325 0.429425 1.98303e-06 1
0.10102 0.234194 0.150169 0.3415 0.062325 0.429425 1.64705e-06 1
0.0995681 0.230462 0.153903 0.3415 0.062325 0.429425 2.31423e-06 1
0.0905521 0.249321 0.157335 0.3415 0.062325 0.429425 1.01872e-05 1
0.0986412 0.234128 0.153128 0.3415 0.062325 0.429425 4.30855e-06 1
0.100073 0.232055 0.153367 0.3415 0.062325 0.429425 4.09657e-06 1
0.114189 0.245834 0.152321 0.3415 0.062325 0.429425 8.69369e-06 1
0.0907512 0.236155 0.150747 0.3415 0.062325 0.429425 8.42428e-06 1
0.103013 0.248385 0.156355 0.3415 0.062325 0.429425 5.04483e-06 1
0.103968 0.247794 0.152824 0.3415 0.062325 0.429425 2.03934e-06 1
0.105932 0.230658 0.153955 0.3415 0.062325 0.429425 1.38265e-06 1
0.111539 0.235559 0.153166 0.3415 0.062325 0.429425 6.81985e-06 1
0.107335 0.247403 0.156367 0.3415 0.062325 0.429425 2.46274e-06 1
0.0917459 0.246095 0.152227 0.3415 0.062325 0.429425 1.18448e-05 1
0.114362 0.239401 0.150552 0.3415 0.062325 0.429425 7.54263e-06 1
0.111736 0.237193 0.150359 0.3415 0.062325 0.429425 4.78647e-06 1
0.108512 0.239235 0.156508 0.3415 0.062325 0.429425 6.77551e-06 1
0.108919 0.237035 0.153337 0.3415 0.062325 0.429425 5.15933e-06 1
0.105793 0.234815 0.150184 0.3415 0.062325 0.429425 2.39547e-06 1
0.104038 0.238043 0.153471 0.3415 0.062325 0.429425 6.86668e-06 1
0.103236 0.235808 0.150307 0.3415 0.062325 0.429425 4.04251e-06 1
0.110022 0.231661 0.156549 0.3415 0.062325 0.429425 3.51316e-06 1
0.115424 0.229738 0.151125 0.3415 0.062325 0.429425 8.6953e-06 1
0.112731 0.228776 0.154487 0.3415 0.062325 0.429425 1.20565e-05 1
0.10024 0.237494 0.156704 0.3415 0.062325 0.429425 8.24976e-06 1
0.0980904 0.236287 0.153655 0.3415 0.062325 0.429425 4.91522e-06 1
0.0970434 0.239803 0.15693 0.3415 0.062325 0.429425 8.37785e-06 1
0.0983177 0.244257 0.154805 0.3415 0.062325 0.429425 8.16986e-06 1
0.0868666 0.243985 0.154589 0.3415 0.062325 0.429425 7.85936e-06 1
0.0902578 0.239846 0.156963 0.3415 0.062325 0.429425 9.45144e-06 1
0.0952175 0.249636 0.157583 0.3415 0.062325 0.429425 1.20914e-06 1
0.09457 0.244091 0.166716 0.3415 0.062325 0.429425 1.003e-05 1
0.0886314 0.238286 0.16423 0.3415 0.062325 0.429425 1.71832e-05 1
0.0986524 0.23695 0.164475 0.3415 0.062325 0.429425 1.65471e-05 1
0.0967894 0.239351 0.170493 0.3415 0.062325 0.429425 2.03947e-05 1
0.100977 0.241021 0.165855 0.3415 0.062325 0.429425 1.66778e-05 1
0.101849 0.234641 0.164249 0.3415 0.062325 0.429425 1.63034e-05 1
0.107478 0.236123 0.164826 0.3415 0.062325 0.429425 1.46897e-05 1
0.116652 0.235684 0.164605 0.3415 0.062325 0.429425 1.86307e-05 1
0.0855565 0.228166 0.151705 0.3415 0.062325 0.429425 1.85565e-05 1
0.0847384 0.216219 0.158408 0.3415 0.062325 0.429425 1.35652e-05 1
0.0744895 0.22052 0.160017 0.3415 0.062325 0.429425 1.12508e-05 1
0.0858944 0.225802 0.158971 0.3415 0.062325 0.429425 8.64869e-06 1
0.081513 0.227353 0.158231 0.3415 0.062325 0.429425 1.49616e-05 1
0.0844994 0.23595 0.164019 0.3415 0.062325 0.429425 2.00811e-05 1
0.0984094 0.226065 0.155659 0.3415 0.062325 0.429425 6.28923e-06 1
0.0975496 0.230482 0.150958 0.3415 0.062325 0.429425 3.25814e-06 1
0.102803 0.225259 0.152703 0.3415 0.062325 0.429425 4.94984e-06 1
0.0913021 0.233995 0.15022 0.3415 0.062325 0.429425 7.19266e-06 1
0.0877782 0.216532 0.162022 0.3415 0.062325 0.429425 6.20808e-06 1
0.100659 0.229082 0.157636 0.3415 0.062325 0.429425 3.49338e-06 1
0.081356 0.235199 0.156261 0.3415 0.062325 0.429425 1.22396e-05 1
0.0914224 0.220967 0.158444 0.3415 0.062325 0.429425 1.12881e-05 1
0.0868331 0.222796 0.156987 0.3415 0.062325 0.429425 6.14998e-06 1
0.0869714 0.219391 0.1558 0.3415 0.062325 0.429425 1.55758e-05 1
0.0807515 0.229713 0.154129 0.3415 0.062325 0.429425 1.59395e-05 1
0.0899488 0.226721 0.155369 0.3415 0.062325 0.429425 1.09841e-05 1
0.090936 0.23134 0.15065 0.3415 0.062325 0.429425 1.065e-05 1
0.0889342 0.226115 0.162585 0.3415 0.062325 0.429425 9.3152e-07 1
0.100631 0.226652 0.152304 0.3415 0.062325 0.429425 3.61625e-06 1
0.0912416 0.223388 0.163989 0.3415 0.062325 0.429425 8.19095e-07 1
0.092791 0.221245 0.161832 0.3415 0.062325 0.429425 7.94626e-06 1
0.0908876 0.223716 0.153385 0.3415 0.062325 0.429425 1.0161e-05 1
0.0973467 0.229874 0.157258 0.3415 0.062325 0.429425 6.80367e-06 1
0.0754315 0.225757 0.159454 0.3415 0.062325 0.429425 9.24494e-06 1
0.0705242 0.219735 0.157843 0.3415 0.062325 0.429425 1.21139e-05 1
0.0792768 0.215938 0.159418 0.3415 0.062325 0.429425 1.51264e-05 1
0.0733837 0.227401 0.152491 0.3415 0.062325 0.429425 1.22297e-05 1
0.0714529 0.225926 0.156629 0.3415 0.062325 0.429425 9.95538e-06 1
0.0802546 0.215645 0.164091 0.3415 0.062325 0.429425 9.13635e-06 1
0.072692 0.227452 0.16721 0.3415 0.062325 0.429425 5.03551e-06 1
0.0847152 0.231126 0.164969 0.3415 0.062325 0.429425 2.26427e-05 1
0.0746747 0.229853 0.165285 0.3415 0.062325 0.429425 1.10363e-05 1
0.0989095 0.230774 0.164793 0.3415 0.062325 0.429425 1.03396e-05 1
0.0704405 0.242064 0.158498 0.3415 0.062325 0.429425 2.85918e-06 1
0.0728916 0.244736 0.155533 0.3415 0.062325 0.429425 4.24218e-06 1
0.0772611 0.247214 0.159451 0.3415 0.062325 0.429425 4.73859e-06 1
0.0679607 0.237944 0.152357 0.3415 0.062325 0.429425 1.12593e-05 1
0.0666123 0.246476 0.161223 0.3415 0.062325 0.429425 4.33333e-06 1
0.0766728 0.252079 0.159827 0.3415 0.062325 0.429425 8.83852e-06 1
0.0698844 0.244829 0.167893 0.3415 0.062325 0.429425 3.81104e-06 1
0.0724628 0.242822 0.161868 0.3415 0.062325 0.429425 5.55642e-07 1
0.0826129 0.245884 0.158297 0.3415 0.062325 0.429425 9.97128e-06 1
0.0749139 0.245495 0.158904 0.3415 0.062325 0.429425 4.79441e-06 1
0.075686 0.244029 0.16576 0.3415 0.062325 0.429425 5.53626e-06 1
0.0747227 0.242245 0.151882 0.3415 0.062325 0.429425 1.97298e-05 1
0.0734784 0.241406 0.165067 0.3415 0.062325 0.429425 7.40589e-06 1
0.0827238 0.241543 0.151455 0.3415 0.062325 0.429425 2.26544e-05 1
0.0861149 0.237404 0.153829 0.3415 0.062325 0.429425 2.32663e-05 1
0.0839854 0.252521 0.159803 0.3415 0.062325 0.429425 1.79848e-05 1
0.0666997 0.240597 0.15909 0.3415 0.062325 0.429425 1.92147e-06 1
0.0755138 0.236665 0.156852 0.3415 0.062325 0.429425 6.02538e-06 1
0.0728643 0.252435 0.157222 0.3415 0.062325 0.429425 2.00828e-05 1
0.0649293 0.250147 0.16068 0.3415 0.062325 0.429425 7.11591e-06 1
0.0849968 0.242376 0.165514 0.3415 0.062325 0.429425 1.52427e-05 1
0.0650989 0.243577 0.157178 0.3415 0.062325 0.429425 3.50321e-06 1
0.0691092 0.232897 0.151682 0.3415 0.062325 0.429425 6.63278e-06 1
0.0681844 0.235029 0.157921 0.3415 0.062325 0.429425 6.4112e-06 1
0.0671858 0.249917 0.164152 0.3415 0.062325 0.429425 3.24345e-06 1
0.0712029 0.235036 0.154362 0.3415 0.062325 0.429425 5.18315e-06 1
0.0722717 0.239573 0.154846 0.3415 0.062325 0.429425 1.24743e-05 1
0.0685907 0.254338 0.15979 0.3415 0.062325 0.429425 9.54835e-06 1
0.0710758 0.247597 0.157346 0.3415 0.062325 0.429425 8.38581e-06 1
0.0690535 0.246839 0.153975 0.3415 0.062325 0.429425 8.85227e-06 1
0.0679281 0.236159 0.164929 0.3415 0.062325 0.429425 2.50985e-06 1
0.067103 0.240209 0.165934 0.3415 0.062325 0.429425 6.12829e-06 1
0.0691154 0.238658 0.165022 0.3415 0.062325 0.429425 2.23192e-06 1
0.069089 0.242983 0.166479 0.3415 0.062325 0.429425 5.12523e-06 1
0.0741045 0.245902 0.167674 0.3415 0.062325 0.429425 2.63493e-06 1
0.0746983 0.23774 0.163702 0.3415 0.062325 0.429425 7.46942e-06 1
0.0800384 0.241009 0.169229 0.3415 0.062325 0.429425 1.46191e-05 1
0.0795332 0.236904 0.167954 0.3415 0.062325 0.429425 1.66969e-05 1
0.0711015 0.241433 0.165567 0.3415 0.062325 0.429425 9.61095e-07 1
0.0913161 0.229227 0.166241 0.3415 0.062325 0.429425 5.3479e-06 1
0.10018 0.217654 0.177819 0.3415 0.062325 0.429425 6.66691e-06 1
0.093943 0.216178 0.172011 0.3415 0.062325 0.429425 4.93717e-06 1
0.094603 0.232771 0.18565 0.3415 0.062325 0.429425 1.18781e-05 1
0.0971396 0.21359 0.177534 0.3415 0.062325 0.429425 7.21093e-07 1
0.094723 0.212886 0.179131 0.3415 0.062325 0.429425 4.58111e-06 1
0.0979679 0.214776 0.173933 0.3415 0.062325 0.429425 6.02764e-06 1
0.0995615 0.215405 0.177073 0.3415 0.062325 0.429425 5.53469e-06 1
0.0957061 0.222322 0.17112 0.3415 0.062325 0.429425 8.64153e-06 1
0.0972427 0.217834 0.168795 0.3415 0.062325 0.429425 2.98015e-06 1
0.0935442 0.228565 0.171361 0.3415 0.062325 0.429425 1.32715e-05 1
0.0796638 0.228872 0.181988 0.3415 0.062325 0.429425 1.72614e-05 1
0.0876853 0.228312 0.166679 0.3415 0.062325 0.429425 1.55417e-05 1
0.0806438 0.227297 0.174695 0.3415 0.062325 0.429425 1.17704e-05 1
0.0798195 0.227367 0.178059 0.3415 0.062325 0.429425 1.65179e-05 1
0.0933635 0.218441 0.167866 0.3415 0.062325 0.429425 1.5119e-06 1
0.0957854 0.220256 0.167404 0.3415 0.062325 0.429425 6.94965e-07 1
0.0973403 0.222432 0.16545 0.3415 0.062325 0.429425 1.43158e-06 1
0.0804889 0.231546 0.184907 0.3415 0.062325 0.429425 1.56538e-05 1
0.0958834 0.220767 0.174022 0.3415 0.062325 0.429425 1.22056e-05 1
0.097261 0.224498 0.169166 0.3415 0.062325 0.429425 1.23115e-05 1
0.0844115 0.221439 0.17755 0.3415 0.062325 0.429425 3.90056e-06 1
0.0864154 0.224359 0.184777 0.3415 0.062325 0.429425 1.13929e-05 1
0.0940195 0.229326 0.185487 0.3415 0.062325 0.429425 7.08775e-06 1
0.0809722 0.234654 0.185864 0.3415 0.062325 0.429425 1.18917e-05 1
0.0746963 0.223505 0.176959 0.3415 0.062325 0.429425 1.06817e-05 1
0.093754 0.22703 0.183725 0.3415 0.062325 0.429425 9.94904e-06 1
0.0919892 0.226389 0.173315 0.3415 0.062325 0.429425 9.10326e-06 1
0.0921666 0.224834 0.176217 0.3415 0.062325 0.429425 1.33509e-05 1
0.099986 0.223083 0.183817 0.3415 0.062325 0.429425 7.08631e-06 1
0.086536 0.221653 0.175306 0.3415 0.062325 0.429425 9.82222e-06 1
0.100738 0.224599 0.168851 0.3415 0.062325 0.429425 3.61393e-06 1
0.0834595 0.225507 0.186123 0.3415 0.062325 0.429425 9.75595e-06 1
0.0972151 0.221564 0.180834 0.3415 0.062325 0.429425 1.03151e-05 1
0.0928778 0.22509 0.180306 0.3415 0.062325 0.429425 1.45882e-05 1
0.0968683 0.217604 0.181963 0.3415 0.062325 0.429425 6.41204e-06 1
0.103809 0.225372 0.16848 0.3415 0.062325 0.429425 3.92152e-06 1
0.101341 0.227243 0.166581 0.3415 0.062325 0.429425 1.07392e-05 1
0.0797489 0.23208 0.168904 0.3415 0.062325 0.429425 1.84236e-05 1
0.0806571 0.22866 0.171673 0.3415 0.062325 0.429425 1.37527e-05 1
0.100527 0.221614 0.17669 0.3415 0.062325 0.429425 1.276e-05 1
0.0986651 0.235712 0.184122 0.3415 0.062325 0.429425 1.11961e-05 1
0.0865295 0.223616 0.170972 0.3415 0.062325 0.429425 5.24086e-06 1
0.0842967 0.222601 0.173463 0.3415 0.062325 0.429425 5.97976e-06 1
0.0872118 0.221796 0.180133 0.3415 0.062325 0.429425 1.151e-05 1
0.0813479 0.222457 0.179071 0.3415 0.062325 0.429425 1.41205e-06 1
0.0841481 0.222814 0.181654 0.3415 0.062325 0.429425 9.58191e-06 1
0.0844537 0.224877 0.169457 0.3415 0.062325 0.429425 7.91388e-06 1
0.0944644 0.235281 0.169113 0.3415 0.062325 0.429425 1.58498e-05 1
0.0947138 0.231393 0.169642 0.3415 0.062325 0.429425 1.03275e-05 1
0.100747 0.212904 0.172551 0.3415 0.062325 0.429425 3.64926e-06 1
0.0939438 0.209938 0.162245 0.3415 0.062325 0.429425 5.76831e-06 1
0.110209 0.222575 0.15748 0.3415 0.062325 0.429425 1.05016e-05 1
0.0832188 0.212878 0.168202 0.3415 0.062325 0.429425 6.67539e-06 1
0.0913114 0.212848 0.164928 0.3415 0.062325 0.429425 6.48013e-06 1
0.0913799 0.219983 0.162802 0.3415 0.062325 0.429425 3.64485e-06 1
0.0841476 0.220504 0.167316 0.3415 0.062325 0.429425 4.84344e-07 1
0.100016 0.218364 0.15666 0.3415 0.062325 0.429425 7.50394e-06 1
0.11044 0.213478 0.161099 0.3415 0.062325 0.429425 3.1109e-06 1
0.086085 0.217762 0.165163 0.3415 0.062325 0.429425 4.23308e-06 1
0.107967 0.215027 0.169527 0.3415 0.062325 0.429425 5.53405e-06 1
0.105145 0.211598 0.171274 0.3415 0.062325 0.429425 6.89451e-06 1
0.10611 0.225273 0.168568 0.3415 0.062325 0.429425 8.92737e-06 1
0.0914359 0.216197 0.166023 0.3415 0.062325 0.429425 2.32589e-06 1
0.10619 0.223207 0.164852 0.3415 0.062325 0.429425 1.67829e-06 1
0.104847 0.222594 0.157444 0.3415 0.062325 0.429425 2.50701e-06 1
0.105667 0.210639 0.167245 0.3415 0.062325 0.429425 7.01107e-06 1
0.0998625 0.213229 0.164845 0.3415 0.062325 0.429425 1.16964e-05 1
0.101269 0.211945 0.168522 0.3415 0.062325 0.429425 5.65638e-06 1
0.108973 0.211178 0.164512 0.3415 0.062325 0.429425 4.12931e-06 1
0.105756 0.215858 0.163154 0.3415 0.062325 0.429425 3.19006e-06 1
0.110347 0.214454 0.165408 0.3415 0.062325 0.429425 3.09178e-06 1
0.106619 0.222721 0.160952 0.3415 0.062325 0.429425 6.49574e-06 1
0.101882 0.215753 0.163139 0.3415 0.062325 0.429425 4.83242e-06 1
0.0983322 0.210492 0.176125 0.3415 0.062325 0.429425 3.97802e-06 1
0.111151 0.218502 0.156678 0.3415 0.062325 0.429425 5.90634e-06 1
0.115919 0.21214 0.164979 0.3415 0.062325 0.429425 7.56787e-06 1
0.102474 0.220381 0.155083 0.3415 0.062325 0.429425 2.87281e-06 1
0.108896 0.214908 0.164171 0.3415 0.062325 0.429425 2.70983e-06 1
0.089854 0.215271 0.163538 0.3415 0.062325 0.429425 2.78381e-06 1
0.097119 0.22072 0.158662 0.3415 0.062325 0.429425 7.5967e-06 1
0.113624 0.226521 0.158719 0.3415 0.062325 0.429425 1.18751e-05 1
0.100052 0.224899 0.159478 0.3415 0.062325 0.429425 7.82131e-06 1
0.108438 0.222448 0.153972 0.3415 0.062325 0.429425 5.26364e-06 1
0.113104 0.216707 0.158436 0.3415 0.062325 0.429425 5.01422e-06 1
0.109015 0.225798 0.152485 0.3415 0.062325 0.429425 9.47837e-06 1
0.0989359 0.216604 0.165653 0.3415 0.062325 0.429425 3.43007e-06 1
0.108058 0.215758 0.163242 0.3415 0.062325 0.429425 2.21454e-06 1
0.0950567 0.217212 0.164724 0.3415 0.062325 0.429425 1.24357e-05 1
0.10756 0.218648 0.160149 0.3415 0.062325 0.429425 3.29099e-06 1
0.107131 0.219134 0.16405 0.3415 0.062325 0.429425 3.80524e-06 1
0.102311 0.215267 0.159239 0.3415 0.062325 0.429425 9.72362e-06 1
0.106186 0.215372 0.159253 0.3415 0.062325 0.429425 3.72292e-06 1
0.102647 0.223511 0.156714 0.3415 0.062325 0.429425 5.52053e-06 1
0.102222 0.229981 0.165171 0.3415 0.062325 0.429425 5.30893e-06 1
0.084023 0.217155 0.166222 0.3415 0.062325 0.429425 4.80296e-06 1
0.0833499 0.214264 0.173629 0.3415 0.062325 0.429425 6.51554e-06 1
0.0956829 0.208645 0.175052 0.3415 0.062325 0.429425 3.62144e-06 1
0.0956779 0.207434 0.172015 0.3415 0.062325 0.429425 4.46362e-07 1
0.0901301 0.21098 0.169979 0.3415 0.062325 0.429425 6.72233e-06 1
0.0938538 0.207851 0.165869 0.3415 0.062325 0.429425 5.90248e-06 1
0.10789 0.21013 0.186138 0.735683 0.215906 0.330245 5.3723e-06 2
0.109252 0.193244 0.178104 0.735683 0.215906 0.330245 4.40602e-06 2
0.112994 0.206455 0.174226 0.735683 0.215906 0.330245 7.64848e-06 2
0.103884 0.216893 0.177823 0.735683 0.215906 0.330245 3.06183e-06 2
0.108319 0.227074 0.186376 0.735683 0.215906 0.330245 5.20631e-06 2
0.111448 0.227783 0.176031 0.735683 0.215906 0.330245 2.52419e-05 2
0.102218 0.206599 0.177517 0.735683 0.215906 0.330245 3.40081e-06 2
0.106003 0.219983 0.186029 0.735683 0.215906 0.330245 6.78399e-06 2
0.105395 0.19452 0.186262 0.735683 0.215906 0.330245 3.87082e-06 2
0.110453 0.219267 0.184475 0.735683 0.215906 0.330245 6.27706e-06 2
0.108296 0.22856 0.184321 0.735683 0.215906 0.330245 1.18039e-06 2
0.107857 0.199372 0.172963 0.735683 0.215906 0.330245 7.42134e-06 2
0.10612 0.204806 0.178952 0.735683 0.215906 0.330245 6.34662e-06 2
0.107403 0.216749 0.181226 0.735683 0.215906 0.330245 5.19332e-06 2
0.104008 0.209563 0.184008 0.735683 0.215906 0.330245 4.83255e-06 2
0.104329 0.185979 0.181701 0.735683 0.215906 0.330245 4.05291e-06 2
0.111697 0.206703 0.184561 0.735683 0.215906 0.330245 1.05576e-05 2
0.110501 0.199898 0.183705 0.735683 0.215906 0.330245 1.08832e-05 2
0.102354 0.224067 0.185013 0.735683 0.215906 0.330245 9.82996e-07 2
0.104122 0.195867 0.182696 0.735683 0.215906 0.330245 5.63819e-06 2
0.107541 0.191457 0.182376 0.735683 0.215906 0.330245 6.65487e-07 2
0.104833 0.193224 0.181337 0.735683 0.215906 0.330245 4.84718e-06 2
0.111514 0.196801 0.181264 0.735683 0.215906 0.330245 5.4416e-06 2
0.107865 0.188865 0.18165 0.735683 0.215906 0.330245 3.74931e-06 2
0.109959 0.190125 0.184405 0.735683 0.215906 0.330245 6.13615e-06 2
0.106611 0.218688 0.173066 0.735683 0.215906 0.330245 4.8861e-06 2
0.11013 0.218544 0.176468 0.735683 0.215906 0.330245 1.27707e-05 2
0.1124 0.196088 0.178156 0.735683 0.215906 0.330245 4.0916e-06 2
0.108328 0.189299 0.186972 0.735683 0.215906 0.330245 5.63736e-06 2
0.110065 0.196121 0.170702 0.735683 0.215906 0.330245 1.51878e-05 2
0.111575 0.188667 0.174254 0.735683 0.215906 0.330245 2.50843e-06 2
0.106642 0.199698 0.185012 0.735683 0.215906 0.330245 5.42761e-06 2
0.114098 0.230398 0.184318 0.735683 0.215906 0.330245 2.91872e-05 2
0.11143 0.229886 0.171037 0.735683 0.215906 0.330245 3.02913e-05 2
0.0998969 0.209121 0.179116 0.735683 0.215906 0.330245 3.34818e-06 2
0.111578 0.188217 0.180519 0.735683 0.215906 0.330245 4.49046e-06 2
0.108953 0.204871 0.174683 0.735683 0.215906 0.330245 1.20249e-05 2
0.107815 0.206136 0.182431 0.735683 0.215906 0.330245 9.60925e-06 2
0.110565 0.232362 0.181564 0.735683 0.215906 0.330245 1.3524e-05 2
0.112255 0.188769 0.176547 0.735683 0.215906 0.330245 8.53806e-07 2
0.107719 0.202909 0.182429 0.735683 0.215906 0.330245 6.0825e-06 2
0.112184 0.190057 0.178529 0.735683 0.215906 0.330245 1.46855e-06 2
0.107915 0.198351 0.188578 0.735683 0.215906 0.330245 3.96262e-06 2
0.108366 0.193958 0.181212 0.735683 0.215906 0.330245 5.93502e-06 2
0.107259 0.191807 0.18851 0.735683 0.215906 0.330245 1.78995e-06 2
0.111762 0.199668 0.174327 0.735683 0.215906 0.330245 9.37131e-06 2
0.1122 0.19123 0.178142 0.735683 0.215906 0.330245 2.06415e-07 2
0.101979 0.192422 0.17734 0.735683 0.215906 0.330245 1.99191e-06 2
0.0995684 0.204752 0.176444 0.735683 0.215906 0.330245 4.82126e-06 2
0.105051 0.206664 0.173249 0.735683 0.215906 0.330245 7.3424e-06 2
0.108731 0.185311 0.179477 0.735683 0.215906 0.330245 5.52693e-06 2
0.0996417 0.18913 0.178309 0.735683 0.215906 0.330245 1.01154e-06 2
0.10053 0.19714 0.181324 0.735683 0.215906 0.330245 1.16651e-06 2
0.100481 0.194954 0.178723 0.735683 0.215906 0.330245 3.97228e-06 2
0.0984893 0.19887 0.17694 0.735683 0.215906 0.330245 1.00164e-06 2
0.0984861 0.196781 0.177011 0.735683 0.215906 0.330245 3.31153e-06 2
0.0987557 0.200924 0.176418 0.735683 0.215906 0.330245 1.84221e-06 2
0.104951 0.195493 0.17451 0.735683 0.215906 0.330245 3.7514e-06 2
0.105708 0.192946 0.175822 0.735683 0.215906 0.330245 4.29503e-06 2
0.112381 0.189848 0.177136 0.735683 0.215906 0.330245 5.74578e-07 2
0.115348 0.194074 0.178194 0.735683 0.215906 0.330245 1.46462e-07 2
0.0988431 0.185118 0.177166 0.735683 0.215906 0.330245 4.50499e-06 2
0.108857 0.194835 0.168043 0.735683 0.215906 0.330245 6.28721e-06 2
0.107917 0.189696 0.173561 0.735683 0.215906 0.330245 3.48522e-06 2
0.10716 0.192243 0.172249 0.735683 0.215906 0.330245 6.00502e-06 2
0.105015 0.183807 0.180534 0.735683 0.215906 0.330245 3.78354e-06 2
0.109211 0.186073 0.176898 0.735683 0.215906 0.330245 1.60889e-06 2
0.108532 0.185971 0.174605 0.735683 0.215906 0.330245 4.926e-06 2
0.111999 0.182149 0.176916 0.735683 0.215906 0.330245 2.43845e-06 2
0.111696 0.178963 0.175761 0.735683 0.215906 0.330245 4.75433e-06 2
0.111192 0.182158 0.173485 0.735683 0.215906 0.330245 7.38239e-06 2
0.110661 0.178951 0.172093 0.735683 0.215906 0.330245 3.37118e-06 2
0.106128 0.22317 0.173561 0.735683 0.215906 0.330245 6.8203e-06 2
0.0999594 0.184403 0.179509 0.735683 0.215906 0.330245 1.37711e-06 2
0.116601 0.225065 0.183343 0.735683 0.215906 0.330245 1.39386e-05 2
0.115449 0.224864 0.176961 0.735683 0.215906 0.330245 2.64129e-05 2
0.106605 0.171731 0.166308 0.735683 0.215906 0.330245 2.60902e-06 2
0.0908148 0.161537 0.165191 0.735683 0.215906 0.330245 2.4827e-06 2
0.0831637 0.168974 0.168449 0.735683 0.215906 0.330245 1.98194e-07 2
0.0955745 0.177859 0.166507 0.735683 0.215906 0.330245 4.59542e-06 2
0.0973538 0.178599 0.169644 0.735683 0.215906 0.330245 3.94999e-06 2
0.0969122 0.192206 0.175497 0.735683 0.215906 0.330245 2.35418e-06 2
0.100552 0.16443 0.167416 0.735683 0.215906 0.330245 9.72157e-06 2
0.0907946 0.16439 0.168338 0.735683 0.215906 0.330245 2.97624e-06 2
0.0929786 0.1705 0.163819 0.735683 0.215906 0.330245 2.45098e-06 2
0.090437 0.182276 0.164932 0.735683 0.215906 0.330245 8.30994e-06 2
0.0951922 0.187571 0.16626 0.735683 0.215906 0.330245 4.43196e-06 2
0.0943741 0.169152 0.176198 0.735683 0.215906 0.330245 6.58999e-07 2
0.0925715 0.18029 0.16371 0.735683 0.215906 0.330245 3.40922e-06 2
0.0944129 0.164564 0.174162 0.735683 0.215906 0.330245 7.21241e-07 2
0.100596 0.168659 0.174852 0.735683 0.215906 0.330245 2.88226e-07 2
0.0987907 0.164243 0.175902 0.735683 0.215906 0.330245 3.01209e-06 2
0.0968777 0.162201 0.175203 0.735683 0.215906 0.330245 2.88664e-06 2
0.082483 0.173095 0.169399 0.735683 0.215906 0.330245 2.52521e-07 2
0.0951696 0.179513 0.17389 0.735683 0.215906 0.330245 1.51577e-06 2
0.106095 0.169199 0.165923 0.735683 0.215906 0.330245 1.4012e-06 2
0.106142 0.166049 0.171075 0.735683 0.215906 0.330245 5.71097e-07 2
0.0991919 0.163204 0.16127 0.735683 0.215906 0.330245 1.38e-06 2
0.10444 0.174559 0.168416 0.735683 0.215906 0.330245 2.4204e-06 2
0.0950374 0.18088 0.163408 0.735683 0.215906 0.330245 7.95899e-06 2
0.104323 0.164794 0.168443 0.735683 0.215906 0.330245 1.29051e-06 2
0.0988214 0.174652 0.169743 0.735683 0.215906 0.330245 4.684e-06 2
0.103955 0.164192 0.173197 0.735683 0.215906 0.330245 2.72034e-06 2
0.103895 0.171916 0.164895 0.735683 0.215906 0.330245 5.95117e-06 2
0.096214 0.194434 0.162824 0.735683 0.215906 0.330245 1.16117e-05 2
0.102053 0.174739 0.167276 0.735683 0.215906 0.330245 5.63297e-06 2
0.0966374 0.184015 0.163292 0.735683 0.215906 0.330245 5.96961e-06 2
0.0972166 0.188362 0.169283 0.735683 0.215906 0.330245 3.73955e-06 2
0.096918 0.171087 0.163511 0.735683 0.215906 0.330245 5.93289e-06 2
0.105694 0.163878 0.170317 0.735683 0.215906 0.330245 5.76227e-06 2
0.102498 0.165575 0.162022 0.735683 0.215906 0.330245 9.93838e-07 2
0.0886173 0.177043 0.166154 0.735683 0.215906 0.330245 3.66837e-06 2
0.0979105 0.164803 0.169836 0.735683 0.215906 0.330245 2.5514e-06 2
0.0986564 0.181362 0.166431 0.735683 0.215906 0.330245 4.70163e-06 2
0.0951887 0.190652 0.166131 0.735683 0.215906 0.330245 2.98891e-06 2
0.107987 0.171221 0.167999 0.735683 0.215906 0.330245 4.78235e-06 2
0.0896774 0.170701 0.165505 0.735683 0.215906 0.330245 4.9398e-06 2
0.099579 0.183359 0.173828 0.735683 0.215906 0.330245 2.49409e-06 2
0.106061 0.168997 0.170767 0.735683 0.215906 0.330245 2.66555e-06 2
0.0980573 0.172313 0.172918 0.735683 0.215906 0.330245 7.92941e-08 2
0.0999415 0.165481 0.173743 0.735683 0.215906 0.330245 6.21805e-07 2
0.088447 0.168339 0.166296 0.735683 0.215906 0.330245 3.26442e-06 2
0.0913531 0.172982 0.172033 0.735683 0.215906 0.330245 3.44084e-06 2
0.0882995 0.184162 0.170914 0.735683 0.215906 0.330245 1.82199e-06 2
0.0970422 0.173912 0.166606 0.735683 0.215906 0.330245 5.83693e-06 2
0.0948045 0.171575 0.169788 0.735683 0.215906 0.330245 1.80234e-06 2
0.0882974 0.186002 0.170837 0.735683 0.215906 0.330245 4.72006e-07 2
0.0914807 0.163951 0.17208 0.735683 0.215906 0.330245 3.66052e-06 2
0.0882281 0.16493 0.171625 0.735683 0.215906 0.330245 2.18977e-06 2
0.0979592 0.171918 0.176245 0.735683 0.215906 0.330245 3.00181e-06 2
0.0879569 0.172098 0.172006 0.735683 0.215906 0.330245 4.2448e-06 2
0.0864196 0.170211 0.168845 0.735683 0.215906 0.330245 6.93222e-06 2
0.0946803 0.168751 0.166693 0.735683 0.215906 0.330245 2.24658e-06 2
0.090974 0.179255 0.168032 0.735683 0.215906 0.330245 4.2143e-06 2
0.0931085 0.17727 0.166809 0.735683 0.215906 0.330245 1.98368e-06 2
0.0919071 0.168116 0.164339 0.735683 0.215906 0.330245 4.22235e-06 2
0.0912315 0.186549 0.171839 0.735683 0.215906 0.330245 3.51235e-06 2
0.0949715 0.164935 0.169901 0.735683 0.215906 0.330245 2.06977e-06 2
0.100172 0.171173 0.17408 0.735683 0.215906 0.330245 9.10031e-07 2
0.096278 0.171573 0.169782 0.735683 0.215906 0.330245 2.30785e-06 2
0.0964337 0.16259 0.169902 0.735683 0.215906 0.330245 4.38863e-06 2
0.0931027 0.173324 0.166914 0.735683 0.215906 0.330245 1.98368e-06 2
0.0879598 0.174071 0.171954 0.735683 0.215906 0.330245 1.10349e-06 2
0.0910463 0.173457 0.168081 0.735683 0.215906 0.330245 3.93061e-06 2
0.0929208 0.16426 0.167247 0.735683 0.215906 0.330245 3.82593e-06 2
0.0961539 0.168749 0.166686 0.735683 0.215906 0.330245 2.69809e-06 2
0.098701 0.173148 0.174034 0.735683 0.215906 0.330245 1.52541e-06 2
0.100539 0.169005 0.164266 0.735683 0.215906 0.330245 1.24309e-05 2
0.102511 0.161 0.165172 0.735683 0.215906 0.330245 1.20221e-05 2
0.0867061 0.178802 0.167895 0.735683 0.215906 0.330245 2.3349e-06 2
0.0857418 0.176304 0.169742 0.735683 0.215906 0.330245 5.55876e-06 2
0.0943888 0.17114 0.174042 0.735683 0.215906 0.330245 6.74245e-07 2
0.101794 0.182019 0.163893 0.735683 0.215906 0.330245 6.17474e-06 2
0.10035 0.183734 0.166937 0.735683 0.215906 0.330245 4.55414e-06 2
0.104741 0.20573 0.167906 0.735683 0.215906 0.330245 5.03913e-06 2
0.0969347 0.207773 0.168483 0.735683 0.215906 0.330245 3.74051e-06 2
0.105823 0.174049 0.170107 0.735683 0.215906 0.330245 4.38227e-06 2
0.103021 0.200273 0.16372 0.735683 0.215906 0.330245 1.41566e-05 2
0.101375 0.205635 0.166093 0.735683 0.215906 0.330245 5.31774e-06 2
0.0982417 0.197316 0.165777 0.735683 0.215906 0.330245 1.02342e-05 2
0.103723 0.179344 0.164639 0.735683 0.215906 0.330245 6.09565e-06 2
0.104123 0.203462 0.171933 0.735683 0.215906 0.330245 4.48685e-06 2
0.0984719 0.210013 0.162217 0.735683 0.215906 0.330245 5.71354e-06 2
0.0998789 0.208729 0.165894 0.735683 0.215906 0.330245 3.5713e-06 2
0.106388 0.200368 0.165533 0.735683 0.215906 0.330245 1.32955e-05 2
0.101843 0.191108 0.166727 0.735683 0.215906 0.330245 5.14356e-06 2
0.096936 0.201742 0.168719 0.735683 0.215906 0.330245 4.38471e-06 2
0.10456 0.190961 0.168094 0.735683 0.215906 0.330245 3.12994e-06 2
0.0971736 0.20434 0.172215 0.735683 0.215906 0.330245 5.1325e-07 2
0.0984304 0.204679 0.168683 0.735683 0.215906 0.330245 4.31667e-06 2
0.0973947 0.189588 0.177014 0.735683 0.215906 0.330245 1.25933e-06 2
0.0994994 0.203028 0.173652 0.735683 0.215906 0.330245 2.25264e-06 2
0.0981465 0.187726 0.175926 0.735683 0.215906 0.330245 2.46716e-06 2
0.0997229 0.196647 0.173516 0.735683 0.215906 0.330245 1.71338e-06 2
0.0977386 0.198037 0.174211 0.735683 0.215906 0.330245 6.17713e-07 2
0.0977354 0.195947 0.174281 0.735683 0.215906 0.330245 1.67932e-06 2
0.10611 0.179164 0.165779 0.735683 0.215906 0.330245 2.6265e-06 2
0.0987028 0.193533 0.169136 0.735683 0.215906 0.330245 4.2424e-06 2
0.108289 0.181688 0.167896 0.735683 0.215906 0.330245 3.05614e-06 2
0.104104 0.172832 0.173227 0.735683 0.215906 0.330245 4.06756e-06 2
0.106898 0.181692 0.166399 0.735683 0.215906 0.330245 3.84241e-06 2
0.0972131 0.191444 0.169154 0.735683 0.215906 0.330245 2.52195e-06 2
0.106709 0.18841 0.170902 0.735683 0.215906 0.330245 6.0768e-07 2
0.105952 0.190957 0.16959 0.735683 0.215906 0.330245 2.5489e-06 2
0.0975267 0.175437 0.177309 0.735683 0.215906 0.330245 1.08413e-06 2
0.100345 0.186346 0.174954 0.735683 0.215906 0.330245 1.66284e-06 2
0.104362 0.186989 0.17316 0.735683 0.215906 0.330245 4.22181e-06 2
0.103596 0.184002 0.172035 0.735683 0.215906 0.330245 6.21472e-06 2
0.10664 0.182815 0.171017 0.735683 0.215906 0.330245 1.06143e-06 2
0.107406 0.185802 0.172143 0.735683 0.215906 0.330245 2.67456e-06 2
0.106453 0.180278 0.170906 0.735683 0.215906 0.330245 3.22931e-06 2
0.106536 0.177229 0.171224 0.735683 0.215906 0.330245 2.4294e-06 2
0.109586 0.179487 0.170091 0.735683 0.215906 0.330245 5.66663e-06 2
0.0992109 0.180804 0.176195 0.735683 0.215906 0.330245 1.97332e-06 2
0.0987593 0.174367 0.176206 0.735683 0.215906 0.330245 1.63185e-06 2
0.104552 0.185427 0.16828 0.735683 0.215906 0.330245 5.15951e-06 2
0.101382 0.194891 0.163367 0.735683 0.215906 0.330245 1.17578e-05 2
0.107466 0.194839 0.166547 0.735683 0.215906 0.330245 7.50737e-06 2
0.100535 0.184784 0.170074 0.735683 0.215906 0.330245 5.70578e-06 2
0.100356 0.187179 0.166821 0.735683 0.215906 0.330245 5.17971e-06 2
0.0876136 0.209895 0.184828 0.735683 0.215906 0.330245 6.10279e-06 2
0.0878045 0.207439 0.184819 0.735683 0.215906 0.330245 2.43965e-06 2
0.0908455 0.192743 0.182434 0.735683 0.215906 0.330245 5.60643e-06 2
0.0960754 0.174865 0.18486 0.735683 0.215906 0.330245 1.02046e-06 2
0.100217 0.202645 0.181747 0.735683 0.215906 0.330245 1.08607e-06 2
0.10455 0.191968 0.190216 0.735683 0.215906 0.330245 3.54696e-06 2
0.0968372 0.213547 0.187393 0.735683 0.215906 0.330245 6.54425e-06 2
0.0987161 0.182248 0.19156 0.735683 0.215906 0.330245 5.98219e-06 2
0.0910867 0.211529 0.189489 0.735683 0.215906 0.330245 3.26461e-06 2
0.0889857 0.185734 0.184049 0.735683 0.215906 0.330245 3.05202e-06 2
0.0881539 0.181216 0.187685 0.735683 0.215906 0.330245 7.59862e-06 2
0.0964545 0.178333 0.184894 0.735683 0.215906 0.330245 2.16541e-06 2
0.0958849 0.207502 0.189543 0.735683 0.215906 0.330245 4.50594e-06 2
0.0854366 0.18804 0.185095 0.735683 0.215906 0.330245 1.13322e-05 2
0.0973485 0.191608 0.191733 0.735683 0.215906 0.330245 5.77093e-06 2
0.0911819 0.171262 0.189839 0.735683 0.215906 0.330245 4.77217e-06 2
0.0857996 0.191735 0.185815 0.735683 0.215906 0.330245 4.85497e-06 2
0.098699 0.204361 0.192392 0.735683 0.215906 0.330245 1.2187e-05 2
0.103859 0.202709 0.183737 0.735683 0.215906 0.330245 3.45335e-06 2
0.093476 0.206208 0.179429 0.735683 0.215906 0.330245 1.46253e-06 2
0.0980794 0.207929 0.186566 0.735683 0.215906 0.330245 2.16853e-06 2
0.0917542 0.18853 0.190341 0.735683 0.215906 0.330245 5.20966e-06 2
0.0944473 0.212205 0.190256 0.735683 0.215906 0.330245 7.99762e-06 2
0.0928938 0.173212 0.190547 0.735683 0.215906 0.330245 3.28495e-06 2
0.0932343 0.205947 0.189299 0.735683 0.215906 0.330245 5.37628e-07 2
0.0938331 0.214651 0.182813 0.735683 0.215906 0.330245 4.28039e-06 2
0.0951379 0.190896 0.180844 0.735683 0.215906 0.330245 2.08497e-06 2
0.0922202 0.204217 0.188372 0.735683 0.215906 0.330245 2.08029e-06 2
0.0937013 0.204737 0.181815 0.735683 0.215906 0.330245 6.05196e-07 2
0.0959005 0.198683 0.192096 0.735683 0.215906 0.330245 5.99053e-06 2
0.0916835 0.205676 0.184136 0.735683 0.215906 0.330245 5.54421e-06 2
0.099204 0.189389 0.191749 0.735683 0.215906 0.330245 4.63106e-06 2
0.0967574 0.177667 0.179347 0.735683 0.215906 0.330245 1.19903e-06 2
0.103352 0.204369 0.191417 0.735683 0.215906 0.330245 1.25148e-05 2
0.0888873 0.202501 0.185291 0.735683 0.215906 0.330245 9.61234e-06 2
0.102539 0.190038 0.191045 0.735683 0.215906 0.330245 5.56713e-06 2
0.0893487 0.189429 0.184769 0.735683 0.215906 0.330245 3.00305e-06 2
0.0916339 0.201027 0.191517 0.735683 0.215906 0.330245 9.89148e-07 2
0.103169 0.201608 0.188197 0.735683 0.215906 0.330245 5.35264e-06 2
0.0910501 0.207972 0.191654 0.735683 0.215906 0.330245 1.34173e-06 2
0.0956376 0.181039 0.188105 0.735683 0.215906 0.330245 4.60907e-06 2
0.0960302 0.175079 0.179417 0.735683 0.215906 0.330245 6.67144e-07 2
0.0894747 0.199052 0.189817 0.735683 0.215906 0.330245 6.10339e-06 2
0.0947073 0.208642 0.192543 0.735683 0.215906 0.330245 3.53684e-06 2
0.0920567 0.207087 0.192299 0.735683 0.215906 0.330245 4.46763e-07 2
0.095229 0.172493 0.188026 0.735683 0.215906 0.330245 1.51935e-06 2
0.0972476 0.207274 0.178043 0.735683 0.215906 0.330245 3.02105e-06 2
0.0961298 0.206426 0.180918 0.735683 0.215906 0.330245 1.86185e-06 2
0.0828414 0.202273 0.181919 0.735683 0.215906 0.330245 8.65663e-06 2
0.0922276 0.206831 0.188655 0.735683 0.215906 0.330245 1.1058e-06 2
0.0850082 0.204264 0.185975 0.735683 0.215906 0.330245 1.05454e-05 2
0.0974424 0.206728 0.189422 0.735683 0.215906 0.330245 8.7072e-07 2
0.0971759 0.179434 0.191442 0.735683 0.215906 0.330245 5.79793e-06 2
0.100121 0.184459 0.185193 0.735683 0.215906 0.330245 1.13729e-06 2
0.0976615 0.19428 0.178174 0.735683 0.215906 0.330245 4.07851e-06 2
0.0875034 0.172443 0.187169 0.735683 0.215906 0.330245 4.4692e-06 2
0.0888951 0.191118 0.188787 0.735683 0.215906 0.330245 6.40893e-06 2
0.0984506 0.203904 0.179319 0.735683 0.215906 0.330245 2.96611e-06 2
0.0994078 0.200907 0.18165 0.735683 0.215906 0.330245 5.83253e-07 2
0.0976411 0.202166 0.179222 0.735683 0.215906 0.330245 2.60968e-06 2
0.0942236 0.193589 0.179856 0.735683 0.215906 0.330245 1.73559e-06 2
0.08905 0.202298 0.189636 0.735683 0.215906 0.330245 4.83247e-06 2
0.0899707 0.174741 0.185382 0.735683 0.215906 0.330245 1.78409e-06 2
0.0970907 0.185856 0.184986 0.735683 0.215906 0.330245 4.16761e-06 2
0.095516 0.183175 0.179269 0.735683 0.215906 0.330245 1.31319e-06 2
0.0929566 0.185051 0.187324 0.735683 0.215906 0.330245 2.73732e-06 2
0.0977145 0.183021 0.178291 0.735683 0.215906 0.330245 1.64538e-06 2
0.0897345 0.183945 0.185049 0.735683 0.215906 0.330245 3.61577e-06 2
0.102686 0.194682 0.187968 0.735683 0.215906 0.330245 7.20504e-06 2
0.0951339 0.174355 0.179303 0.735683 0.215906 0.330245 5.6182e-07 2
0.0928439 0.17486 0.187267 0.735683 0.215906 0.330245 1.85798e-06 2
0.095313 0.202074 0.180537 0.735683 0.215906 0.330245 1.07537e-06 2
0.0951791 0.174141 0.184746 0.735683 0.215906 0.330245 8.59361e-07 2
0.095578 0.183838 0.184797 0.735683 0.215906 0.330245 1.99404e-06 2
0.0899708 0.176894 0.185372 0.735683 0.215906 0.330245 2.99308e-06 2
0.092844 0.177013 0.187257 0.735683 0.215906 0.330245 3.11704e-06 2
0.0868282 0.178413 0.186426 0.735683 0.215906 0.330245 4.22487e-06 2
0.0913563 0.179474 0.189927 0.735683 0.215906 0.330245 6.07109e-06 2
0.0930162 0.182253 0.190632 0.735683 0.215906 0.330245 6.32362e-06 2
0.0953207 0.177086 0.184751 0.735683 0.215906 0.330245 1.71198e-06 2
0.0934686 0.203594 0.179145 0.735683 0.215906 0.330245 1.75418e-06 2
0.0931539 0.205412 0.185637 0.735683 0.215906 0.330245 1.00526e-06 2
0.0961688 0.196253 0.180733 0.735683 0.215906 0.330245 1.50121e-06 2
0.0944899 0.195643 0.179334 0.735683 0.215906 0.330245 1.19502e-06 2
0.0932269 0.203333 0.189016 0.735683 0.215906 0.330245 5.89355e-07 2
0.0949086 0.202016 0.186063 0.735683 0.215906 0.330245 1.28893e-06 2
0.0944399 0.200133 0.178499 0.735683 0.215906 0.330245 1.28747e-06 2
0.105206 0.198512 0.190284 0.735683 0.215906 0.330245 7.37154e-06 2
0.0903919 0.194433 0.186452 0.735683 0.215906 0.330245 8.1761e-06 2
0.0833278 0.197487 0.181927 0.735683 0.215906 0.330245 2.48185e-06 2
0.0896002 0.199696 0.181462 0.735683 0.215906 0.330245 4.73394e-06 2
0.086373 0.194543 0.182146 0.735683 0.215906 0.330245 3.28955e-06 2
0.0899312 0.195436 0.181447 0.735683 0.215906 0.330245 4.73394e-06 2
0.0922955 0.198642 0.191563 0.735683 0.215906 0.330245 3.15761e-06 2
0.0942625 0.199692 0.188952 0.735683 0.215906 0.330245 2.4719e-06 2
0.0803722 0.199756 0.183944 0.735683 0.215906 0.330245 2.00105e-06 2
0.0963957 0.19587 0.185661 0.735683 0.215906 0.330245 2.70971e-06 2
0.0957014 0.189418 0.188242 0.735683 0.215906 0.330245 5.11694e-06 2
0.0929863 0.190879 0.19107 0.735683 0.215906 0.330245 2.93273e-06 2
0.0929161 0.194028 0.188077 0.735683 0.215906 0.330245 4.27473e-06 2
0.0956312 0.192567 0.185248 0.735683 0.215906 0.330245 6.63363e-06 2
0.0986906 0.185871 0.188413 0.735683 0.215906 0.330245 4.50653e-06 2
0.0980337 0.19486 0.188805 0.735683 0.215906 0.330245 6.4389e-06 2
0.0998398 0.196039 0.185784 0.735683 0.215906 0.330245 2.8319e-06 2
0.0995271 0.201544 0.186207 0.735683 0.215906 0.330245 2.63662e-06 2
0.0973561 0.202745 0.189304 0.735683 0.215906 0.330245 5.04809e-06 2
0.0987177 0.199806 0.18611 0.735683 0.215906 0.330245 1.41595e-06 2
0.0965466 0.201007 0.189207 0.735683 0.215906 0.330245 2.59029e-06 2
0.0895754 0.175481 0.175033 0.735683 0.215906 0.330245 3.36626e-06 2
0.085904 0.174523 0.176096 0.735683 0.215906 0.330245 2.77095e-06 2
0.092597 0.207512 0.169401 0.735683 0.215906 0.330245 9.02457e-07 2
0.088161 0.20922 0.181006 0.735683 0.215906 0.330245 7.21653e-06 2
0.0915057 0.207732 0.170828 0.735683 0.215906 0.330245 3.00343e-06 2
0.0829767 0.188163 0.179035 0.735683 0.215906 0.330245 1.3051e-05 2
0.0946616 0.191541 0.176714 0.735683 0.215906 0.330245 2.92289e-06 2
0.0867165 0.212258 0.185397 0.735683 0.215906 0.330245 6.22548e-06 2
0.0920403 0.210668 0.177494 0.735683 0.215906 0.330245 3.93232e-06 2
0.086047 0.183241 0.179262 0.735683 0.215906 0.330245 5.47792e-06 2
0.093732 0.193006 0.177992 0.735683 0.215906 0.330245 1.572e-06 2
0.09055 0.194086 0.17264 0.735683 0.215906 0.330245 3.46051e-06 2
0.0881159 0.19031 0.170967 0.735683 0.215906 0.330245 8.04267e-06 2
0.0907115 0.200608 0.161643 0.735683 0.215906 0.330245 4.71252e-06 2
0.0936489 0.18752 0.175849 0.735683 0.215906 0.330245 1.32577e-06 2
0.0930948 0.208061 0.176425 0.735683 0.215906 0.330245 2.02858e-06 2
0.0834682 0.177274 0.179541 0.735683 0.215906 0.330245 7.43894e-06 2
0.0846418 0.20489 0.169045 0.735683 0.215906 0.330245 1.05469e-05 2
0.090432 0.212774 0.173975 0.735683 0.215906 0.330245 2.89558e-06 2
0.0859509 0.211268 0.174032 0.735683 0.215906 0.330245 6.46143e-06 2
0.0936587 0.183088 0.178127 0.735683 0.215906 0.330245 8.46527e-07 2
0.0951828 0.201551 0.173051 0.735683 0.215906 0.330245 5.21623e-07 2
0.0912726 0.193811 0.167599 0.735683 0.215906 0.330245 3.75331e-06 2
0.0846275 0.214465 0.181911 0.735683 0.215906 0.330245 8.16961e-06 2
0.0959359 0.20025 0.175869 0.735683 0.215906 0.330245 4.13291e-06 2
0.0844282 0.211112 0.179732 0.735683 0.215906 0.330245 4.17074e-06 2
0.0826003 0.188075 0.176123 0.735683 0.215906 0.330245 4.45073e-06 2
0.085797 0.200003 0.179902 0.735683 0.215906 0.330245 7.55789e-06 2
0.0888975 0.204657 0.16943 0.735683 0.215906 0.330245 4.01459e-06 2
0.0958995 0.188185 0.174631 0.735683 0.215906 0.330245 2.60913e-06 2
0.090603 0.213109 0.184998 0.735683 0.215906 0.330245 5.20871e-06 2
0.0853587 0.195411 0.179147 0.735683 0.215906 0.330245 5.81679e-06 2
0.0954128 0.199349 0.172773 0.735683 0.215906 0.330245 1.13763e-06 2
0.0954134 0.193884 0.172985 0.735683 0.215906 0.330245 6.54564e-07 2
0.0836529 0.213276 0.186918 0.735683 0.215906 0.330245 7.22014e-06 2
0.085649 0.209474 0.170036 0.735683 0.215906 0.330245 1.54195e-05 2
0.0929099 0.184878 0.177127 0.735683 0.215906 0.330245 1.39204e-06 2
0.0838618 0.211167 0.175538 0.735683 0.215906 0.330245 2.14073e-06 2
0.0846174 0.213969 0.177319 0.735683 0.215906 0.330245 1.87024e-06 2
0.0824204 0.202912 0.172798 0.735683 0.215906 0.330245 6.59925e-06 2
0.0811493 0.204538 0.177708 0.735683 0.215906 0.330245 6.5517e-06 2
0.0910788 0.20157 0.171453 0.735683 0.215906 0.330245 1.20673e-06 2
0.0912455 0.204776 0.164471 0.735683 0.215906 0.330245 7.1254e-06 2
0.090153 0.199659 0.172873 0.735683 0.215906 0.330245 1.92555e-06 2
0.0895557 0.201865 0.17341 0.735683 0.215906 0.330245 3.85109e-06 2
0.0899887 0.204437 0.168003 0.735683 0.215906 0.330245 1.25323e-06 2
0.0913088 0.199368 0.171176 0.735683 0.215906 0.330245 2.63181e-06 2
0.092298 0.197593 0.164293 0.735683 0.215906 0.330245 1.80496e-05 2
0.0913127 0.195992 0.171317 0.735683 0.215906 0.330245 1.53042e-06 2
0.092832 0.201761 0.167121 0.735683 0.215906 0.330245 9.00402e-06 2
0.0896204 0.195551 0.173918 0.735683 0.215906 0.330245 1.92555e-06 2
0.0863089 0.196441 0.174221 0.735683 0.215906 0.330245 7.13564e-06 2
0.0859779 0.2007 0.174236 0.735683 0.215906 0.330245 7.13564e-06 2
0.0951441 0.188924 0.178232 0.735683 0.215906 0.330245 6.96238e-07 2
0.0888413 0.19037 0.165907 0.735683 0.215906 0.330245 1.20248e-05 2
0.095155 0.180871 0.176031 0.735683 0.215906 0.330245 1.74286e-06 2
0.092957 0.176375 0.177207 0.735683 0.215906 0.330245 1.3088e-06 2
0.0897497 0.184434 0.180381 0.735683 0.215906 0.330245 3.33896e-06 2
0.0967719 0.176309 0.177206 0.735683 0.215906 0.330245 4.1601e-07 2
0.0856706 0.183154 0.176349 0.735683 0.215906 0.330245 1.86307e-06 2
0.0904985 0.182645 0.181381 0.735683 0.215906 0.330245 2.05431e-06 2
0.0970124 0.180958 0.177173 0.735683 0.215906 0.330245 1.60918e-06 2
0.0845814 0.187938 0.171385 0.735683 0.215906 0.330245 8.20638e-06 2
0.083704 0.192604 0.173362 0.735683 0.215906 0.330245 1.66708e-05 2
0.0951521 0.178899 0.176084 0.735683 0.215906 0.330245 8.34516e-07 2
0.0958757 0.177738 0.177082 0.735683 0.215906 0.330245 1.84919e-06 2
0.0827625 0.179048 0.176272 0.735683 0.215906 0.330245 2.2096e-06 2
0.0914577 0.186421 0.167599 0.735683 0.215906 0.330245 5.01252e-06 2
0.0864473 0.188775 0.167951 0.735683 0.215906 0.330245 5.44591e-06 2
0.0830834 0.176771 0.175229 0.735683 0.215906 0.330245 3.31439e-06 2
0.0838237 0.179156 0.173111 0.735683 0.215906 0.330245 4.2757e-06 2
0.0864566 0.183188 0.174278 0.735683 0.215906 0.330245 3.63677e-06 2
0.0899932 0.183719 0.173937 0.735683 0.215906 0.330245 3.64389e-06 2
0.0873574 0.177714 0.172821 0.735683 0.215906 0.330245 5.75342e-06 2
0.0890629 0.181014 0.169773 0.735683 0.215906 0.330245 2.46121e-06 2
0.0907565 0.180571 0.172796 0.735683 0.215906 0.330245 3.57945e-06 2
0.0921637 0.201729 0.177637 0.735683 0.215906 0.330245 1.97682e-06 2
0.0927611 0.199523 0.177099 0.735683 0.215906 0.330245 9.88412e-07 2
0.0831303 0.191662 0.1812 0.735683 0.215906 0.330245 8.74353e-06 2
0.102861 0.117956 0.181551 0.978422 0.557937 0.034931 8.54362e-07 3
0.112948 0.116198 0.182024 0.978422 0.557937 0.034931 4.56554e-06 3
0.109576 0.105364 0.183325 0.978422 0.557937 0.034931 5.13519e-06 3
0.108995 0.118917 0.188335 0.978422 0.557937 0.034931 4.72335e-06 3
0.0995384 0.114848 0.17742 0.978422 0.557937 0.034931 5.20363e-07 3
0.111386 0.109512 0.186181 0.978422 0.557937 0.034931 3.32907e-06 3
0.107512 0.115587 0.17891 0.978422 0.557937 0.034931 3.1451e-06 3
0.103447 0.11133 0.185874 0.978422 0.557937 0.034931 3.89257e-06 3
0.101165 0.124937 0.180294 0.978422 0.557937 0.034931 2.78957e-07 3
0.111862 0.119775 0.184739 0.978422 0.557937 0.034931 3.51092e-06 3
0.103999 0.11647 0.179798 0.978422 0.557937 0.034931 1.09963e-06 3
0.106846 0.120932 0.180915 0.978422 0.557937 0.034931 1.92344e-06 3
0.104831 0.115259 0.188224 0.978422 0.557937 0.034931 6.87756e-06 3
0.111013 0.0954377 0.184829 0.978422 0.557937 0.034931 7.07696e-06 3
0.110271 0.108439 0.181947 0.978422 0.557937 0.034931 3.78108e-06 3
0.100018 0.0957905 0.179077 0.978422 0.557937 0.034931 1.27339e-06 3
0.107519 0.106892 0.188736 0.978422 0.557937 0.034931 7.20196e-06 3
0.10367 0.118201 0.180248 0.978422 0.557937 0.034931 5.33697e-07 3
0.10779 0.10833 0.18617 0.978422 0.557937 0.034931 2.93573e-06 3
0.111208 0.11617 0.185997 0.978422 0.557937 0.034931 3.84472e-06 3
0.106156 0.120986 0.186805 0.978422 0.557937 0.034931 5.79439e-06 3
0.108781 0.122186 0.18365 0.978422 0.557937 0.034931 4.80788e-06 3
0.10842 0.102262 0.182585 0.978422 0.557937 0.034931 3.69283e-06 3
0.11014 0.118528 0.180483 0.978422 0.557937 0.034931 9.16077e-06 3
0.103269 0.111238 0.181332 0.978422 0.557937 0.034931 2.25528e-06 3
0.105288 0.12065 0.183378 0.978422 0.557937 0.034931 3.52882e-06 3
0.107627 0.112217 0.178918 0.978422 0.557937 0.034931 3.277e-06 3
0.106381 0.105736 0.182585 0.978422 0.557937 0.034931 3.25387e-06 3
0.105477 0.105595 0.184108 0.978422 0.557937 0.034931 4.541e-06 3
0.102352 0.113274 0.182704 0.978422 0.557937 0.034931 7.75515e-07 3
0.110379 0.111538 0.180456 0.978422 0.557937 0.034931 2.05673e-06 3
0.112269 0.106405 0.184859 0.978422 0.557937 0.034931 3.63571e-06 3
0.104115 0.113099 0.179806 0.978422 0.557937 0.034931 1.14575e-06 3
0.10628 0.110349 0.187329 0.978422 0.557937 0.034931 1.54113e-06 3
0.107771 0.0939626 0.189196 0.978422 0.557937 0.034931 8.15061e-06 3
0.100131 0.110453 0.181359 0.978422 0.557937 0.034931 1.90495e-06 3
0.100443 0.119758 0.181367 0.978422 0.557937 0.034931 3.52359e-07 3
0.0996766 0.123189 0.181626 0.978422 0.557937 0.034931 1.64694e-07 3
0.0995108 0.0973283 0.179835 0.978422 0.557937 0.034931 2.34245e-06 3
0.100447 0.113161 0.178809 0.978422 0.557937 0.034931 1.71259e-06 3
0.104352 0.125288 0.181787 0.978422 0.557937 0.034931 2.46681e-06 3
0.10012 0.122041 0.181687 0.978422 0.557937 0.034931 2.77373e-07 3
0.103599 0.123441 0.183094 0.978422 0.557937 0.034931 1.45639e-06 3
0.0996225 0.117295 0.182379 0.978422 0.557937 0.034931 2.24886e-07 3
0.100459 0.118321 0.178682 0.978422 0.557937 0.034931 2.05824e-06 3
0.105103 0.09909 0.190619 0.978422 0.557937 0.034931 1.17387e-05 3
0.105865 0.12657 0.188985 0.978422 0.557937 0.034931 4.66033e-06 3
0.107383 0.0947897 0.18492 0.978422 0.557937 0.034931 8.13015e-06 3
0.104467 0.123777 0.186521 0.978422 0.557937 0.034931 2.37117e-06 3
0.107852 0.125735 0.182134 0.978422 0.557937 0.034931 2.8188e-06 3
0.105917 0.124481 0.179399 0.978422 0.557937 0.034931 1.14723e-06 3
0.10349 0.113677 0.191144 0.978422 0.557937 0.034931 5.34265e-06 3
0.104626 0.0915656 0.183676 0.978422 0.557937 0.034931 6.38671e-06 3
0.104901 0.0983971 0.182682 0.978422 0.557937 0.034931 3.19899e-06 3
0.10853 0.0990451 0.182591 0.978422 0.557937 0.034931 3.33232e-06 3
0.0994231 0.10563 0.179693 0.978422 0.557937 0.034931 3.49673e-06 3
0.114641 0.122363 0.175917 0.978422 0.557937 0.034931 5.48217e-07 3
0.0974486 0.0917606 0.177454 0.978422 0.557937 0.034931 3.9303e-06 3
0.11198 0.12054 0.177453 0.978422 0.557937 0.034931 1.10675e-05 3
0.112418 0.108063 0.180455 0.978422 0.557937 0.034931 5.95987e-06 3
0.109537 0.111863 0.175912 0.978422 0.557937 0.034931 3.29668e-06 3
0.104772 0.103137 0.187505 0.978422 0.557937 0.034931 5.95745e-06 3
0.103887 0.101473 0.184198 0.978422 0.557937 0.034931 3.19899e-06 3
0.111464 0.12964 0.179007 0.978422 0.557937 0.034931 7.78147e-06 3
0.103419 0.118398 0.185449 0.978422 0.557937 0.034931 1.99597e-06 3
0.102332 0.116541 0.182478 0.978422 0.557937 0.034931 3.87758e-07 3
0.107664 0.114278 0.189678 0.978422 0.557937 0.034931 5.29971e-06 3
0.103479 0.107629 0.181195 0.978422 0.557937 0.034931 1.80117e-06 3
0.107827 0.095011 0.170635 0.978422 0.557937 0.034931 4.61323e-06 3
0.113233 0.0908146 0.1789 0.978422 0.557937 0.034931 6.71835e-06 3
0.109488 0.0997437 0.17671 0.978422 0.557937 0.034931 4.50644e-06 3
0.111936 0.0918047 0.183387 0.978422 0.557937 0.034931 8.39774e-06 3
0.112573 0.102588 0.177444 0.978422 0.557937 0.034931 2.38509e-06 3
0.109085 0.111844 0.174112 0.978422 0.557937 0.034931 8.12188e-07 3
0.111226 0.115194 0.17198 0.978422 0.557937 0.034931 1.12032e-06 3
0.102305 0.0775531 0.179105 0.978422 0.557937 0.034931 5.30687e-06 3
0.113228 0.0905006 0.175952 0.978422 0.557937 0.034931 6.79458e-06 3
0.112505 0.094072 0.173805 0.978422 0.557937 0.034931 9.95992e-06 3
0.11232 0.0990225 0.173803 0.978422 0.557937 0.034931 3.57516e-06 3
0.109508 0.105644 0.168241 0.978422 0.557937 0.034931 7.45063e-06 3
0.106465 0.1021 0.176695 0.978422 0.557937 0.034931 1.91066e-06 3
0.100145 0.112919 0.176519 0.978422 0.557937 0.034931 3.25617e-06 3
0.112136 0.115298 0.174387 0.978422 0.557937 0.034931 4.54207e-06 3
0.105508 0.112463 0.174224 0.978422 0.557937 0.034931 3.67771e-06 3
0.11137 0.117601 0.172241 0.978422 0.557937 0.034931 2.38319e-06 3
0.101638 0.120515 0.17516 0.978422 0.557937 0.034931 7.22197e-07 3
0.104713 0.0907703 0.171032 0.978422 0.557937 0.034931 8.56037e-06 3
