ply
format ascii 1.0
comment Created by Open3D
element vertex 680
property float32 x
property float32 y
property float32 z
property float32 red
property float32 green
property float32 blue
property float32 volume
property uint8 segmentation
end_header
0.125915 0.0358888 -0.0211655 0.001462 0.000466 0.013866 2.94664e-07 0
0.124434 0.0289426 -0.00948555 0.001462 0.000466 0.013866 2.76293e-05 0
0.129848 0.0360455 -0.0214887 0.001462 0.000466 0.013866 7.57036e-06 0
0.137161 0.0320727 -0.0253718 0.001462 0.000466 0.013866 8.02871e-06 0
0.127491 0.0309596 -0.0158305 0.001462 0.000466 0.013866 6.63892e-06 0
0.128326 0.0363487 -0.0182564 0.001462 0.000466 0.013866 8.86632e-07 0
0.128633 0.0333672 -0.0189363 0.001462 0.000466 0.013866 5.87441e-06 0
0.127028 0.0279735 -0.017363 0.001462 0.000466 0.013866 6.15374e-06 0
0.12518 0.03614 -0.0176396 0.001462 0.000466 0.013866 5.88312e-08 0
0.132329 0.0261537 -0.0239758 0.001462 0.000466 0.013866 1.93206e-06 0
0.121771 0.0312178 -0.0159399 0.001462 0.000466 0.013866 1.98305e-07 0
0.128142 0.035449 -0.0184374 0.001462 0.000466 0.013866 2.86536e-06 0
0.11943 0.0256067 -0.0132834 0.001462 0.000466 0.013866 3.4247e-06 0
0.131438 0.0308555 -0.0172795 0.001462 0.000466 0.013866 3.43771e-05 0
0.135378 0.0346905 -0.0249603 0.001462 0.000466 0.013866 3.91906e-06 0
0.127582 0.0369741 -0.0219848 0.001462 0.000466 0.013866 1.82444e-06 0
0.123137 0.0315575 -0.0179407 0.001462 0.000466 0.013866 1.44652e-07 0
0.12452 0.0282688 -0.0136877 0.001462 0.000466 0.013866 5.66745e-06 0
0.123176 0.0352718 -0.016497 0.001462 0.000466 0.013866 6.94538e-08 0
0.123686 0.0346097 -0.017972 0.001462 0.000466 0.013866 9.20658e-08 0
0.124224 0.0334229 -0.0167763 0.001462 0.000466 0.013866 1.89787e-06 0
0.130096 0.0261719 -0.0227156 0.001462 0.000466 0.013866 3.61767e-06 0
0.12972 0.0282319 -0.0135637 0.001462 0.000466 0.013866 1.16043e-05 0
0.126453 0.0306951 -0.0145094 0.001462 0.000466 0.013866 7.23159e-06 0
0.13166 0.0282795 -0.0217934 0.001462 0.000466 0.013866 9.48673e-06 0
0.120924 0.0275294 -0.0134587 0.001462 0.000466 0.013866 1.37037e-06 0
0.133894 0.0282614 -0.0230535 0.001462 0.000466 0.013866 4.68276e-06 0
0.122061 0.0298052 -0.0156114 0.001462 0.000466 0.013866 3.18281e-07 0
0.128182 0.0349602 -0.0206693 0.001462 0.000466 0.013866 1.36922e-06 0
0.127392 0.0234171 -0.0167198 0.001462 0.000466 0.013866 8.07497e-07 0
0.125288 0.0313864 -0.0208535 0.001462 0.000466 0.013866 5.57239e-07 0
0.125394 0.0249875 -0.0163481 0.001462 0.000466 0.013866 2.38501e-06 0
0.1212 0.0303877 -0.0154756 0.001462 0.000466 0.013866 2.87523e-07 0
0.123287 0.0254209 -0.0129653 0.001462 0.000466 0.013866 6.49291e-06 0
0.13651 0.0296746 -0.0249346 0.001462 0.000466 0.013866 2.13679e-06 0
0.135098 0.0267676 -0.0203986 0.001462 0.000466 0.013866 1.08501e-05 0
0.13312 0.0345751 -0.025713 0.001462 0.000466 0.013866 2.03512e-06 0
0.126173 0.0325487 -0.0133776 0.001462 0.000466 0.013866 9.92747e-06 0
0.124169 0.0301018 -0.0191408 0.001462 0.000466 0.013866 2.89305e-07 0
0.124639 0.035514 -0.0169383 0.001462 0.000466 0.013866 1.04281e-06 0
0.128292 0.0306468 -0.0166627 0.001462 0.000466 0.013866 5.87681e-06 0
0.122595 0.0309265 -0.0174136 0.001462 0.000466 0.013866 2.19752e-07 0
0.128488 0.0319787 -0.0213492 0.001462 0.000466 0.013866 7.85535e-06 0
0.125167 0.0271696 -0.0146972 0.001462 0.000466 0.013866 3.32217e-06 0
0.127692 0.0260022 -0.0177047 0.001462 0.000466 0.013866 2.03677e-06 0
0.12149 0.0289751 -0.0151471 0.001462 0.000466 0.013866 7.59842e-07 0
0.124263 0.0309747 -0.0130683 0.001462 0.000466 0.013866 3.42605e-06 0
0.132734 0.0244609 -0.0235724 0.001462 0.000466 0.013866 1.96245e-06 0
0.135163 0.024146 -0.0218364 0.001462 0.000466 0.013866 4.32001e-06 0
0.129217 0.0290269 -0.0240566 0.001462 0.000466 0.013866 2.15299e-06 0
0.130781 0.0311346 -0.0231344 0.001462 0.000466 0.013866 7.269e-06 0
0.138932 0.0355617 -0.00732874 0.001462 0.000466 0.013866 6.7635e-06 0
0.127997 0.0340604 -0.0208504 0.001462 0.000466 0.013866 2.89825e-06 0
0.128203 0.0259896 -0.00525137 0.001462 0.000466 0.013866 2.77391e-05 0
0.127711 0.0297221 -0.000947051 0.001462 0.000466 0.013866 8.05404e-06 0
0.140411 0.0263904 -0.0244664 0.001462 0.000466 0.013866 6.53549e-07 0
0.137341 0.0273155 -0.0201731 0.001462 0.000466 0.013866 5.08499e-06 0
0.139201 0.0249816 -0.010198 0.001462 0.000466 0.013866 2.25098e-06 0
0.132172 0.0266119 -0.0183514 0.001462 0.000466 0.013866 1.15607e-05 0
0.128737 0.0215566 -0.00444936 0.001462 0.000466 0.013866 2.58344e-06 0
0.138152 0.0285971 -0.0163303 0.001462 0.000466 0.013866 6.73268e-06 0
0.138534 0.0286722 -0.0264739 0.001462 0.000466 0.013866 1.7268e-07 0
0.125768 0.0247368 -0.0115541 0.001462 0.000466 0.013866 6.24948e-06 0
0.130017 0.023763 -0.0129384 0.001462 0.000466 0.013866 2.68046e-06 0
0.140479 0.029194 -0.0192713 0.001462 0.000466 0.013866 6.58203e-06 0
0.129538 0.0217838 -0.00731988 0.001462 0.000466 0.013866 7.3646e-07 0
0.138491 0.0258922 -0.0252366 0.001462 0.000466 0.013866 8.93227e-07 0
0.127403 0.0257624 -0.00238085 0.001462 0.000466 0.013866 2.37899e-05 0
0.126959 0.024231 -0.0137396 0.001462 0.000466 0.013866 1.13897e-06 0
0.124773 0.0259696 -0.00703099 0.001462 0.000466 0.013866 3.05277e-05 0
0.126312 0.0253303 -0.01273 0.001462 0.000466 0.013866 9.22924e-07 0
0.135099 0.0257783 -0.0169926 0.001462 0.000466 0.013866 7.01028e-06 0
0.141777 0.0256171 -0.0100069 0.001462 0.000466 0.013866 4.90203e-06 0
0.132541 0.0312953 -0.0110392 0.001462 0.000466 0.013866 1.21698e-05 0
0.125931 0.0227513 -0.0143464 0.001462 0.000466 0.013866 2.24987e-06 0
0.138462 0.0276147 -0.0216544 0.001462 0.000466 0.013866 6.09277e-06 0
0.128452 0.0245194 -0.015547 0.001462 0.000466 0.013866 5.92574e-06 0
0.126107 0.0217638 -0.0090995 0.001462 0.000466 0.013866 2.94797e-06 0
0.13045 0.0229491 -0.0159186 0.001462 0.000466 0.013866 3.79587e-06 0
0.139357 0.0288949 -0.01779 0.001462 0.000466 0.013866 5.50991e-06 0
0.12969 0.0244319 -0.0180764 0.001462 0.000466 0.013866 1.00304e-06 0
0.138727 0.0252021 -0.0239386 0.001462 0.000466 0.013866 1.77856e-06 0
0.138015 0.0248691 -0.0224194 0.001462 0.000466 0.013866 2.66559e-06 0
0.135962 0.024345 -0.0195848 0.001462 0.000466 0.013866 2.16244e-06 0
0.131333 0.0309268 -0.00619095 0.001462 0.000466 0.013866 2.64162e-05 0
0.140178 0.0273003 -0.0129062 0.001462 0.000466 0.013866 6.39452e-06 0
0.138835 0.02848 -0.023761 0.001462 0.000466 0.013866 6.531e-06 0
0.140882 0.0289722 -0.0097425 0.001462 0.000466 0.013866 1.37339e-05 0
0.142754 0.0279358 -0.0127151 0.001462 0.000466 0.013866 7.57085e-06 0
0.141593 0.0268099 -0.0153254 0.001462 0.000466 0.013866 4.93122e-06 0
0.13571 0.0291476 -0.00804913 0.001462 0.000466 0.013866 1.23335e-05 0
0.133706 0.0285755 -0.000333164 0.001462 0.000466 0.013866 1.29835e-05 0
0.141953 0.0302801 0.00483514 0.001462 0.000466 0.013866 8.62192e-06 0
0.140255 0.0328645 0.00333304 0.001462 0.000466 0.013866 7.63804e-06 0
0.136963 0.0250138 -0.00757473 0.001462 0.000466 0.013866 3.27039e-06 0
0.137481 0.0335314 0.00271408 0.001462 0.000466 0.013866 1.97151e-05 0
0.136791 0.0249083 -0.00542028 0.001462 0.000466 0.013866 4.13792e-06 0
0.136341 0.032777 -0.00569574 0.001462 0.000466 0.013866 5.52392e-06 0
0.139905 0.0266535 -0.00703431 0.001462 0.000466 0.013866 5.80107e-06 0
0.136384 0.0282877 -0.00475216 0.001462 0.000466 0.013866 8.65311e-06 0
0.136459 0.0248019 0.000678404 0.001462 0.000466 0.013866 1.12704e-05 0
0.134773 0.0308257 -0.005918 0.001462 0.000466 0.013866 5.51921e-06 0
0.135714 0.0326482 -0.00146036 0.001462 0.000466 0.013866 9.96046e-06 0
0.138874 0.0254952 -0.00111691 0.001462 0.000466 0.013866 8.29283e-06 0
0.138302 0.0319323 -0.00968213 0.001462 0.000466 0.013866 3.87525e-05 0
0.121076 0.0353225 -0.00914918 0.001462 0.000466 0.013866 2.07745e-06 0
0.135447 0.0359914 0.00494952 0.001462 0.000466 0.013866 7.81522e-06 0
0.133885 0.0400679 0.00409541 0.001462 0.000466 0.013866 6.09332e-07 0
0.134631 0.0392476 0.000647529 0.001462 0.000466 0.013866 1.80971e-06 0
0.132134 0.0391811 -0.00373188 0.001462 0.000466 0.013866 5.24513e-06 0
0.133944 0.0400655 0.00235347 0.001462 0.000466 0.013866 1.08396e-06 0
0.125431 0.0380791 0.00380371 0.001462 0.000466 0.013866 1.83062e-06 0
0.127436 0.0387185 0.000189988 0.001462 0.000466 0.013866 1.07384e-06 0
0.128511 0.0344687 -0.00155743 0.001462 0.000466 0.013866 2.21406e-05 0
0.132177 0.0346918 -0.0027883 0.001462 0.000466 0.013866 1.02553e-05 0
0.13254 0.0347722 -0.00444763 0.001462 0.000466 0.013866 1.91589e-05 0
0.130074 0.0348826 0.000264003 0.001462 0.000466 0.013866 1.2445e-05 0
0.13374 0.0351057 -0.000966862 0.001462 0.000466 0.013866 5.53774e-06 0
0.136605 0.03679 0.000154029 0.3415 0.062325 0.429425 6.62744e-06 1
0.153258 0.0371904 0.00776268 0.3415 0.062325 0.429425 3.80609e-06 1
0.153484 0.040896 0.00990434 0.3415 0.062325 0.429425 8.8747e-06 1
0.142944 0.0412162 0.00941624 0.3415 0.062325 0.429425 1.43934e-07 1
0.13751 0.039333 0.00561671 0.3415 0.062325 0.429425 1.7194e-06 1
0.14925 0.039039 0.00705991 0.3415 0.062325 0.429425 1.96753e-07 1
0.141448 0.0414525 0.0104918 0.3415 0.062325 0.429425 1.60994e-06 1
0.144316 0.0357341 0.0114439 0.3415 0.062325 0.429425 2.73502e-06 1
0.151437 0.034682 0.00842005 0.3415 0.062325 0.429425 3.93712e-06 1
0.151307 0.0431589 0.0135555 0.3415 0.062325 0.429425 5.92769e-06 1
0.147951 0.0341051 0.00953398 0.3415 0.062325 0.429425 7.87424e-06 1
0.138958 0.0323957 0.0109822 0.3415 0.062325 0.429425 8.27854e-06 1
0.139379 0.0361231 0.000772985 0.3415 0.062325 0.429425 1.46783e-06 1
0.15044 0.0305228 0.0121624 0.3415 0.062325 0.429425 7.2069e-06 1
0.149212 0.0360002 0.00902928 0.3415 0.062325 0.429425 3.93712e-06 1
0.133404 0.0315295 0.00657035 0.3415 0.062325 0.429425 1.40157e-05 1
0.151569 0.0311395 0.0109073 0.3415 0.062325 0.429425 1.4146e-06 1
0.137475 0.0357554 0.00712205 0.3415 0.062325 0.429425 7.1263e-06 1
0.147804 0.0395796 0.00790722 0.3415 0.062325 0.429425 7.80833e-07 1
0.135585 0.0408338 0.0064368 0.3415 0.062325 0.429425 3.20937e-07 1
0.136763 0.0397639 0.00717029 0.3415 0.062325 0.429425 8.60013e-07 1
0.152208 0.0424349 0.011086 0.3415 0.062325 0.429425 3.8788e-06 1
0.135926 0.0403028 0.00515521 0.3415 0.062325 0.429425 7.06055e-07 1
0.137345 0.0356576 0.00903973 0.3415 0.062325 0.429425 4.81149e-06 1
0.14075 0.0399839 0.00905255 0.3415 0.062325 0.429425 2.14166e-06 1
0.138222 0.0353245 0.00556848 0.3415 0.062325 0.429425 6.84625e-06 1
0.148152 0.038446 0.00966317 0.3415 0.062325 0.429425 1.18009e-06 1
0.150943 0.0384756 0.00856168 0.3415 0.062325 0.429425 7.00411e-07 1
0.138047 0.0313145 0.0106247 0.3415 0.062325 0.429425 1.15856e-05 1
0.135027 0.0319599 0.00877431 0.3415 0.062325 0.429425 1.51719e-05 1
0.155039 0.0323758 0.00982161 0.3415 0.062325 0.429425 1.13458e-05 1
0.155925 0.0349441 0.0087238 0.3415 0.062325 0.429425 9.15824e-06 1
0.149498 0.0390163 0.009409 0.3415 0.062325 0.429425 4.68178e-06 1
0.152379 0.0390789 0.00811773 0.3415 0.062325 0.429425 1.92728e-06 1
0.141909 0.0385055 0.0121986 0.3415 0.062325 0.429425 8.19142e-06 1
0.151822 0.036587 0.00820663 0.3415 0.062325 0.429425 2.4063e-06 1
0.140236 0.0351723 0.0121826 0.3415 0.062325 0.429425 1.92157e-05 1
0.151986 0.032717 0.00907391 0.3415 0.062325 0.429425 4.38152e-06 1
0.150409 0.028462 0.0110098 0.3415 0.062325 0.429425 9.54616e-07 1
0.1463 0.034936 0.0127754 0.3415 0.062325 0.429425 2.02419e-05 1
0.143891 0.0363108 0.00785697 0.3415 0.062325 0.429425 1.27231e-06 1
0.143278 0.0352054 0.0108938 0.3415 0.062325 0.429425 9.4742e-06 1
0.138762 0.0346969 0.0266445 0.3415 0.062325 0.429425 1.45228e-05 1
0.134686 0.0338218 0.0235618 0.3415 0.062325 0.429425 1.0703e-05 1
0.135797 0.0303977 0.0207415 0.3415 0.062325 0.429425 1.95498e-05 1
0.143803 0.0367192 0.0267133 0.3415 0.062325 0.429425 1.22638e-05 1
0.12871 0.0328869 0.0182089 0.3415 0.062325 0.429425 7.16614e-06 1
0.13564 0.0253497 0.0236694 0.3415 0.062325 0.429425 1.95421e-06 1
0.131879 0.0311009 0.0176488 0.3415 0.062325 0.429425 1.50712e-05 1
0.145681 0.0365154 0.0291603 0.3415 0.062325 0.429425 4.10623e-06 1
0.13123 0.0277191 0.0152734 0.3415 0.062325 0.429425 7.59854e-06 1
0.137615 0.0252364 0.0213428 0.3415 0.062325 0.429425 2.57754e-06 1
0.127355 0.0257166 0.0160272 0.3415 0.062325 0.429425 8.10723e-07 1
0.134559 0.0373678 0.0221391 0.3415 0.062325 0.429425 4.18912e-06 1
0.132174 0.0284023 0.0204946 0.3415 0.062325 0.429425 9.35013e-06 1
0.134834 0.0250681 0.0209458 0.3415 0.062325 0.429425 1.49955e-06 1
0.129254 0.0298397 0.0157844 0.3415 0.062325 0.429425 1.05855e-05 1
0.129006 0.0301883 0.0210546 0.3415 0.062325 0.429425 7.05674e-07 1
0.128709 0.024548 0.0176387 0.3415 0.062325 0.429425 1.66967e-07 1
0.13391 0.0359044 0.0226871 0.3415 0.062325 0.429425 5.23451e-06 1
0.135501 0.0330962 0.0178957 0.3415 0.062325 0.429425 3.37177e-05 1
0.139056 0.0378196 0.0259868 0.3415 0.062325 0.429425 1.0429e-05 1
0.138735 0.0294781 0.0239319 0.3415 0.062325 0.429425 1.10344e-05 1
0.13676 0.0384971 0.0232535 0.3415 0.062325 0.429425 1.10764e-05 1
0.136809 0.0326911 0.0252372 0.3415 0.062325 0.429425 1.04744e-05 1
0.143087 0.029591 0.0265846 0.3415 0.062325 0.429425 6.64207e-06 1
0.147828 0.0292555 0.0238035 0.3415 0.062325 0.429425 5.81618e-07 1
0.136799 0.0250254 0.0198278 0.3415 0.062325 0.429425 2.92093e-06 1
0.150692 0.0317374 0.0287022 0.3415 0.062325 0.429425 1.74496e-07 1
0.146318 0.031167 0.0268266 0.3415 0.062325 0.429425 1.23292e-06 1
0.140868 0.0295299 0.0264176 0.3415 0.062325 0.429425 5.84745e-06 1
0.1479 0.0300176 0.0290432 0.3415 0.062325 0.429425 1.05516e-07 1
0.153454 0.0305947 0.0269093 0.3415 0.062325 0.429425 1.718e-06 1
0.146663 0.0275149 0.0270271 0.3415 0.062325 0.429425 3.98672e-07 1
0.144984 0.0290371 0.0252128 0.3415 0.062325 0.429425 1.05883e-05 1
0.157646 0.0317681 0.0146531 0.3415 0.062325 0.429425 2.12926e-05 1
0.15173 0.0309784 0.0282368 0.3415 0.062325 0.429425 5.99907e-07 1
0.148484 0.0308643 0.0111383 0.3415 0.062325 0.429425 5.90327e-06 1
0.151134 0.0277225 0.0246926 0.3415 0.062325 0.429425 4.74758e-07 1
0.148452 0.0288034 0.00998578 0.3415 0.062325 0.429425 1.37128e-06 1
0.150408 0.0293581 0.0160356 0.3415 0.062325 0.429425 8.92965e-06 1
0.143601 0.0276811 0.0226539 0.3415 0.062325 0.429425 8.3359e-06 1
0.152784 0.0316262 0.0222101 0.3415 0.062325 0.429425 1.48938e-05 1
0.152156 0.0295619 0.0255595 0.3415 0.062325 0.429425 2.94127e-06 1
0.142657 0.0257709 0.0141834 0.3415 0.062325 0.429425 2.02793e-06 1
0.137736 0.0253469 0.0233972 0.3415 0.062325 0.429425 3.62329e-06 1
0.158645 0.0296929 0.0170774 0.3415 0.062325 0.429425 4.04708e-06 1
0.138264 0.026983 0.0254551 0.3415 0.062325 0.429425 2.18501e-06 1
0.152568 0.0299605 0.0183573 0.3415 0.062325 0.429425 1.37657e-05 1
0.142803 0.0258464 0.0115202 0.3415 0.062325 0.429425 5.28236e-06 1
0.142959 0.0331346 0.0279003 0.3415 0.062325 0.429425 8.05828e-06 1
0.139438 0.0281748 0.0212356 0.3415 0.062325 0.429425 6.84645e-06 1
0.147987 0.0311484 0.0178483 0.3415 0.062325 0.429425 1.76829e-05 1
0.139383 0.031819 0.0145691 0.3415 0.062325 0.429425 3.64738e-05 1
0.141511 0.0279063 0.0156159 0.3415 0.062325 0.429425 7.52467e-06 1
0.138622 0.0279637 0.0197206 0.3415 0.062325 0.429425 8.20492e-06 1
0.143935 0.0285475 0.0153837 0.3415 0.062325 0.429425 1.17556e-05 1
0.145677 0.0282827 0.0235124 0.3415 0.062325 0.429425 3.73415e-06 1
0.140689 0.0283745 0.0241873 0.3415 0.062325 0.429425 4.30074e-06 1
0.149478 0.0331593 0.021321 0.3415 0.062325 0.429425 2.4025e-05 1
0.154622 0.0307984 0.011655 0.3415 0.062325 0.429425 6.89783e-06 1
0.140868 0.0326393 0.0275695 0.3415 0.062325 0.429425 7.62112e-06 1
0.147135 0.03001 0.0255039 0.3415 0.062325 0.429425 2.02676e-06 1
0.156248 0.031407 0.018036 0.3415 0.062325 0.429425 1.90602e-05 1
0.146833 0.0316951 0.0143798 0.3415 0.062325 0.429425 1.56202e-05 1
0.146975 0.0312588 0.026711 0.3415 0.062325 0.429425 1.14643e-06 1
0.148055 0.031862 0.0266621 0.3415 0.062325 0.429425 1.44991e-06 1
0.14885 0.031095 0.0246703 0.3415 0.062325 0.429425 6.67838e-06 1
0.143008 0.0274308 0.0185352 0.3415 0.062325 0.429425 5.21007e-06 1
0.145218 0.0280407 0.0196981 0.3415 0.062325 0.429425 1.36073e-05 1
0.144356 0.0312791 0.0275573 0.3415 0.062325 0.429425 2.14792e-06 1
0.157545 0.0426339 0.0181162 0.3415 0.062325 0.429425 1.48293e-05 1
0.151142 0.0430641 0.0160539 0.3415 0.062325 0.429425 5.58205e-06 1
0.153083 0.0434664 0.0177107 0.3415 0.062325 0.429425 5.49927e-06 1
0.144025 0.0410736 0.027894 0.3415 0.062325 0.429425 6.56783e-07 1
0.147324 0.0399672 0.017226 0.3415 0.062325 0.429425 6.88119e-06 1
0.14958 0.0376485 0.0205838 0.3415 0.062325 0.429425 2.69976e-05 1
0.148401 0.043396 0.0249156 0.3415 0.062325 0.429425 2.18292e-06 1
0.142005 0.0393466 0.0257248 0.3415 0.062325 0.429425 9.16667e-06 1
0.14956 0.0437152 0.0234523 0.3415 0.062325 0.429425 1.22793e-06 1
0.153725 0.0407686 0.0265713 0.3415 0.062325 0.429425 4.12561e-06 1
0.157484 0.0455253 0.019588 0.3415 0.062325 0.429425 2.78873e-06 1
0.150076 0.0410623 0.0242841 0.3415 0.062325 0.429425 5.95895e-06 1
0.154048 0.0445212 0.0224944 0.3415 0.062325 0.429425 2.83135e-06 1
0.149017 0.0419417 0.0120187 0.3415 0.062325 0.429425 5.4333e-06 1
0.144386 0.0433216 0.0150814 0.3415 0.062325 0.429425 7.21094e-07 1
0.153425 0.0415354 0.0242968 0.3415 0.062325 0.429425 9.08214e-06 1
0.147964 0.0417218 0.00864496 0.3415 0.062325 0.429425 9.33559e-08 1
0.154233 0.0425348 0.019751 0.3415 0.062325 0.429425 6.12389e-06 1
0.135614 0.0408537 0.0076999 0.3415 0.062325 0.429425 1.7866e-07 1
0.137299 0.0412999 0.00966348 0.3415 0.062325 0.429425 3.15251e-07 1
0.149044 0.0424609 0.0171207 0.3415 0.062325 0.429425 3.75823e-06 1
0.151414 0.0413618 0.0254964 0.3415 0.062325 0.429425 2.24914e-06 1
0.15361 0.039549 0.0215533 0.3415 0.062325 0.429425 2.22311e-05 1
0.15313 0.0435912 0.0133063 0.3415 0.062325 0.429425 2.87595e-06 1
0.147405 0.0413985 0.0124748 0.3415 0.062325 0.429425 1.5806e-06 1
0.155394 0.0428732 0.0187856 0.3415 0.062325 0.429425 3.0031e-06 1
0.145291 0.0414704 0.0166134 0.3415 0.062325 0.429425 4.811e-06 1
0.142607 0.0399741 0.0136378 0.3415 0.062325 0.429425 4.46389e-06 1
0.144103 0.0397378 0.0125623 0.3415 0.062325 0.429425 1.14624e-06 1
0.146087 0.0389396 0.0138938 0.3415 0.062325 0.429425 4.60721e-06 1
0.149658 0.0411585 0.0101467 0.3415 0.062325 0.429425 4.62812e-06 1
0.143068 0.0408626 0.0165005 0.3415 0.062325 0.429425 7.9557e-06 1
0.148056 0.0393353 0.0221149 0.3415 0.062325 0.429425 5.97411e-06 1
0.146427 0.0379997 0.0130047 0.3415 0.062325 0.429425 5.43351e-06 1
0.138867 0.0384724 0.0134873 0.3415 0.062325 0.429425 1.59385e-05 1
0.136886 0.0400388 0.010702 0.3415 0.062325 0.429425 4.43567e-06 1
0.14628 0.0408676 0.0237073 0.3415 0.062325 0.429425 7.09245e-06 1
0.138448 0.0402101 0.00913387 0.3415 0.062325 0.429425 1.51752e-06 1
0.141794 0.0406378 0.0201557 0.3415 0.062325 0.429425 1.45561e-05 1
0.136524 0.0391875 0.0170161 0.3415 0.062325 0.429425 7.87812e-06 1
0.146815 0.0397836 0.0150823 0.3415 0.062325 0.429425 9.77701e-06 1
0.143259 0.0409611 0.0230456 0.3415 0.062325 0.429425 5.77423e-06 1
0.138244 0.0397008 0.0201015 0.3415 0.062325 0.429425 1.57562e-05 1
0.144443 0.0387979 0.0116731 0.3415 0.062325 0.429425 7.76208e-07 1
0.147725 0.0400019 0.0185397 0.3415 0.062325 0.429425 3.24295e-06 1
0.165051 0.042761 0.0151092 0.3415 0.062325 0.429425 8.81407e-06 1
0.161927 0.0407968 0.00667531 0.3415 0.062325 0.429425 1.24564e-05 1
0.164584 0.0472656 0.00960169 0.3415 0.062325 0.429425 5.33709e-06 1
0.169864 0.0370389 0.00735729 0.3415 0.062325 0.429425 1.9355e-06 1
0.168242 0.0467156 0.00880058 0.3415 0.062325 0.429425 4.64596e-06 1
0.167528 0.0361628 0.00959122 0.3415 0.062325 0.429425 4.14283e-06 1
0.15931 0.0338386 0.00640468 0.3415 0.062325 0.429425 6.11667e-06 1
0.164626 0.0332056 0.00722812 0.3415 0.062325 0.429425 4.49557e-06 1
0.15988 0.0360139 0.00449256 0.3415 0.062325 0.429425 2.237e-06 1
0.155436 0.0423308 0.0106614 0.3415 0.062325 0.429425 3.03686e-06 1
0.161746 0.0350548 0.00564491 0.3415 0.062325 0.429425 3.52776e-06 1
0.159182 0.0359221 0.0119285 0.3415 0.062325 0.429425 2.7447e-05 1
0.166729 0.0430519 0.00852612 0.3415 0.062325 0.429425 3.57276e-06 1
0.164731 0.0472046 0.0121189 0.3415 0.062325 0.429425 2.15754e-06 1
0.155642 0.0441969 0.0151773 0.3415 0.062325 0.429425 2.87595e-06 1
0.16976 0.0372253 0.0132543 0.3415 0.062325 0.429425 2.33273e-06 1
0.162834 0.0478019 0.0130053 0.3415 0.062325 0.429425 2.01096e-06 1
0.156987 0.0442692 0.00854681 0.3415 0.062325 0.429425 9.16491e-07 1
0.166474 0.035057 0.0133789 0.3415 0.062325 0.429425 5.64683e-06 1
0.155035 0.0428344 0.00778973 0.3415 0.062325 0.429425 4.86784e-06 1
0.158369 0.0420464 0.0140054 0.3415 0.062325 0.429425 1.2416e-05 1
0.158389 0.0402047 0.0118882 0.3415 0.062325 0.429425 2.80673e-05 1
0.160034 0.0464243 0.00670729 0.3415 0.062325 0.429425 6.87039e-07 1
0.163594 0.0369061 0.0117957 0.3415 0.062325 0.429425 1.73618e-05 1
0.169258 0.0439823 0.0065289 0.3415 0.062325 0.429425 8.49245e-06 1
0.165653 0.0352952 0.00941447 0.3415 0.062325 0.429425 9.23105e-06 1
0.171374 0.0418954 0.00689364 0.3415 0.062325 0.429425 6.10674e-06 1
0.163867 0.0440063 0.00654429 0.3415 0.062325 0.429425 1.26275e-05 1
0.172299 0.0404265 0.0090772 0.3415 0.062325 0.429425 1.32866e-06 1
0.165059 0.042344 0.00884158 0.3415 0.062325 0.429425 4.88154e-06 1
0.162309 0.0467912 0.0150378 0.3415 0.062325 0.429425 2.01096e-06 1
0.162801 0.0411887 0.0117555 0.3415 0.062325 0.429425 1.76053e-05 1
0.159636 0.0452859 0.0189185 0.3415 0.062325 0.429425 2.77794e-06 1
0.169079 0.0403383 0.00582285 0.3415 0.062325 0.429425 7.59613e-06 1
0.163697 0.0444513 0.0107135 0.3415 0.062325 0.429425 2.99959e-06 1
0.161319 0.0343235 0.0160244 0.3415 0.062325 0.429425 1.99368e-05 1
0.157912 0.0439275 0.0164138 0.3415 0.062325 0.429425 8.87936e-07 1
0.169024 0.0446091 0.00959691 0.3415 0.062325 0.429425 5.62012e-06 1
0.170004 0.0388693 0.00800641 0.3415 0.062325 0.429425 5.95819e-06 1
0.169938 0.0340932 0.00629397 0.3415 0.062325 0.429425 2.9451e-06 1
0.160565 0.042904 0.0085472 0.3415 0.062325 0.429425 7.7668e-06 1
0.171491 0.0354778 0.00911521 0.3415 0.062325 0.429425 8.13244e-07 1
0.168103 0.0359744 0.00600669 0.3415 0.062325 0.429425 6.53143e-06 1
0.162773 0.0371443 0.00783126 0.3415 0.062325 0.429425 2.24029e-05 1
0.165053 0.0329819 0.0153573 0.3415 0.062325 0.429425 6.01923e-06 1
0.162505 0.0461135 0.00841618 0.3415 0.062325 0.429425 5.71448e-06 1
0.155696 0.0446925 0.00824711 0.3415 0.062325 0.429425 1.50736e-06 1
0.157648 0.0461273 0.00900419 0.3415 0.062325 0.429425 3.51866e-07 1
0.155677 0.0462352 0.0100501 0.3415 0.062325 0.429425 4.83048e-07 1
0.158172 0.0439867 0.0158163 0.3415 0.062325 0.429425 2.6893e-06 1
0.161473 0.0441262 0.0151088 0.3415 0.062325 0.429425 7.3282e-06 1
0.168052 0.0382487 0.0036365 0.3415 0.062325 0.429425 2.37861e-06 1
0.169565 0.0366211 0.00425474 0.3415 0.062325 0.429425 2.8226e-06 1
0.166501 0.0340733 0.00740487 0.3415 0.062325 0.429425 2.17756e-06 1
0.16973 0.0344132 0.00776461 0.3415 0.062325 0.429425 2.45686e-06 1
0.164205 0.0461939 0.0141514 0.3415 0.062325 0.429425 2.15754e-06 1
0.168128 0.0325122 0.00916279 0.3415 0.062325 0.429425 7.91932e-07 1
0.166963 0.0424251 0.00545811 0.3415 0.062325 0.429425 1.07725e-05 1
0.153724 0.0448004 0.00929306 0.3415 0.062325 0.429425 3.2211e-06 1
0.16525 0.0445927 0.0139315 0.3415 0.062325 0.429425 4.9005e-06 1
0.168939 0.0374635 0.00928984 0.3415 0.062325 0.429425 6.73782e-06 1
0.159869 0.0415578 0.0161077 0.3415 0.062325 0.429425 6.04074e-06 1
0.159777 0.0465552 0.0148175 0.3415 0.062325 0.429425 2.01096e-06 1
0.168349 0.0359247 0.0135557 0.3415 0.062325 0.429425 1.43431e-06 1
0.146903 0.0390493 0.0288335 0.3415 0.062325 0.429425 6.01376e-06 1
0.147375 0.038435 0.0261583 0.3415 0.062325 0.429425 5.69866e-06 1
0.158188 0.0344311 0.0243935 0.3415 0.062325 0.429425 6.52881e-06 1
0.157073 0.0315679 0.0254056 0.3415 0.062325 0.429425 2.60781e-06 1
0.157798 0.0350014 0.025486 0.3415 0.062325 0.429425 5.21305e-07 1
0.149451 0.036136 0.0268405 0.3415 0.062325 0.429425 6.67235e-06 1
0.151929 0.0322969 0.0288695 0.3415 0.062325 0.429425 4.2992e-07 1
0.146152 0.0359011 0.0264851 0.3415 0.062325 0.429425 9.36766e-06 1
0.160758 0.040567 0.0187455 0.3415 0.062325 0.429425 1.80681e-05 1
0.160646 0.037396 0.0194877 0.3415 0.062325 0.429425 1.92414e-05 1
0.148356 0.0385686 0.0243895 0.3415 0.062325 0.429425 8.81077e-06 1
0.155196 0.0355223 0.0225479 0.3415 0.062325 0.429425 1.84604e-05 1
0.157858 0.0350977 0.0208183 0.3415 0.062325 0.429425 2.4376e-05 1
0.14911 0.0328868 0.0264856 0.3415 0.062325 0.429425 4.87689e-06 1
0.147173 0.0325773 0.0273438 0.3415 0.062325 0.429425 3.31506e-06 1
0.132664 0.0267804 0.00543879 0.3415 0.062325 0.429425 3.32223e-05 1
0.131982 0.0241883 0.0173459 0.3415 0.062325 0.429425 5.26547e-07 1
0.135384 0.0290518 0.00242582 0.3415 0.062325 0.429425 4.58913e-05 1
0.133781 0.0232453 0.0177 0.3415 0.062325 0.429425 9.28773e-07 1
0.125374 0.0252946 0.00538353 0.3415 0.062325 0.429425 1.17616e-05 1
0.132743 0.023825 0.0166622 0.3415 0.062325 0.429425 2.52694e-07 1
0.134542 0.0228819 0.0170163 0.3415 0.062325 0.429425 3.65131e-07 1
0.128123 0.0298159 0.0041096 0.3415 0.062325 0.429425 2.07246e-05 1
0.127035 0.025182 0.00397779 0.3415 0.062325 0.429425 9.74178e-06 1
0.141232 0.0285585 0.00936583 0.3415 0.062325 0.429425 9.12046e-06 1
0.132963 0.0242791 0.0183766 0.3415 0.062325 0.429425 2.19766e-06 1
0.128997 0.0236782 0.0157441 0.3415 0.062325 0.429425 3.32952e-07 1
0.129274 0.030136 0.000874383 0.3415 0.062325 0.429425 1.66475e-05 1
0.135599 0.027519 0.012277 0.3415 0.062325 0.429425 2.28786e-05 1
0.133575 0.0269378 0.01432 0.3415 0.062325 0.429425 5.75619e-06 1
0.133636 0.0244642 0.019431 0.3415 0.062325 0.429425 6.43844e-07 1
0.129354 0.0240319 0.0170242 0.3415 0.062325 0.429425 5.75966e-07 1
0.128386 0.0254308 0.0156146 0.3415 0.062325 0.429425 1.89198e-06 1
0.133034 0.0260112 0.0205917 0.3415 0.062325 0.429425 5.34895e-06 1
0.13373 0.0270671 0.00884156 0.3415 0.062325 0.429425 1.469e-05 1
0.132826 0.0281613 0.0160078 0.3415 0.062325 0.429425 7.17833e-06 1
0.12741 0.024843 0.0167117 0.3415 0.062325 0.429425 4.04651e-07 1
0.130056 0.0249183 0.0197476 0.3415 0.062325 0.429425 1.66967e-07 1
0.131683 0.024493 0.0201638 0.3415 0.062325 0.429425 8.34298e-07 1
0.130029 0.0233924 0.0153314 0.3415 0.062325 0.429425 8.01067e-07 1
0.131147 0.0233828 0.0159279 0.3415 0.062325 0.429425 3.84321e-07 1
0.127797 0.0356454 0.016832 0.3415 0.062325 0.429425 6.02368e-06 1
0.126524 0.0333581 0.00973356 0.3415 0.062325 0.429425 1.68738e-05 1
0.129692 0.0387906 0.0173175 0.3415 0.062325 0.429425 1.74764e-06 1
0.129043 0.0373272 0.0178654 0.3415 0.062325 0.429425 3.7455e-06 1
0.121066 0.0314963 0.00794002 0.3415 0.062325 0.429425 1.51351e-05 1
0.119637 0.034681 0.00675597 0.3415 0.062325 0.429425 4.68815e-07 1
0.134011 0.0371647 0.0190379 0.3415 0.062325 0.429425 9.92349e-06 1
0.125193 0.0296616 0.0125448 0.3415 0.062325 0.429425 6.90934e-06 1
0.124023 0.0319973 0.0146226 0.3415 0.062325 0.429425 3.02235e-06 1
0.122984 0.028363 0.0140006 0.3415 0.062325 0.429425 2.26775e-06 1
0.133531 0.0365487 0.021009 0.3415 0.062325 0.429425 1.34989e-06 1
0.128341 0.0325981 0.0144075 0.3415 0.062325 0.429425 1.22679e-05 1
0.124812 0.0371899 0.00792815 0.3415 0.062325 0.429425 3.19011e-06 1
0.126071 0.0331004 0.00683388 0.3415 0.062325 0.429425 2.79227e-05 1
0.13081 0.0378559 0.0194311 0.3415 0.062325 0.429425 4.76796e-07 1
0.121272 0.0294156 0.0137596 0.3415 0.062325 0.429425 5.62357e-06 1
0.129315 0.0348226 0.00814084 0.3415 0.062325 0.429425 1.52741e-05 1
0.129641 0.0303602 0.0104121 0.3415 0.062325 0.429425 1.38002e-05 1
0.134896 0.0318621 0.010692 0.3415 0.062325 0.429425 1.21179e-05 1
0.130198 0.0349938 0.0115522 0.3415 0.062325 0.429425 2.1064e-05 1
0.132753 0.0357971 0.0103907 0.3415 0.062325 0.429425 7.61937e-06 1
0.124738 0.025667 0.0109472 0.3415 0.062325 0.429425 9.62945e-06 1
0.126215 0.0227936 0.0113281 0.3415 0.062325 0.429425 1.1615e-06 1
0.126129 0.0287305 0.0138074 0.3415 0.062325 0.429425 5.16295e-06 1
0.119228 0.0299508 0.0118035 0.3415 0.062325 0.429425 3.63363e-06 1
0.117589 0.0249029 0.0121179 0.3415 0.062325 0.429425 4.00128e-07 1
0.122439 0.0261223 0.0114195 0.3415 0.062325 0.429425 5.42652e-06 1
0.120479 0.0281197 0.0102177 0.3415 0.062325 0.429425 5.29377e-06 1
0.124279 0.0286254 0.00781834 0.3415 0.062325 0.429425 2.18164e-05 1
0.117476 0.0276851 0.0100729 0.3415 0.062325 0.429425 4.08481e-06 1
0.127156 0.0221448 0.010975 0.3415 0.062325 0.429425 2.17526e-07 1
0.127617 0.0229233 0.0128018 0.3415 0.062325 0.429425 5.50253e-08 1
0.126413 0.0263654 0.0163803 0.3415 0.062325 0.429425 9.60449e-07 1
0.126447 0.0252591 0.0148796 0.3415 0.062325 0.429425 2.55051e-07 1
0.127076 0.0248657 0.0136835 0.3415 0.062325 0.429425 1.63226e-06 1
0.128732 0.0240998 0.0131434 0.3415 0.062325 0.429425 1.53659e-06 1
0.127785 0.0279646 0.0132673 0.3415 0.062325 0.429425 5.3572e-06 1
0.118987 0.0229556 0.00821014 0.3415 0.062325 0.429425 2.21754e-06 1
0.119931 0.0277036 0.00589553 0.3415 0.062325 0.429425 1.83009e-06 1
0.118727 0.025854 0.00848712 0.3415 0.062325 0.429425 6.42025e-06 1
0.114805 0.0233728 0.00984053 0.3415 0.062325 0.429425 2.89425e-06 1
0.117729 0.0231003 0.00908625 0.3415 0.062325 0.429425 7.89382e-07 1
0.117717 0.0250539 0.010324 0.3415 0.062325 0.429425 2.43681e-06 1
0.116031 0.0254489 0.0107302 0.3415 0.062325 0.429425 4.20383e-06 1
0.043845 0.0035691 -0.00655113 0.735683 0.215906 0.330245 3.87358e-06 2
0.0473562 0.00503579 -0.00543239 0.735683 0.215906 0.330245 4.74127e-06 2
0.0441087 0.0080873 0.00986213 0.735683 0.215906 0.330245 5.34846e-06 2
0.0468327 0.00841998 -0.00455581 0.735683 0.215906 0.330245 4.4597e-06 2
0.0420121 0.00335567 -0.00237342 0.735683 0.215906 0.330245 7.57636e-06 2
0.0405062 0.00310438 -0.00386402 0.735683 0.215906 0.330245 1.10383e-05 2
0.0390882 0.00193408 0.00989866 0.735683 0.215906 0.330245 3.37981e-06 2
0.0427639 0.00195365 -0.00895595 0.735683 0.215906 0.330245 1.28543e-06 2
0.0368308 0.00354184 0.00569907 0.735683 0.215906 0.330245 1.5777e-05 2
0.0424004 0.00709694 0.0015253 0.735683 0.215906 0.330245 1.93241e-05 2
0.0434542 0.00741772 -0.00293011 0.735683 0.215906 0.330245 6.9442e-06 2
0.0404068 0.00656271 0.00148646 0.735683 0.215906 0.330245 3.57207e-06 2
0.0388249 0.0060275 0.00405922 0.735683 0.215906 0.330245 2.26993e-05 2
0.040801 0.00903093 0.0109816 0.735683 0.215906 0.330245 3.15302e-06 2
0.0430754 0.00455407 -0.00862942 0.735683 0.215906 0.330245 6.37543e-06 2
0.0438524 0.0109947 0.011181 0.735683 0.215906 0.330245 4.83832e-07 2
0.0440908 0.00568841 0.0105498 0.735683 0.215906 0.330245 3.89848e-06 2
0.0443242 0.0106929 -0.00537038 0.735683 0.215906 0.330245 1.96044e-06 2
0.0413929 0.00325355 -1.85443e-05 0.735683 0.215906 0.330245 1.59219e-05 2
0.0408063 0.0112323 0.0108145 0.735683 0.215906 0.330245 6.80655e-07 2
0.0427803 0.00663592 0.0096007 0.735683 0.215906 0.330245 7.55328e-07 2
0.0378175 0.0119969 0.00783946 0.735683 0.215906 0.330245 2.51993e-07 2
0.0410532 0.00944276 0.00784325 0.735683 0.215906 0.330245 6.73618e-06 2
0.0409998 0.00677483 0.00938645 0.735683 0.215906 0.330245 9.10026e-06 2
0.0450872 0.00342903 -0.0106755 0.735683 0.215906 0.330245 8.65391e-07 2
0.0446212 0.00518014 -0.009163 0.735683 0.215906 0.330245 1.61355e-06 2
0.0464661 0.00539069 -0.0110005 0.735683 0.215906 0.330245 1.66774e-06 2
0.0486771 0.0119705 -0.00651333 0.735683 0.215906 0.330245 6.84516e-06 2
0.0490838 0.00540009 -0.00333532 0.735683 0.215906 0.330245 1.25995e-05 2
0.0426269 0.0106895 -0.000632415 0.735683 0.215906 0.330245 2.03037e-05 2
0.0443097 0.00257972 -0.00948954 0.735683 0.215906 0.330245 6.42715e-07 2
0.048417 0.0123346 -0.00512162 0.735683 0.215906 0.330245 5.19084e-06 2
0.0506681 0.00931471 -0.00390113 0.735683 0.215906 0.330245 1.46007e-05 2
0.047634 0.00486155 -0.00188169 0.735683 0.215906 0.330245 6.71339e-06 2
0.0370973 0.00387396 -0.00756864 0.735683 0.215906 0.330245 1.58769e-05 2
0.0414412 0.00645004 -0.00609338 0.735683 0.215906 0.330245 1.14925e-05 2
0.0406789 0.00285313 -0.0105051 0.735683 0.215906 0.330245 1.21744e-06 2
0.0348983 0.00331271 0.00680782 0.735683 0.215906 0.330245 4.74544e-06 2
0.0381341 0.000758628 0.00681161 0.735683 0.215906 0.330245 6.59679e-06 2
0.0493506 0.0070989 0.000627153 0.735683 0.215906 0.330245 1.71215e-05 2
0.0466166 0.00993966 0.0020981 0.735683 0.215906 0.330245 2.3408e-05 2
0.04639 0.0063471 0.00425582 0.735683 0.215906 0.330245 1.8257e-05 2
0.0453683 0.00938722 0.00661632 0.735683 0.215906 0.330245 9.62296e-06 2
0.0517014 0.00415861 0.0026321 0.735683 0.215906 0.330245 5.58363e-06 2
0.048349 0.0132169 0.00784648 0.735683 0.215906 0.330245 4.91255e-06 2
0.046674 0.013171 0.00653244 0.735683 0.215906 0.330245 2.86437e-06 2
0.0471442 0.0136587 0.00357641 0.735683 0.215906 0.330245 7.29097e-06 2
0.0491755 0.00362547 0.00416023 0.735683 0.215906 0.330245 9.05459e-06 2
0.0254799 0.002643 -0.000926995 0.735683 0.215906 0.330245 1.92439e-05 2
0.0338639 0.00834418 -4.48531e-05 0.735683 0.215906 0.330245 1.55455e-05 2
0.0280558 0.00672718 0.00423678 0.735683 0.215906 0.330245 1.23163e-05 2
0.0390413 0.00455822 0.0101708 0.735683 0.215906 0.330245 6.2131e-06 2
0.0278033 0.00516118 0.00748213 0.735683 0.215906 0.330245 1.25625e-05 2
0.0323001 0.00284125 0.00791994 0.735683 0.215906 0.330245 5.84581e-06 2
0.0210895 0.0029834 0.00907445 0.735683 0.215906 0.330245 8.00513e-06 2
0.0322965 0.00425557 0.000713263 0.735683 0.215906 0.330245 1.54736e-05 2
0.0255346 0.00618661 0.00385044 0.735683 0.215906 0.330245 1.43817e-05 2
0.0360671 0.00640634 0.00868101 0.735683 0.215906 0.330245 1.08624e-05 2
0.0328619 0.000995856 -0.00236003 0.735683 0.215906 0.330245 1.31883e-05 2
0.0162221 0.00288562 0.0055155 0.735683 0.215906 0.330245 2.85586e-05 2
0.0292794 0.00072575 -0.00749416 0.735683 0.215906 0.330245 8.9608e-06 2
0.0277217 0.00323077 -0.00212156 0.735683 0.215906 0.330245 4.34876e-06 2
0.037171 0.0091168 0.00148267 0.735683 0.215906 0.330245 3.76837e-05 2
0.0298266 0.00364598 -0.00394634 0.735683 0.215906 0.330245 9.15135e-06 2
0.0274368 0.00797154 0.00928159 0.735683 0.215906 0.330245 1.73326e-06 2
0.0322993 0.00744163 0.0103416 0.735683 0.215906 0.330245 4.63925e-06 2
0.0296983 0.00378411 0.00182538 0.735683 0.215906 0.330245 6.27775e-06 2
0.0241609 0.00380441 0.00703034 0.735683 0.215906 0.330245 8.10956e-06 2
0.0380612 0.00889199 0.00704115 0.735683 0.215906 0.330245 1.95289e-05 2
0.0319979 0.000713342 0.00180906 0.735683 0.215906 0.330245 1.23223e-05 2
0.0303213 0.00842279 0.0100695 0.735683 0.215906 0.330245 3.25436e-06 2
0.0240379 0.00498207 0.0115205 0.735683 0.215906 0.330245 6.93981e-07 2
0.0229418 0.00589054 0.0104528 0.735683 0.215906 0.330245 3.12843e-06 2
0.0213651 0.00603465 0.00875214 0.735683 0.215906 0.330245 4.33493e-06 2
0.0257837 0.00563654 0.0108806 0.735683 0.215906 0.330245 8.78181e-07 2
0.0332867 0.00148352 0.00473624 0.735683 0.215906 0.330245 2.75203e-05 2
0.0304649 0.00410567 0.00847183 0.735683 0.215906 0.330245 1.39393e-05 2
0.0261125 0.00968164 0.00433556 0.735683 0.215906 0.330245 1.05543e-06 2
0.0287514 5.08238e-05 -0.000752662 0.735683 0.215906 0.330245 8.40652e-06 2
0.0283142 0.00317241 -0.00345108 0.735683 0.215906 0.330245 4.64335e-06 2
0.0235784 0.00525227 -0.00396979 0.735683 0.215906 0.330245 2.142e-05 2
0.0317682 0.00132245 0.00958437 0.735683 0.215906 0.330245 3.02776e-06 2
0.0261474 0.00642349 7.01303e-05 0.735683 0.215906 0.330245 2.14777e-05 2
0.0241624 0.00264846 -0.00889954 0.735683 0.215906 0.330245 3.78116e-06 2
0.0193464 0.00208813 -0.0108592 0.735683 0.215906 0.330245 2.97311e-06 2
0.0179659 0.00123535 -0.0116516 0.735683 0.215906 0.330245 1.02085e-06 2
0.0267766 0.000841097 -0.00973696 0.735683 0.215906 0.330245 4.22416e-06 2
0.041382 0.00834709 -0.0113941 0.735683 0.215906 0.330245 8.34133e-07 2
0.0345658 0.00516732 -0.0105827 0.735683 0.215906 0.330245 6.56219e-06 2
0.0329345 0.002698 -0.010686 0.735683 0.215906 0.330245 7.07076e-06 2
0.0357859 0.00110791 -0.0104654 0.735683 0.215906 0.330245 3.26352e-06 2
0.0265842 0.00165629 -0.0119157 0.735683 0.215906 0.330245 2.07254e-06 2
0.0253859 0.00555704 -0.00962121 0.735683 0.215906 0.330245 6.36264e-06 2
0.0296043 0.00651113 -0.00650549 0.735683 0.215906 0.330245 8.49953e-06 2
0.0398014 0.00490764 -0.010614 0.735683 0.215906 0.330245 3.51036e-06 2
0.0227463 0.00055507 -0.0103566 0.735683 0.215906 0.330245 1.62212e-06 2
0.0403275 0.00657877 -0.0121471 0.735683 0.215906 0.330245 4.9583e-07 2
0.038298 0.00690986 -0.00875736 0.735683 0.215906 0.330245 1.44906e-06 2
0.0408558 0.00667597 -0.00986092 0.735683 0.215906 0.330245 5.75566e-06 2
0.0393524 0.00867818 -0.00800432 0.735683 0.215906 0.330245 9.29762e-06 2
0.0150846 -0.000107533 -0.0107503 0.735683 0.215906 0.330245 2.82813e-06 2
0.0300185 0.00377079 -0.00928992 0.735683 0.215906 0.330245 3.69349e-06 2
0.0280002 0.00374968 -0.0104586 0.735683 0.215906 0.330245 5.17904e-06 2
0.0272827 0.000388644 -0.008073 0.735683 0.215906 0.330245 8.71284e-06 2
0.0193183 0.000348118 -0.00830136 0.735683 0.215906 0.330245 3.87038e-06 2
0.0246684 0.00219601 -0.00723557 0.735683 0.215906 0.330245 6.04379e-06 2
0.0239699 0.00346365 -0.0110783 0.735683 0.215906 0.330245 6.70252e-06 2
0.0175573 -0.000355594 -0.0121231 0.735683 0.215906 0.330245 2.16419e-06 2
0.0168939 -0.000984888 -0.00804129 0.735683 0.215906 0.330245 1.28741e-05 2
0.0344294 0.00508446 -0.00311815 0.735683 0.215906 0.330245 2.02662e-05 2
0.034247 0.00714877 -0.00857581 0.735683 0.215906 0.330245 1.51029e-05 2
0.0363556 0.00639078 -0.00878165 0.735683 0.215906 0.330245 3.43812e-06 2
0.0448477 0.00730867 -0.00624696 0.735683 0.215906 0.330245 2.69039e-06 2
0.0427534 0.00829066 -0.0115254 0.735683 0.215906 0.330245 1.1524e-07 2
0.0322014 0.00741979 -0.00589471 0.735683 0.215906 0.330245 2.23668e-05 2
0.0448404 0.00660683 -0.0111773 0.735683 0.215906 0.330245 1.35924e-06 2
0.043773 0.0072456 -0.0105258 0.735683 0.215906 0.330245 1.16175e-06 2
0.0447103 0.00839592 -0.0105746 0.735683 0.215906 0.330245 1.81081e-06 2
0.0415125 0.0106781 -0.0110263 0.735683 0.215906 0.330245 2.04392e-07 2
0.0414342 0.00953383 -0.011358 0.735683 0.215906 0.330245 5.85941e-07 2
0.0372167 0.00229663 -0.00458623 0.735683 0.215906 0.330245 1.36148e-05 2
0.0488419 0.0128263 -0.00958616 0.735683 0.215906 0.330245 1.20101e-06 2
0.0438208 0.00765189 -0.0121769 0.735683 0.215906 0.330245 2.42466e-07 2
0.0447152 0.010435 -0.00744152 0.735683 0.215906 0.330245 3.02938e-06 2
0.0454465 0.00643574 -0.012 0.735683 0.215906 0.330245 2.35122e-07 2
0.0423956 0.0102292 -0.00519831 0.735683 0.215906 0.330245 1.37656e-05 2
0.045295 0.00935053 -0.00972684 0.735683 0.215906 0.330245 2.97931e-06 2
0.0453794 0.0114851 -0.0108109 0.735683 0.215906 0.330245 3.57028e-07 2
0.038159 0.00106041 -0.00914901 0.735683 0.215906 0.330245 2.51336e-06 2
0.0437689 0.0105852 -0.0112423 0.735683 0.215906 0.330245 1.31892e-07 2
0.0443537 0.0115398 -0.0103946 0.735683 0.215906 0.330245 2.17e-07 2
0.0452582 0.0073215 -0.00827927 0.735683 0.215906 0.330245 1.78366e-06 2
0.0420512 0.01368 -0.00559206 0.735683 0.215906 0.330245 6.76598e-07 2
0.0306208 0.0103061 -0.00600496 0.735683 0.215906 0.330245 2.19581e-06 2
0.0472236 0.00816211 -0.00662694 0.735683 0.215906 0.330245 5.32356e-06 2
0.0551073 0.00771383 -0.00745036 0.735683 0.215906 0.330245 1.19055e-05 2
0.0496486 0.00764908 -0.00965493 0.735683 0.215906 0.330245 4.69878e-06 2
0.052641 0.00872425 -0.00900782 0.735683 0.215906 0.330245 5.94471e-06 2
0.0481659 0.00986722 -0.0108858 0.735683 0.215906 0.330245 1.43195e-06 2
0.0470304 0.00991396 -0.010777 0.735683 0.215906 0.330245 4.07849e-07 2
0.0484661 0.00887619 -0.0118182 0.735683 0.215906 0.330245 7.01603e-07 2
0.0622619 0.00905384 -0.00745422 0.735683 0.215906 0.330245 3.5932e-06 2
0.051965 0.0057652 -0.0103074 0.735683 0.215906 0.330245 1.74496e-06 2
0.0475192 0.00753933 -0.0121575 0.735683 0.215906 0.330245 7.51801e-07 2
0.0503246 0.0106081 -0.00835532 0.735683 0.215906 0.330245 1.19845e-05 2
0.0471031 0.00753204 -0.0101167 0.735683 0.215906 0.330245 2.26082e-06 2
0.0485442 0.00589792 -0.00865069 0.735683 0.215906 0.330245 5.11258e-06 2
0.0477667 0.00504861 -0.0074647 0.735683 0.215906 0.330245 3.17996e-06 2
0.0617712 0.00774908 -0.0106129 0.735683 0.215906 0.330245 5.49196e-07 2
0.0577671 0.00776886 -0.00937477 0.735683 0.215906 0.330245 1.98306e-06 2
0.0571344 0.00508157 -0.00816222 0.735683 0.215906 0.330245 1.79858e-07 2
0.0589136 0.0117053 -0.00996559 0.735683 0.215906 0.330245 3.76067e-06 2
0.0589772 0.0141178 -0.01055 0.735683 0.215906 0.330245 2.16027e-06 2
0.0680519 0.0148049 -0.00832993 0.735683 0.215906 0.330245 9.64275e-06 2
0.0574228 0.00870414 -0.0107028 0.735683 0.215906 0.330245 2.37301e-06 2
0.0685243 0.0140405 -0.012294 0.735683 0.215906 0.330245 2.27214e-07 2
0.0679987 0.0152906 -0.0114303 0.735683 0.215906 0.330245 5.54214e-07 2
0.0589001 0.0124957 -0.0117031 0.735683 0.215906 0.330245 9.43039e-07 2
0.0652075 0.0123648 -0.0120735 0.735683 0.215906 0.330245 1.17843e-06 2
0.0704659 0.0169775 -0.0103415 0.735683 0.215906 0.330245 1.69175e-06 2
0.0678865 0.0126108 -0.0118386 0.735683 0.215906 0.330245 6.73295e-07 2
0.0642408 0.0173813 -0.0101078 0.735683 0.215906 0.330245 2.50894e-07 2
0.0687587 0.0167088 -0.00989715 0.735683 0.215906 0.330245 1.73044e-06 2
0.0682007 0.017108 -0.0112418 0.735683 0.215906 0.330245 6.25976e-07 2
0.0512158 0.0128884 -0.0102651 0.735683 0.215906 0.330245 2.45417e-06 2
0.0635859 0.0128936 -0.0116766 0.735683 0.215906 0.330245 1.84909e-06 2
0.0719065 0.0156945 -0.0120776 0.735683 0.215906 0.330245 8.92162e-07 2
0.0670446 0.0178226 -0.0108375 0.735683 0.215906 0.330245 3.90615e-07 2
0.0631447 0.0166599 -0.0105745 0.735683 0.215906 0.330245 4.27331e-07 2
0.0689607 0.0185263 -0.00970865 0.735683 0.215906 0.330245 2.59278e-06 2
0.0716363 0.0157962 -0.00932894 0.735683 0.215906 0.330245 4.39315e-06 2
0.0551144 0.00951033 -0.0116608 0.735683 0.215906 0.330245 1.55554e-06 2
0.0637932 0.0107126 -0.0103154 0.735683 0.215906 0.330245 3.32134e-06 2
0.0603474 0.0122117 -0.00995413 0.735683 0.215906 0.330245 6.17631e-07 2
0.0586408 0.00704501 -0.010658 0.735683 0.215906 0.330245 3.77659e-07 2
0.0635941 0.0140414 -0.0094116 0.735683 0.215906 0.330245 4.3964e-06 2
0.0565281 0.0108894 -0.0120768 0.735683 0.215906 0.330245 1.34765e-06 2
0.0646902 0.0147628 -0.00894485 0.735683 0.215906 0.330245 3.59541e-06 2
0.0672919 0.0133867 -0.00986309 0.735683 0.215906 0.330245 3.59915e-06 2
0.0621676 0.0116706 -0.00863797 0.735683 0.215906 0.330245 4.70863e-06 2
0.0532737 0.0114115 -0.0102204 0.735683 0.215906 0.330245 3.79324e-06 2
0.0623415 0.0122645 -0.00671853 0.735683 0.215906 0.330245 3.80832e-06 2
0.0557399 0.0104011 -0.00866292 0.735683 0.215906 0.330245 7.55652e-06 2
0.059258 0.0107701 -0.00863759 0.735683 0.215906 0.330245 2.97832e-06 2
0.0572308 0.0134023 -0.00792574 0.735683 0.215906 0.330245 1.12286e-05 2
0.061918 0.00944033 -0.00953437 0.735683 0.215906 0.330245 2.49206e-06 2
0.061904 0.0107795 -0.0105197 0.735683 0.215906 0.330245 1.58059e-06 2
0.0635571 0.00769199 -0.00947433 0.735683 0.215906 0.330245 1.20233e-06 2
0.0633434 0.0156026 -0.00743552 0.735683 0.215906 0.330245 2.84909e-06 2
0.0635431 0.00903114 -0.0104597 0.735683 0.215906 0.330245 1.4134e-06 2
0.0603092 0.0162347 0.00787943 0.735683 0.215906 0.330245 2.24332e-06 2
0.0614354 0.0174528 0.00569443 0.735683 0.215906 0.330245 5.85237e-07 2
0.0613451 0.0169045 0.00715336 0.735683 0.215906 0.330245 7.49993e-07 2
0.0670752 0.0105126 0.00387849 0.735683 0.215906 0.330245 6.04496e-06 2
0.0495559 0.0143016 0.000712908 0.735683 0.215906 0.330245 1.09601e-05 2
0.055267 0.0141743 0.00267962 0.735683 0.215906 0.330245 1.37519e-05 2
0.0527827 0.0169412 -3.92897e-05 0.735683 0.215906 0.330245 9.0355e-07 2
0.0644299 0.0170092 0.00458539 0.735683 0.215906 0.330245 4.27705e-06 2
0.0660085 0.0138515 0.00322209 0.735683 0.215906 0.330245 1.27721e-05 2
0.0654639 0.018853 0.00466681 0.735683 0.215906 0.330245 1.19702e-06 2
0.0590282 0.00810868 0.00395918 0.735683 0.215906 0.330245 6.65283e-06 2
0.0624453 0.00895342 -0.00474545 0.735683 0.215906 0.330245 1.05543e-05 2
0.0630373 0.00737497 0.00342911 0.735683 0.215906 0.330245 6.25587e-06 2
0.0652547 0.00868424 0.00667887 0.735683 0.215906 0.330245 7.1696e-06 2
0.0569999 0.00733378 -0.00325242 0.735683 0.215906 0.330245 1.33355e-05 2
0.0608938 0.0174627 0.00479884 0.735683 0.215906 0.330245 6.61803e-07 2
0.0597001 0.0171808 -0.00129313 0.735683 0.215906 0.330245 8.89885e-06 2
0.0571818 0.0057056 0.00397071 0.735683 0.215906 0.330245 5.18224e-06 2
0.0642127 0.016721 0.00605743 0.735683 0.215906 0.330245 2.0583e-06 2
0.0652467 0.0185648 0.00613885 0.735683 0.215906 0.330245 6.48309e-07 2
0.0584021 0.0161696 0.00670502 0.735683 0.215906 0.330245 2.87625e-06 2
0.0635297 0.00868901 0.00820361 0.735683 0.215906 0.330245 3.51549e-06 2
0.0623577 0.0175627 0.0062307 0.735683 0.215906 0.330245 4.66536e-07 2
0.0549471 0.008493 -6.52973e-05 0.735683 0.215906 0.330245 2.16322e-05 2
0.0587843 0.0113958 -0.00462114 0.735683 0.215906 0.330245 1.50676e-05 2
0.0644597 0.0113589 -0.00183804 0.735683 0.215906 0.330245 1.01819e-05 2
0.056845 0.0110152 0.00129853 0.735683 0.215906 0.330245 2.39259e-05 2
0.0548302 0.0069024 -0.00477657 0.735683 0.215906 0.330245 1.48518e-05 2
0.0588195 0.0132709 -0.00175229 0.735683 0.215906 0.330245 2.14917e-05 2
0.0594386 0.0171548 0.00103219 0.735683 0.215906 0.330245 8.17779e-06 2
0.0620333 0.0178609 0.00386307 0.735683 0.215906 0.330245 1.98541e-06 2
0.0638734 0.0147291 0.000174455 0.735683 0.215906 0.330245 1.75788e-05 2
0.056618 0.014047 0.00665043 0.735683 0.215906 0.330245 5.73694e-06 2
0.0650273 0.0078298 0.00223604 0.735683 0.215906 0.330245 5.6027e-06 2
0.0631442 0.00769198 0.00534548 0.735683 0.215906 0.330245 3.47196e-06 2
0.060757 0.0171921 0.00599279 0.735683 0.215906 0.330245 3.11024e-07 2
0.0645469 0.00779838 -0.000432856 0.735683 0.215906 0.330245 8.99789e-06 2
0.0589152 0.0169336 0.00477808 0.735683 0.215906 0.330245 1.32361e-06 2
0.0624805 0.0108285 -0.0018766 0.735683 0.215906 0.330245 1.55481e-05 2
0.0589861 0.0168266 0.00555817 0.735683 0.215906 0.330245 8.59449e-07 2
0.0500396 0.0161558 0.00044837 0.735683 0.215906 0.330245 6.23326e-07 2
0.0552414 0.017692 -0.000961219 0.735683 0.215906 0.330245 9.0355e-07 2
0.0643277 0.0162015 -0.00500328 0.735683 0.215906 0.330245 1.17713e-05 2
0.0586806 0.0147069 -0.00659422 0.735683 0.215906 0.330245 5.43316e-06 2
0.05698 0.0164039 0.00195412 0.735683 0.215906 0.330245 8.17779e-06 2
0.0521489 0.0149027 0.00276006 0.735683 0.215906 0.330245 9.90373e-06 2
0.0507761 0.0110509 -0.000731348 0.735683 0.215906 0.330245 2.26494e-05 2
0.0533343 0.0138797 0.00852499 0.735683 0.215906 0.330245 6.25381e-06 2
0.0514122 0.0143057 0.0069376 0.735683 0.215906 0.330245 4.50188e-06 2
0.0530968 0.0123627 0.01035 0.735683 0.215906 0.330245 2.79068e-06 2
0.055321 0.00512853 0.00270261 0.735683 0.215906 0.330245 5.97869e-06 2
0.0667138 0.0191873 0.00467992 0.735683 0.215906 0.330245 1.07146e-06 2
0.0657168 0.0178615 0.00845412 0.735683 0.215906 0.330245 1.63129e-06 2
0.0782983 0.0121903 0.00797733 0.735683 0.215906 0.330245 5.27209e-06 2
0.0570263 0.0132111 0.00826452 0.735683 0.215906 0.330245 2.55832e-06 2
0.0700547 0.0172186 0.0102538 0.735683 0.215906 0.330245 2.0176e-06 2
0.0716805 0.0156653 0.0108316 0.735683 0.215906 0.330245 2.73229e-06 2
0.0641412 0.016257 0.00721108 0.735683 0.215906 0.330245 2.95599e-06 2
0.0588619 0.0132138 0.0104335 0.735683 0.215906 0.330245 1.39934e-06 2
0.072879 0.0118628 0.00877678 0.735683 0.215906 0.330245 9.66486e-07 2
0.0642319 0.01509 0.0117679 0.735683 0.215906 0.330245 1.00351e-06 2
0.071677 0.0118672 0.00968409 0.735683 0.215906 0.330245 2.44507e-06 2
0.0747976 0.0179539 0.00854298 0.735683 0.215906 0.330245 6.93563e-06 2
0.065966 0.0123709 0.00845164 0.735683 0.215906 0.330245 6.78167e-06 2
0.0621941 0.0141248 0.00996524 0.735683 0.215906 0.330245 1.98607e-06 2
0.074674 0.0158494 0.00910036 0.735683 0.215906 0.330245 7.41869e-06 2
0.0785015 0.0118338 0.00658567 0.735683 0.215906 0.330245 2.82281e-06 2
