ply
format ascii 1.0
comment Created by Open3D
element vertex 871
property float32 x
property float32 y
property float32 z
property float32 red
property float32 green
property float32 blue
property uint8 segmentation
end_header
0.122667 0 -0.0194841 0.647059 0.619608 0.588235 0
0.10433 0 -0.00719899 0.647059 0.619608 0.588235 0
0.119281 -9.22655e-18 -0.00645286 0.647059 0.619608 0.588235 0
0.0492695 0.001 -0.0106148 0.737255 0.72549 0.709804 0
0.0562127 0 -0.0096586 0.647059 0.619608 0.588235 0
0.0305665 -9.22655e-18 -0.00536996 0.647059 0.619608 0.588235 0
0.0289138 0.001 -0.00941738 0.686275 0.666667 0.643137 0
0.102936 0 -0.015317 0.647059 0.619608 0.588235 0
0.0813579 0 -0.000794416 0.647059 0.619608 0.588235 0
0.00193248 0.001 -0.0126372 0.647059 0.619608 0.588235 0
0.0608593 0.000821574 -0.02 0.74902 0.741176 0.72549 0
0.111306 0.001 -0.0194841 0.756863 0.74902 0.737255 0
0.0972667 0.001 -0.00390264 0.686275 0.666667 0.643137 0
0.122434 0 -0.00637058 0.647059 0.619608 0.588235 0
0.137006 -1.84531e-17 -0.00192699 0.647059 0.619608 0.588235 0
0.0753709 0 -0.0163605 0.647059 0.619608 0.588235 0
0.101146 0.001 -0.00101463 0.709804 0.694118 0.67451 0
0.0702427 0 -0.00911135 0.647059 0.619608 0.588235 0
0.0720343 0.001 -0.0119223 0.745098 0.737255 0.721569 0
0.130754 0 -0.0150983 0.647059 0.619608 0.588235 0
0.109139 0.001 -0.014207 0.737255 0.72549 0.709804 0
0.0920026 0.000937006 0 0.709804 0.694118 0.67451 0
0.0180915 0.001 -0.0035405 0.713726 0.701961 0.682353 0
0.0592002 0 -0.0105917 0.647059 0.619608 0.588235 0
0.0643532 0.001 -0.0058252 0.678431 0.658824 0.631373 0
0.0926013 0.001 -0.016024 0.678431 0.658824 0.631373 0
0.116155 0.001 -0.00608936 0.647059 0.619608 0.588235 0
0.0951456 0.001 -0.0150129 0.721569 0.709804 0.690196 0
0.0105785 0 -0.00432178 0.647059 0.619608 0.588235 0
0.115841 0.001 -0.0160116 0.745098 0.737255 0.721569 0
0.143347 0.001 -0.00654606 0.686275 0.666667 0.643137 0
0.0481884 0.001 -0.00331129 0.686275 0.666667 0.643137 0
0.0700488 0.001 -0.00713268 0.686275 0.666667 0.643137 0
0.126054 0.001 -0.00220927 0.698039 0.682353 0.658824 0
0.100159 0.001 -0.00402911 0.721569 0.709804 0.690196 0
0.0565701 0.001 -0.00762129 0.721569 0.709804 0.690196 0
0.0716993 0.000670564 0 0.717647 0.701961 0.682353 0
0.105306 0 -0.00797877 0.647059 0.619608 0.588235 0
0.0824434 0.001 -0.0131242 0.686275 0.666667 0.643137 0
0.0998068 0 -0.00765025 0.647059 0.619608 0.588235 0
0.0490582 0.001 -0.0139348 0.686275 0.666667 0.643137 0
0.132194 0.001 -0.0099328 0.686275 0.666667 0.643137 0
0.0429095 0.001 -0.00569937 0.686275 0.666667 0.643137 0
0.103372 0.001 -0.0187767 0.752941 0.745098 0.729412 0
0.0630623 0 -0.013186 0.647059 0.619608 0.588235 0
0.0384842 0.001 -0.0126372 0.686275 0.666667 0.643137 0
0.0534604 0.001 -0.000436934 0.733333 0.72549 0.705882 0
0.156714 0 -0.0025504 0.647059 0.619608 0.588235 0
0.0832142 0 -0.0162957 0.647059 0.619608 0.588235 0
0.0284884 0 -0.00220927 0.647059 0.619608 0.588235 0
0.0145999 0 -0.00648534 0.647059 0.619608 0.588235 0
0.120777 0.001 -0.0107249 0.682353 0.658824 0.635294 0
0.109461 0.001 -0.014186 0.737255 0.72549 0.709804 0
0.0599058 0.00010661 -0.02 0.682353 0.658824 0.635294 0
0.0989601 0.001 -0.0064427 0.729412 0.717647 0.698039 0
0.0871606 9.22655e-18 -0.000515903 0.647059 0.619608 0.588235 0
0.0227585 0 -0.0177907 0.647059 0.619608 0.588235 0
0.088358 9.22655e-18 -0.00982944 0.647059 0.619608 0.588235 0
0.117521 0.001 -0.0126248 0.647059 0.619608 0.588235 0
0.113446 0.001 -0.0058252 0.721569 0.705882 0.686275 0
0.080467 0 -0.0191729 0.647059 0.619608 0.588235 0
0.00189542 0 -0.0139009 0.647059 0.619608 0.588235 0
0.0966179 0 -0.00645286 0.647059 0.619608 0.588235 0
0.0726993 0.001 -0.00390264 0.745098 0.737255 0.721569 0
0.0637128 0 -0.00813268 0.647059 0.619608 0.588235 0
0.0761827 0 -0.00573789 0.647059 0.619608 0.588235 0
0.0811797 0 -0.00884764 0.647059 0.619608 0.588235 0
0.109139 0.001 -0.0166017 0.662745 0.639216 0.611765 0
0.0251676 0.001 -0.0162294 0.721569 0.705882 0.686275 0
0.101727 0.001 -0.000857032 0.733333 0.72549 0.705882 0
0.111406 0 -0.00943048 0.647059 0.619608 0.588235 0
0.149256 0.000465892 0 0.666667 0.643137 0.615686 0
0.0508244 0 -0.000195719 0.647059 0.619608 0.588235 0
0.045619 0.001 -0.0137035 0.647059 0.619608 0.588235 0
0.0433406 0.001 -0.017741 0.721569 0.709804 0.694118 0
0.102442 0.001 -0.0132162 0.686275 0.666667 0.643137 0
0.087213 0.001 -0.017553 0.713726 0.701961 0.678431 0
0.0689945 0 -0.0141196 0.647059 0.619608 0.588235 0
0.0548834 0.001 -0.0151773 0.741176 0.729412 0.713726 0
0.0302709 0.001 -0.00833007 0.686275 0.666667 0.643137 0
0.0892704 0.001 -0.00305596 0.713726 0.701961 0.682353 0
0.161109 0.001 -0.0189755 0.647059 0.619608 0.588235 0
0.0226856 0 -0.00558399 0.647059 0.619608 0.588235 0
0.0600126 0.001 -0.0101113 0.721569 0.709804 0.690196 0
0.00447254 0.001 -0.00101463 0.682353 0.658824 0.635294 0
0.0765683 0 -0.010856 0.647059 0.619608 0.588235 0
0.0229113 -9.22655e-18 -0.00381819 0.647059 0.619608 0.588235 0
0.0400479 0 -0.0121696 0.647059 0.619608 0.588235 0
0.0129302 0 -0.00645286 0.647059 0.619608 0.588235 0
0.0963253 0 -0.0157618 0.647059 0.619608 0.588235 0
0.0363782 0 -0.0129223 0.647059 0.619608 0.588235 0
0.0345835 0.001 -0.00731112 0.678431 0.658824 0.631373 0
0.0471412 0 -0.00551156 0.647059 0.619608 0.588235 0
0.154841 0.001 -0.0119223 0.647059 0.619608 0.588235 0
0.0937348 0.000329436 0 0.666667 0.643137 0.615686 0
0.05825 0.001 -0.000436934 0.733333 0.72549 0.705882 0
0.0562258 0.001 -0.0194841 0.756863 0.74902 0.737255 0
0.00133816 0.001 -0.0186374 0.756863 0.74902 0.737255 0
0.158228 0.001 -0.0123695 0.647059 0.619608 0.588235 0
0.0757284 0.001 -0.00331129 0.709804 0.694118 0.670588 0
0.106759 0.001 -0.0119223 0.686275 0.666667 0.643137 0
0.143329 0 -0.00791396 0.647059 0.619608 0.588235 0
0.0875061 0 -0.0155807 0.647059 0.619608 0.588235 0
0.011365 0.001 -0.0017296 0.756863 0.74902 0.737255 0
0.0679377 0.001 -0.00942508 0.686275 0.666667 0.643137 0
0.0645944 0 -0.0144482 0.647059 0.619608 0.588235 0
0.135667 -1.84531e-17 -0.00240942 0.647059 0.619608 0.588235 0
0.0778499 0.001 -0.000710246 0.678431 0.658824 0.631373 0
0.0642866 0.001 -0.0135586 0.670588 0.647059 0.619608 0
0.0493468 -9.22655e-18 -0.0186905 0.647059 0.619608 0.588235 0
0.0394492 0 -0.0170461 0.647059 0.619608 0.588235 0
0.0222529 -9.22655e-18 -0.0186905 0.647059 0.619608 0.588235 0
0.0155112 9.22655e-18 -0.00317934 0.647059 0.619608 0.588235 0
0.0857543 0.001 -0.0129886 0.686275 0.666667 0.643137 0
0.0528629 0.001 -0.0113087 0.662745 0.639216 0.607843 0
0.149256 9.22655e-18 -0.0105275 0.647059 0.619608 0.588235 0
0.104887 0.001 -0.00651917 0.721569 0.709804 0.690196 0
0.0599 0.000959191 -0.0171884 0.796078 0.796078 0.792157 0
0.108806 0 -0.00294754 0.647059 0.619608 0.588235 0
0.0379311 0 -0.0124195 0.647059 0.619608 0.588235 0
0.0533489 0.001 -0.0102424 0.662745 0.639216 0.607843 0
0.0937348 0 -0.00305596 0.647059 0.619608 0.588235 0
0.0899877 0.000814043 -0.014 0.854902 0.866667 0.870588 0
0.00828594 0 -0.00286068 0.647059 0.619608 0.588235 0
0.0356302 0.000112114 -0.02 0.682353 0.658824 0.635294 0
0.0563165 0.001 -0.00773893 0.721569 0.709804 0.690196 0
0.0521512 0.001 -0.0199897 0.733333 0.72549 0.705882 0
0.0180195 0.001 -0.0127106 0.686275 0.666667 0.643137 0
0.0734366 0 -0.0140192 0.647059 0.619608 0.588235 0
0.0547384 0.001 -0.019143 0.729412 0.717647 0.701961 0
0.156029 0 -0.00693529 0.647059 0.619608 0.588235 0
0.0482339 0 -0.00390264 0.647059 0.619608 0.588235 0
0.0474279 0.000938718 0 0.713726 0.698039 0.678431 0
0.0983259 0 -0.0150635 0.647059 0.619608 0.588235 0
0.103436 0 -0.00884764 0.647059 0.619608 0.588235 0
0.11249 0 -0.00438659 0.647059 0.619608 0.588235 0
0.109977 0.001 -0.0114398 0.678431 0.658824 0.631373 0
0.0501935 -9.22655e-18 -0.0103087 0.647059 0.619608 0.588235 0
0.082086 0.001 -0.0115228 0.686275 0.666667 0.643137 0
0.0424696 0 -0.0196242 0.647059 0.619608 0.588235 0
0.102688 0.001 -0.00460681 0.733333 0.72549 0.705882 0
0.0346121 9.22655e-18 -0.0143833 0.647059 0.619608 0.588235 0
0.09388 -9.22655e-18 -0.00645286 0.647059 0.619608 0.588235 0
0.0458483 0 -0.0127035 0.647059 0.619608 0.588235 0
0.0249486 0.001 -0.00908611 0.717647 0.701961 0.682353 0
0.0827899 0 -0.016032 0.647059 0.619608 0.588235 0
0.0388837 0 -0.016211 0.647059 0.619608 0.588235 0
0.00193248 0.001 -0.015032 0.647059 0.619608 0.588235 0
0.0363054 0 -0.0177907 0.647059 0.619608 0.588235 0
0.0656155 0 -0.00645286 0.647059 0.619608 0.588235 0
0.0896602 0 -0.0127106 0.647059 0.619608 0.588235 0
0.0480733 0.001 -0.0113087 0.745098 0.737255 0.721569 0
0.0169043 0.001 -0.00339709 0.67451 0.65098 0.623529 0
0.0413855 0.001 -0.0157562 0.678431 0.658824 0.631373 0
0.0473488 0.001 -0.0129886 0.666667 0.643137 0.615686 0
0.0155013 -9.22655e-18 -0.0163638 0.647059 0.619608 0.588235 0
0.0688206 0.001 -0.00424377 0.721569 0.705882 0.686275 0
0.11728 0 -0.0127683 0.647059 0.619608 0.588235 0
0.0407158 0.001 -0.0138792 0.647059 0.619608 0.588235 0
0.0360507 0 -0.00635824 0.647059 0.619608 0.588235 0
0.0468068 0.001 -0.00101463 0.686275 0.666667 0.643137 0
0.068915 0.001 -0.0102424 0.686275 0.666667 0.643137 0
0.0633993 0.001 -0.00136259 0.756863 0.74902 0.737255 0
0.0899877 0.000465892 0 0.666667 0.643137 0.615686 0
0.0209441 0 -0.0139009 0.647059 0.619608 0.588235 0
0.0229269 0.001 -0.00415797 0.721569 0.709804 0.690196 0
0.0441069 0.000662563 0 0.721569 0.709804 0.690196 0
0.120889 0 -0.00109858 0.647059 0.619608 0.588235 0
0.0314249 0.001 -0.0100161 0.686275 0.666667 0.643137 0
0.0428573 0 -0.00933007 0.647059 0.619608 0.588235 0
0.0604035 0 -0.000276789 0.647059 0.619608 0.588235 0
0.10022 0.001 -0.0127022 0.686275 0.666667 0.643137 0
0.0574104 0.001 -0.0168426 0.709804 0.694118 0.67451 0
0.0781048 0.001 -0.00503063 0.678431 0.658824 0.631373 0
0.0806274 0.001 -0.00146595 0.678431 0.658824 0.631373 0
0.0225014 0 -0.0149095 0.647059 0.619608 0.588235 0
0.0777652 0.001 -0.0105938 0.678431 0.658824 0.631373 0
0.0610154 0.001 -0.016944 0.701961 0.682353 0.662745 0
0.0202909 0 -0.00199181 0.647059 0.619608 0.588235 0
0.0795618 0 -0.0128126 0.647059 0.619608 0.588235 0
0.0311652 -9.22655e-18 -0.00596865 0.647059 0.619608 0.588235 0
0.0641276 0 -0.0136372 0.647059 0.619608 0.588235 0
0.0241254 0.001 -0.0113087 0.686275 0.666667 0.643137 0
0.0290264 0 -0.00791396 0.647059 0.619608 0.588235 0
0.027333 0.001 -0.00460681 0.67451 0.65098 0.623529 0
0.0786397 0.001 -0.0174496 0.705882 0.690196 0.670588 0
0.110044 -1.15332e-18 -0.00466487 0.647059 0.619608 0.588235 0
0.0459601 0 -0.00982944 0.647059 0.619608 0.588235 0
0.113798 4.61327e-18 -0.00334311 0.647059 0.619608 0.588235 0
0.0573306 0 -0.00932388 0.647059 0.619608 0.588235 0
0.0959481 0 -0.00719899 0.647059 0.619608 0.588235 0
0.0558097 0.00099889 0 0.733333 0.72549 0.705882 0
0.0965665 0.001 -0.0168582 0.666667 0.643137 0.615686 0
0.0636226 0.000751884 -0.02 0.717647 0.705882 0.686275 0
0.0593341 0 -0.0177118 0.647059 0.619608 0.588235 0
0.0388505 0 -0.0037879 0.647059 0.619608 0.588235 0
0.122438 0 -0.00398934 0.647059 0.619608 0.588235 0
0.0627303 0 -0.00424377 0.647059 0.619608 0.588235 0
0.0662586 0.001 -0.0109439 0.686275 0.666667 0.643137 0
0.117878 0 -0.0037879 0.647059 0.619608 0.588235 0
0.0723641 0 -0.0172294 0.647059 0.619608 0.588235 0
0.04364 0 -0.000678148 0.647059 0.619608 0.588235 0
0.0137861 0 -0.00474933 0.647059 0.619608 0.588235 0
0.0686068 0 -0.00459816 0.647059 0.619608 0.588235 0
0.145022 0.0008 -0.0186374 0.811765 0.815686 0.811765 0
0.110466 0 -0.0159897 0.647059 0.619608 0.588235 0
0.0465684 9.22655e-18 -0.00613154 0.647059 0.619608 0.588235 0
0.163308 0 -0.0172294 0.647059 0.619608 0.588235 0
0.0334753 0.001 -0.00593714 0.686275 0.666667 0.643137 0
0.114885 0 -7.94518e-05 0.647059 0.619608 0.588235 0
0.153148 0.001 -0.0101113 0.686275 0.666667 0.643137 0
0.0307906 0.001 -0.0115228 0.686275 0.666667 0.643137 0
0.0811167 0.001 -0.0126248 0.686275 0.666667 0.643137 0
0.0593355 0.001 -0.00728938 0.721569 0.709804 0.690196 0
0.101115 0 -0.0157618 0.647059 0.619608 0.588235 0
0.0391654 0 -0.00728715 0.647059 0.619608 0.588235 0
0.126901 0.0008 -0.00272699 0.847059 0.858824 0.862745 0
0.0672183 0.001 -0.00857296 0.686275 0.666667 0.643137 0
0.0308831 0 -0.00982944 0.647059 0.619608 0.588235 0
0.0591659 0 -0.00593714 0.647059 0.619608 0.588235 0
0.0671272 0.001 -0.000857032 0.678431 0.658824 0.631373 0
0.04435 0.000837791 -0.00011053 0.807843 0.807843 0.803922 0
0.0364826 0 -0.0196242 0.647059 0.619608 0.588235 0
0.0837198 0.000112114 -0.02 0.678431 0.654902 0.627451 0
0.125825 0.000864568 -0.00582543 0.862745 0.87451 0.882353 0
0.0360826 0 -0.012285 0.647059 0.619608 0.588235 0
0.107551 0.001 -0.00501711 0.721569 0.709804 0.690196 0
0.018276 0 -0.0124398 0.647059 0.619608 0.588235 0
0.0687853 9.22655e-18 -0.00942589 0.647059 0.619608 0.588235 0
0.126901 0 -0.00509046 0.647059 0.619608 0.588235 0
0.0981134 0 -0.00932388 0.647059 0.619608 0.588235 0
0.0367775 0.001 -0.0166029 0.717647 0.701961 0.682353 0
0.111108 0 -0.0115228 0.647059 0.619608 0.588235 0
0.145022 9.22655e-18 -0.00813268 0.647059 0.619608 0.588235 0
0.0834759 0.001 -0.0166029 0.666667 0.643137 0.615686 0
0.104153 0.001 -0.0174268 0.717647 0.705882 0.686275 0
0.154841 0 -0.0172294 0.647059 0.619608 0.588235 0
0.0383399 0 -0.015317 0.647059 0.619608 0.588235 0
0.0210651 0.001 -0.0064427 0.686275 0.666667 0.643137 0
0.0428009 0.001 -0.00941665 0.686275 0.666667 0.643137 0
0.0817588 0.001 -0.00833007 0.686275 0.666667 0.643137 0
0.0883502 0.001 -0.00408853 0.721569 0.705882 0.686275 0
0.112849 0 -0.0182118 0.647059 0.619608 0.588235 0
0.0907952 0.001 -0.0101113 0.686275 0.666667 0.643137 0
0.0214062 -9.22655e-18 -0.0045405 0.647059 0.619608 0.588235 0
0.0227036 0.001 -0.00245627 0.721569 0.709804 0.690196 0
0.0383399 0.001 -0.00819899 0.686275 0.666667 0.643137 0
0.0988655 0.001 -0.00231263 0.713726 0.701961 0.682353 0
0.123855 0.001 -0.00593714 0.678431 0.654902 0.627451 0
0.0499632 0.001 -0.00739274 0.760784 0.756863 0.745098 0
0.0695107 0.001 -0.013484 0.670588 0.647059 0.619608 0
0.015985 0.001 -0.0179092 0.737255 0.72549 0.709804 0
0.0993428 -1.84531e-17 -0.00177185 0.647059 0.619608 0.588235 0
0.0654897 0 -0.00832423 0.647059 0.619608 0.588235 0
0.0676328 0 -0.0152507 0.647059 0.619608 0.588235 0
0.0719344 0.001 -0.0133195 0.647059 0.619608 0.588235 0
0.0616009 0 -0.0138237 0.647059 0.619608 0.588235 0
0.0671229 0 -0.00432117 0.647059 0.619608 0.588235 0
0.110453 0.001 -0.00500466 0.678431 0.658824 0.631373 0
0.0693971 0.001 -0.00509046 0.686275 0.666667 0.643137 0
0.0267252 0.000948321 0 0.705882 0.686275 0.666667 0
0.161394 0 -0.0167781 0.647059 0.619608 0.588235 0
0.0498457 0 -0.00551156 0.647059 0.619608 0.588235 0
0.0562921 0.000329436 0 0.717647 0.701961 0.682353 0
0.0379988 0.001 -0.0106761 0.686275 0.666667 0.643137 0
0.0674417 0.001 -0.0123158 0.686275 0.666667 0.643137 0
0.00616591 0 -0.0174496 0.647059 0.619608 0.588235 0
0.113695 0 -0.0162957 0.647059 0.619608 0.588235 0
0.0476535 0.001 -0.0174268 0.698039 0.682353 0.658824 0
0.14474 0 -0.0186374 0.647059 0.619608 0.588235 0
0.0429619 0 -0.0084772 0.647059 0.619608 0.588235 0
0.104037 0.001 -0.00340942 0.733333 0.72549 0.705882 0
0.0526205 0 -0.00688584 0.647059 0.619608 0.588235 0
0.109081 0.000508894 -0.02 0.721569 0.709804 0.690196 0
0.0143039 0 -0.00127684 0.647059 0.619608 0.588235 0
0.0630307 0 -0.0148346 0.647059 0.619608 0.588235 0
0.0490057 0 -0.0127106 0.647059 0.619608 0.588235 0
0.0847738 0 -0.00645286 0.647059 0.619608 0.588235 0
0.0236438 0.001 -0.0098978 0.686275 0.666667 0.643137 0
0.0394492 0 -0.00281684 0.647059 0.619608 0.588235 0
0.129441 0 -0.0118639 0.647059 0.619608 0.588235 0
0.0248036 0.001 -0.0166029 0.709804 0.694118 0.67451 0
0.0770036 0 -0.0119886 0.647059 0.619608 0.588235 0
0.0930906 0.001 -0.0070226 0.686275 0.666667 0.643137 0
0.0566395 -9.22655e-18 -0.00240942 0.647059 0.619608 0.588235 0
0.0778353 0 -0.0169477 0.647059 0.619608 0.588235 0
0.0610022 -9.22655e-18 -0.00519247 0.647059 0.619608 0.588235 0
0.00921152 0.001 -0.00728938 0.721569 0.709804 0.690196 0
0.0625022 0 -0.0150983 0.647059 0.619608 0.588235 0
0.0857543 0 -0.0115061 0.647059 0.619608 0.588235 0
0.102312 0 -0.0174417 0.647059 0.619608 0.588235 0
0.0947267 0.001 -0.0157562 0.678431 0.658824 0.631373 0
0.0914315 0.001 -0.0031772 0.686275 0.666667 0.643137 0
0.125661 0 -0.00486902 0.647059 0.619608 0.588235 0
0.131475 0 -0.015317 0.647059 0.619608 0.588235 0
0.074673 0.001 -0.00412438 0.74902 0.741176 0.72549 0
0.106226 0.001 -0.00813607 0.721569 0.709804 0.690196 0
0.105663 0.001 -0.0083914 0.721569 0.709804 0.690196 0
0.0861197 0.001 -0.0104013 0.686275 0.666667 0.643137 0
0.0294254 0.001 -0.00890585 0.686275 0.666667 0.643137 0
0.129441 0.001 -0.0107249 0.647059 0.619608 0.588235 0
0.0632128 0 -0.0064427 0.647059 0.619608 0.588235 0
0.077793 0.000948321 0 0.717647 0.701961 0.682353 0
0.0968446 0 -0.0101706 0.647059 0.619608 0.588235 0
0.0711495 0 -0.00192699 0.647059 0.619608 0.588235 0
0.0236052 0 -0.0184268 0.647059 0.619608 0.588235 0
0.115894 9.22655e-18 -0.00286068 0.647059 0.619608 0.588235 0
0.0292713 0 -0.00666511 0.647059 0.619608 0.588235 0
0.0426683 0 -0.0182118 0.647059 0.619608 0.588235 0
0.0437694 0.001 -0.00898275 0.686275 0.666667 0.643137 0
0.0329929 0.001 -0.00559601 0.686275 0.666667 0.643137 0
0.0262083 0 -0.000148934 0.647059 0.619608 0.588235 0
0.122372 -1.84531e-17 -0.0150983 0.647059 0.619608 0.588235 0
0.131981 0 -0.0084772 0.647059 0.619608 0.588235 0
0.123008 0 -0.0165144 0.647059 0.619608 0.588235 0
0.0841102 0.001 -0.000436934 0.678431 0.658824 0.631373 0
0.0439256 0.001 -0.00651917 0.686275 0.666667 0.643137 0
0.0727129 0.001 -0.0035405 0.745098 0.737255 0.721569 0
0.0341065 -9.22655e-18 -0.0186905 0.647059 0.619608 0.588235 0
0.147029 0.001 -0.00186068 0.713726 0.701961 0.682353 0
0.0193934 0.001 -0.0184554 0.745098 0.737255 0.721569 0
0.0657931 -9.22655e-18 -0.00312438 0.647059 0.619608 0.588235 0
0.115725 0.001 -0.0168582 0.690196 0.67451 0.65098 0
0.0461298 0 -0.0168643 0.647059 0.619608 0.588235 0
0.0051916 0.001 -0.0058638 0.682353 0.658824 0.635294 0
0.0947704 0.001 -0.00754471 0.682353 0.658824 0.635294 0
0.0870926 0 -0.0150272 0.647059 0.619608 0.588235 0
0.106075 0 -0.00214571 0.647059 0.619608 0.588235 0
0.117551 0.001 -0.00220287 0.647059 0.619608 0.588235 0
0.0206078 0.001 -0.0153286 0.678431 0.658824 0.631373 0
0.0781341 0 -0.00791396 0.647059 0.619608 0.588235 0
0.153148 0.001 -0.0123695 0.686275 0.666667 0.643137 0
0.0318358 0 -0.00918596 0.647059 0.619608 0.588235 0
0.108299 0 -0.0157618 0.647059 0.619608 0.588235 0
0.0813098 0.001 -0.00412438 0.721569 0.705882 0.686275 0
0.0388455 0.001 -0.00559601 0.686275 0.666667 0.643137 0
0.00579029 0.001 -0.00231263 0.721569 0.709804 0.690196 0
0.0184948 0 -0.000195719 0.647059 0.619608 0.588235 0
0.00938247 0.001 -0.00840385 0.682353 0.658824 0.635294 0
0.0462988 0 -0.013186 0.647059 0.619608 0.588235 0
0.0393697 0 -0.016944 0.647059 0.619608 0.588235 0
0.105904 0 -0.00265242 0.647059 0.619608 0.588235 0
0.0356727 0 -0.00390264 0.647059 0.619608 0.588235 0
0.0184517 0.001 -0.0165807 0.717647 0.701961 0.682353 0
0.0769713 0 -0.0132162 0.647059 0.619608 0.588235 0
0.0590743 0.001 -0.00315932 0.756863 0.74902 0.737255 0
0.0497245 0 -0.0143681 0.647059 0.619608 0.588235 0
0.0920863 0.001 -0.00412438 0.686275 0.666667 0.643137 0
0.0552565 0.001 -0.0177991 0.729412 0.717647 0.698039 0
0.115416 0 -0.00339709 0.647059 0.619608 0.588235 0
0.0344753 0 -0.0123695 0.647059 0.619608 0.588235 0
0.10658 0.000329436 -0.02 0.678431 0.654902 0.627451 0
0.0647211 0.001 -0.00671048 0.678431 0.658824 0.631373 0
0.0948603 0 -0.0129197 0.647059 0.619608 0.588235 0
0.102974 0.001 -0.0037275 0.733333 0.72549 0.705882 0
0.059902 0.001 -0.00771656 0.721569 0.709804 0.690196 0
0 0.00014427 -0.00932388 0.647059 0.619608 0.588235 0
0.107313 0.001 -0.0107249 0.721569 0.709804 0.690196 0
0.0687853 0 -0.0161994 0.647059 0.619608 0.588235 0
0.0998744 0.001 -0.0165807 0.721569 0.705882 0.686275 0
0.00362585 0 -0.0115061 0.647059 0.619608 0.588235 0
0.154475 -1.84531e-17 -0.00360681 0.647059 0.619608 0.588235 0
0.0749074 0.001 -0.0144293 0.686275 0.666667 0.643137 0
0.115894 0 -0.0124398 0.647059 0.619608 0.588235 0
0.113219 0 -0.0101273 0.647059 0.619608 0.588235 0
0.0382678 0 -0.0119886 0.647059 0.619608 0.588235 0
0.0451106 0 -0.0141196 0.647059 0.619608 0.588235 0
0.127262 -1.84531e-17 -0.0132162 0.647059 0.619608 0.588235 0
0.117637 0.001 -0.0134715 0.647059 0.619608 0.588235 0
0.0777871 0 -0.0045405 0.647059 0.619608 0.588235 0
0.153489 0.001 -0.00819899 0.682353 0.658824 0.635294 0
0.0777657 0 -0.011571 0.647059 0.619608 0.588235 0
0.118775 0.001 -0.0194841 0.729412 0.717647 0.701961 0
0.0729762 0 -0.00959032 0.647059 0.619608 0.588235 0
0.0587234 0 -0.0156718 0.647059 0.619608 0.588235 0
0.080004 0.001 -0.000783691 0.678431 0.658824 0.631373 0
0.0937348 0 -0.00220927 0.647059 0.619608 0.588235 0
0.108898 0 -0.00558399 0.647059 0.619608 0.588235 0
0.114542 -9.22655e-18 -0.00551917 0.647059 0.619608 0.588235 0
0.140448 0 -0.0160974 0.647059 0.619608 0.588235 0
0.0782307 -4.61327e-18 -0.000465892 0.647059 0.619608 0.588235 0
0.0195713 0 -0.0163703 0.647059 0.619608 0.588235 0
0.0197129 0.001 -0.00784764 0.686275 0.666667 0.643137 0
0.0408722 0.000751884 -0.02 0.729412 0.717647 0.698039 0
0.111245 0.000329436 -0.02 0.721569 0.709804 0.690196 0
0.089849 0 -0.0182118 0.647059 0.619608 0.588235 0
0.0606447 0.001 -0.00402911 0.756863 0.74902 0.737255 0
0.0661493 0.001 -0.0134715 0.670588 0.647059 0.619608 0
0.0300914 0 -0.00719899 0.647059 0.619608 0.588235 0
0.0022587 0.001 -0.00340942 0.647059 0.619608 0.588235 0
0.0925291 0 -0.0182118 0.647059 0.619608 0.588235 0
0.0808052 0.001 -0.000532205 0.678431 0.658824 0.631373 0
0.066748 0.001 -0.00103563 0.678431 0.658824 0.631373 0
0.121275 0 -0.00474933 0.647059 0.619608 0.588235 0
0.12199 0 -0.0118639 0.647059 0.619608 0.588235 0
0.120273 0 -0.000678148 0.647059 0.619608 0.588235 0
0.12293 0 -0.00566916 0.647059 0.619608 0.588235 0
0.058528 -1.84531e-17 -0.00170372 0.647059 0.619608 0.588235 0
0.0842137 0 -0.0045405 0.647059 0.619608 0.588235 0
0.0151282 0 -0.00466487 0.647059 0.619608 0.588235 0
0.114788 0.001 -0.0179092 0.678431 0.658824 0.631373 0
0.0137861 0.000465892 0 0.717647 0.701961 0.682353 0
0.0181461 0.001 -0.0126372 0.686275 0.666667 0.643137 0
0.0965665 0.000755018 -0.02 0.721569 0.709804 0.690196 0
0.137061 0.001 -0.0174496 0.709804 0.690196 0.670588 0
0.0430413 0 -0.0199527 0.647059 0.619608 0.588235 0
0.0475048 0 -0.0100514 0.647059 0.619608 0.588235 0
0.0921476 0.001 -0.0160974 0.678431 0.658824 0.631373 0
0.0477658 9.22655e-18 -0.00732894 0.647059 0.619608 0.588235 0
0.105226 0 -0.00424377 0.647059 0.619608 0.588235 0
0.12274 -9.22655e-18 -0.00525546 0.647059 0.619608 0.588235 0
0.0795187 0.001 -0.0165807 0.713726 0.701961 0.682353 0
0.103194 0 -0.0119886 0.647059 0.619608 0.588235 0
0.0695896 0.001 -0.0118639 0.686275 0.666667 0.643137 0
0.0543639 0.001 -0.00743274 0.721569 0.709804 0.690196 0
0.097447 0.001 -0.00545286 0.686275 0.666667 0.643137 0
0.111668 -9.22655e-18 -0.00360681 0.647059 0.619608 0.588235 0
0.146374 0 -0.00480421 0.647059 0.619608 0.588235 0
0.119437 0.001 -0.00245961 0.647059 0.619608 0.588235 0
0.117082 0.001 -0.0070016 0.647059 0.619608 0.588235 0
0.0726187 0.001 -0.0083914 0.678431 0.654902 0.627451 0
0.0404754 0.001 -0.0143306 0.729412 0.717647 0.698039 0
0.0318031 0.001 -0.00925054 0.686275 0.666667 0.643137 0
0.0433988 0.001 -0.0112135 0.686275 0.666667 0.643137 0
0.1142 0.0008 -0.00559601 0.847059 0.858824 0.862745 0
0.100849 0 -0.000461792 0.647059 0.619608 0.588235 0
0.0168495 0 -0.013815 0.647059 0.619608 0.588235 0
0.0825553 0 -0.0102726 0.647059 0.619608 0.588235 0
0.0894984 0.001 -0.014207 0.737255 0.72549 0.709804 0
0.0125949 0 -0.0112424 0.647059 0.619608 0.588235 0
0.0534448 0 -0.00635824 0.647059 0.619608 0.588235 0
0.112507 0 -0.0160974 0.647059 0.619608 0.588235 0
0.111891 0 -0.0169592 0.647059 0.619608 0.588235 0
0.141294 0.001 -0.00651917 0.686275 0.666667 0.643137 0
0.0760996 0.001 -0.0149009 0.678431 0.658824 0.631373 0
0.105184 0.001 -0.0165255 0.690196 0.67451 0.65098 0
0.10404 0.001 -0.014317 0.745098 0.737255 0.721569 0
0.0849632 0.001 -0.00424377 0.678431 0.658824 0.631373 0
0.0256665 0.001 -0.0012947 0.713726 0.701961 0.682353 0
0.0841102 0.001 -0.00331129 0.678431 0.658824 0.631373 0
0.10404 0 -0.0119886 0.647059 0.619608 0.588235 0
0.136488 0.001 -0.0183996 0.756863 0.74902 0.737255 0
0.0135312 0.001 -0.00580421 0.67451 0.65098 0.623529 0
0.159921 0 -0.000857032 0.647059 0.619608 0.588235 0
0.0277009 0 -0.0139784 0.647059 0.619608 0.588235 0
0.101955 0.0008 -0.0189965 0.807843 0.807843 0.803922 0
0.0115516 0.001 -0.00522651 0.756863 0.74902 0.737255 0
0.0371057 0.001 -0.0131994 0.686275 0.666667 0.643137 0
0.121315 0 -0.00933007 0.647059 0.619608 0.588235 0
0.0446684 0.001 -0.00389146 0.729412 0.717647 0.698039 0
0.113893 0.001 -0.0118639 0.686275 0.666667 0.643137 0
0.139095 0 -0.00982944 0.647059 0.619608 0.588235 0
0.109007 0 -0.00974498 0.647059 0.619608 0.588235 0
0.0515458 0.001 -0.00220927 0.733333 0.72549 0.705882 0
0.0449668 0.001 -0.00220927 0.729412 0.717647 0.698039 0
0.100529 0.001 -0.00509046 0.745098 0.733333 0.721569 0
0.0525817 0 -0.0129223 0.647059 0.619608 0.588235 0
0.0955241 0 -0.0114384 0.647059 0.619608 0.588235 0
0.0928603 -9.22655e-18 -0.00480421 0.647059 0.619608 0.588235 0
0.0796912 0.001 -0.0064427 0.721569 0.705882 0.686275 0
0.0535767 0.001 -0.00343042 0.733333 0.72549 0.705882 0
0.0507469 0 -0.0129223 0.647059 0.619608 0.588235 0
0.0476535 0.001 -0.016944 0.666667 0.643137 0.615686 0
0.049902 0.001 -0.00665025 0.764706 0.760784 0.74902 0
0.0744893 0 -0.00813268 0.647059 0.619608 0.588235 0
0.0122666 0.001 -0.000436934 0.756863 0.74902 0.737255 0
0.089679 0 -0.0143833 0.647059 0.619608 0.588235 0
0.1181 0.000950232 -0.0191564 0.803922 0.807843 0.8 0
0.0207912 0 -0.0029715 0.647059 0.619608 0.588235 0
0.11674 0 -0.00121203 0.647059 0.619608 0.588235 0
0.064246 0.000821574 -0.02 0.745098 0.733333 0.717647 0
0.0602717 0.001 -0.00654606 0.721569 0.709804 0.690196 0
0.143543 0 -0.00763051 0.647059 0.619608 0.588235 0
0.0266353 0.001 -0.0124109 0.686275 0.666667 0.643137 0
0.0241176 0.001 -0.000780658 0.721569 0.709804 0.690196 0
0.149761 0.001 -0.0107249 0.686275 0.666667 0.643137 0
0.110083 0.001 -0.00451633 0.678431 0.658824 0.631373 0
0.100383 0 -0.00432178 0.647059 0.619608 0.588235 0
0.150368 0.001 -0.00569937 0.768627 0.760784 0.752941 0
0.0815208 0.001 -0.000857032 0.678431 0.658824 0.631373 0
0.0583192 0.001 -0.0064427 0.721569 0.709804 0.690196 0
0.0293807 -9.22655e-18 -0.00043145 0.647059 0.619608 0.588235 0
0.116003 0 -0.0110172 0.647059 0.619608 0.588235 0
0.0561332 0 -0.0025504 0.647059 0.619608 0.588235 0
0.112459 0 -0.00286068 0.647059 0.619608 0.588235 0
0.0578137 0 -0.0064427 0.647059 0.619608 0.588235 0
0.0603537 0.001 -0.014404 0.721569 0.705882 0.686275 0
0.0455848 0.001 -0.00292699 0.729412 0.717647 0.698039 0
0.107701 0 -0.0132508 0.647059 0.619608 0.588235 0
0.098784 0.000546296 0 0.717647 0.701961 0.682353 0
0.101115 0 -0.0155171 0.647059 0.619608 0.588235 0
0.0779735 0 -0.00705602 0.647059 0.619608 0.588235 0
0.00616591 0 -0.00933007 0.647059 0.619608 0.588235 0
0.0359786 0 -0.0198879 0.647059 0.619608 0.588235 0
0.117878 0 -0.0090599 0.647059 0.619608 0.588235 0
0.0506991 0.001 -0.0149095 0.737255 0.72549 0.709804 0
0.0372084 0.001 -0.0166889 0.717647 0.701961 0.682353 0
0.122228 0 -0.00327438 0.647059 0.619608 0.588235 0
0.0463923 0.001 -0.0024646 0.686275 0.666667 0.643137 0
0.042572 0.001 -0.0115228 0.686275 0.666667 0.643137 0
0.0848318 0.001 -0.0114398 0.721569 0.705882 0.686275 0
0.0727551 0 -0.0184268 0.647059 0.619608 0.588235 0
0.120083 0.000465892 0 0.666667 0.643137 0.615686 0
0.0125501 0 -0.013764 0.647059 0.619608 0.588235 0
0.090564 0.000903778 -0.02 0.74902 0.741176 0.72549 0
0.00923748 0.001 -0.0123695 0.682353 0.658824 0.635294 0
0.0794864 0 -0.00121203 0.647059 0.619608 0.588235 0
0.0464401 0 -0.0127035 0.647059 0.619608 0.588235 0
0.0482919 0 -0.0045405 0.647059 0.619608 0.588235 0
0.076099 0.001 -0.00474933 0.709804 0.694118 0.670588 0
0.00701259 0.001 -0.016944 0.717647 0.705882 0.686275 0
0.125548 0.001 -0.00763051 0.74902 0.741176 0.72549 0
0.0755765 0.001 -0.00170372 0.756863 0.74902 0.737255 0
0.0314551 0.001 -0.0149009 0.721569 0.705882 0.686275 0
0.0333774 0.001 -0.00974335 0.686275 0.666667 0.643137 0
0.00413941 0.000937006 0 0.686275 0.666667 0.643137 0
0.115662 0 -0.00121203 0.647059 0.619608 0.588235 0
0.0288782 0.001 -0.00339709 0.67451 0.65098 0.623529 0
0.092856 0 -7.28906e-05 0.647059 0.619608 0.588235 0
0.10435 0.001 -0.00103563 0.733333 0.72549 0.705882 0
0.0818503 6.38666e-05 0 0.666667 0.643137 0.615686 0
0.145869 0 -0.00214571 0.647059 0.619608 0.588235 0
0.0896679 0.001 -0.0157719 0.717647 0.705882 0.686275 0
0.0881 0.000814512 -0.0184826 0.796078 0.8 0.792157 0
0.114286 0 -0.00786251 0.647059 0.619608 0.588235 0
0.00477489 0.001 -0.00713268 0.682353 0.658824 0.635294 0
0.0989601 0 -0.0101706 0.647059 0.619608 0.588235 0
0.122162 0.001 -0.0126372 0.682353 0.658824 0.635294 0
0.00617213 0 -0.000465892 0.647059 0.619608 0.588235 0
0.0576357 0.000751884 -0.02 0.721569 0.709804 0.690196 0
0.0148984 0.001 -0.00569937 0.67451 0.65098 0.623529 0
0.132051 0 -0.0123695 0.647059 0.619608 0.588235 0
0.0298731 0 -0.00474933 0.647059 0.619608 0.588235 0
0.0649611 0 -0.0107912 0.647059 0.619608 0.588235 0
0.131134 0.001 -0.0115228 0.686275 0.666667 0.643137 0
0.0352456 0.001 -0.0148417 0.717647 0.705882 0.686275 0
0.0965665 0.001 -0.000436934 0.713726 0.701961 0.682353 0
0.0681866 0 -0.00486902 0.647059 0.619608 0.588235 0
0.0200608 0.001 -0.00150686 0.713726 0.701961 0.682353 0
0.121275 0 -0.0064427 0.647059 0.619608 0.588235 0
0.1142 0 -0.0135573 0.647059 0.619608 0.588235 0
0.0560871 0 -0.0121436 0.647059 0.619608 0.588235 0
0.0370544 0 -0.000112362 0.647059 0.619608 0.588235 0
0.0511819 0.001 -0.00103563 0.733333 0.72549 0.705882 0
0.0728601 0 -0.0148346 0.647059 0.619608 0.588235 0
0.155112 -1.84531e-17 -0.00551917 0.647059 0.619608 0.588235 0
0.0734673 0 -0.00269804 0.647059 0.619608 0.588235 0
0.067048 0.000332654 -0.02 0.678431 0.654902 0.627451 0
0.0806742 0 -0.00911135 0.647059 0.619608 0.588235 0
0.0759767 0 -0.00534696 0.647059 0.619608 0.588235 0
0.0152621 0.001 -0.00151605 0.67451 0.65098 0.623529 0
0.0612004 0 -0.00898275 0.647059 0.619608 0.588235 0
0.118434 0.001 -0.0064427 0.647059 0.619608 0.588235 0
0.0438812 0.001 -0.0183978 0.713726 0.701961 0.682353 0
0.0371521 0.001 -0.0160983 0.745098 0.737255 0.721569 0
0.12673 0 -0.00839639 0.647059 0.619608 0.588235 0
0.0322648 0 -0.011571 0.647059 0.619608 0.588235 0
0.0274752 0 -0.0199527 0.647059 0.619608 0.588235 0
0.0410844 0.001 -0.0174268 0.698039 0.682353 0.658824 0
0.126054 0.001 -0.00305596 0.756863 0.74902 0.737255 0
0.00698769 0.001 -0.0100972 0.682353 0.658824 0.635294 0
0.0172107 0 -0.0143833 0.647059 0.619608 0.588235 0
0.159416 0.001 -0.014186 0.647059 0.619608 0.588235 0
0.0146328 -9.22655e-18 -0.0045405 0.647059 0.619608 0.588235 0
0.0711121 0 -0.00763051 0.647059 0.619608 0.588235 0
0.102911 0 -0.0136593 0.647059 0.619608 0.588235 0
0.0151383 0.000948321 0 0.705882 0.686275 0.666667 0
0.0920506 0 -0.0150983 0.647059 0.619608 0.588235 0
0.0966229 -2.30664e-18 -0.0100162 0.647059 0.619608 0.588235 0
0.104707 0 -0.0181566 0.647059 0.619608 0.588235 0
0.118171 0 -0.00645286 0.647059 0.619608 0.588235 0
0.0978446 0.001 -0.0123695 0.682353 0.658824 0.635294 0
0.0860605 0.001 -0.00631545 0.678431 0.658824 0.631373 0
0.0581181 0 -0.0139784 0.647059 0.619608 0.588235 0
0.116894 0.001 -0.0179092 0.741176 0.733333 0.717647 0
0.0314795 0 -0.0127035 0.647059 0.619608 0.588235 0
0.0998888 0.001 -0.00939638 0.729412 0.717647 0.698039 0
0.0188662 0 -0.0189092 0.647059 0.619608 0.588235 0
0.0984545 0 -0.0189092 0.647059 0.619608 0.588235 0
0.0284267 0.0008 -0.0158983 0.898039 0.917647 0.929412 0
0.00612773 0.001 -0.00170372 0.721569 0.709804 0.690196 0
0.0689495 -4.61327e-18 -0.00043145 0.647059 0.619608 0.588235 0
0.0899714 -2.30664e-18 -0.00381819 0.647059 0.619608 0.588235 0
0.0684278 0.001 -0.00343042 0.721569 0.705882 0.686275 0
0.0217295 0.001 -0.00754471 0.682353 0.658824 0.635294 0
0.0628938 0.001 -0.00819899 0.721569 0.709804 0.690196 0
0.0857543 0.001 -0.0110172 0.686275 0.666667 0.643137 0
0.126901 9.22655e-18 -0.00959378 0.647059 0.619608 0.588235 0
0.0594661 0 -0.00911135 0.647059 0.619608 0.588235 0
0.011246 -9.22655e-18 -0.00551917 0.647059 0.619608 0.588235 0
0.0713606 0.001 -0.0110172 0.678431 0.654902 0.627451 0
0.0679968 0 -0.0182302 0.647059 0.619608 0.588235 0
0.0215677 0.000543797 -4.61327e-18 0.721569 0.709804 0.690196 0
0.0705814 0 -0.0144482 0.647059 0.619608 0.588235 0
0.110095 0 -0.00620358 0.647059 0.619608 0.588235 0
0.0760996 0.001 -0.00833007 0.654902 0.631373 0.6 0
0.0758378 0.001 -0.000783691 0.756863 0.74902 0.737255 0
0.0318917 0.000903778 -0.02 0.745098 0.733333 0.717647 0
0.110694 9.22655e-18 -0.00366353 0.647059 0.619608 0.588235 0
0.0716025 0 -0.00645286 0.647059 0.619608 0.588235 0
0.0814314 0 -0.0196466 0.647059 0.619608 0.588235 0
0.0632128 0 -0.0140629 0.647059 0.619608 0.588235 0
0.0137752 0 -0.013297 0.647059 0.619608 0.588235 0
0.109819 0.001 -0.019143 0.678431 0.658824 0.631373 0
0.0056453 0.001 -0.00982944 0.682353 0.658824 0.635294 0
0.108621 0.001 -0.0157562 0.768627 0.760784 0.752941 0
0.0116029 0 -0.00645286 0.647059 0.619608 0.588235 0
0.0806742 0.001 -0.00545286 0.721569 0.705882 0.686275 0
0.0812014 0.001 -0.00247706 0.678431 0.658824 0.631373 0
0.0643176 0.001 -0.0182963 0.756863 0.74902 0.737255 0
0.10252 0.001 -0.00665025 0.733333 0.72549 0.705882 0
0.0879532 -9.22655e-18 -0.00645286 0.647059 0.619608 0.588235 0
0.0855292 0 -0.00189518 0.647059 0.619608 0.588235 0
0.108898 0 -0.0084612 0.647059 0.619608 0.588235 0
0.0789097 -2.30664e-18 -0.0103481 0.647059 0.619608 0.588235 0
0.018869 0 -0.00720493 0.647059 0.619608 0.588235 0
0.0665858 0.001 -0.0179613 0.741176 0.733333 0.717647 0
0.112002 0 -0.0199897 0.647059 0.619608 0.588235 0
0.115894 0 -0.0118639 0.647059 0.619608 0.588235 0
0.0351903 0 -0.0084772 0.647059 0.619608 0.588235 0
0.00751815 0 -0.00765025 0.647059 0.619608 0.588235 0
0.0253217 0.001 -0.0189965 0.709804 0.694118 0.670588 0
0.128089 0.001 -0.00101463 0.647059 0.619608 0.588235 0
0.115894 0 -0.013186 0.647059 0.619608 0.588235 0
0.0366969 0.001 -0.0185516 0.733333 0.72549 0.705882 0
0.0252985 0.001 -0.00728938 0.721569 0.709804 0.690196 0
0.0922438 0 -0.00466487 0.647059 0.619608 0.588235 0
0.0209376 0 -0.0145164 0.647059 0.619608 0.588235 0
0.0350443 0 -0.00735293 0.647059 0.619608 0.588235 0
0.0365927 0.001 -0.016024 0.745098 0.737255 0.721569 0
0.095589 0.001 -0.0109936 0.682353 0.658824 0.635294 0
0.131981 0.001 -0.0035405 0.678431 0.658824 0.631373 0
0.0775245 0.001 -0.0024646 0.678431 0.658824 0.631373 0
0.109963 0.001 -0.00908611 0.678431 0.658824 0.631373 0
0.113616 0 -0.000213422 0.647059 0.619608 0.588235 0
0.0670986 0 -0.00127813 0.647059 0.619608 0.588235 0
0.0430789 0 -0.0148346 0.647059 0.619608 0.588235 0
0.155688 0 -0.0155807 0.647059 0.619608 0.588235 0
0.0801605 0 -0.0197505 0.647059 0.619608 0.588235 0
0.00807572 0.001 -0.0058252 0.721569 0.709804 0.690196 0
0.0239463 0.001 -1.03475e-05 0.721569 0.709804 0.690196 0
0.0984545 9.22655e-18 -0.00334311 0.647059 0.619608 0.588235 0
0.0861606 0.001 -0.016944 0.694118 0.67451 0.65098 0
0.0949245 -2.30664e-18 -0.00405807 0.647059 0.619608 0.588235 0
0.0742753 0.001 -0.0174561 0.709804 0.690196 0.670588 0
0.00305807 0.001 -0.00813607 0.647059 0.619608 0.588235 0
0.0568114 0 -0.019354 0.647059 0.619608 0.588235 0
0.041638 0 -0.0179755 0.647059 0.619608 0.588235 0
0.07217 0 -0.00208299 0.647059 0.619608 0.588235 0
0.111016 0.001 -0.00898275 0.678431 0.658824 0.631373 0
0.0602078 0 -0.00813607 0.647059 0.619608 0.588235 0
0.0683065 0 -0.0102537 0.647059 0.619608 0.588235 0
0.0358645 0.001 -0.000786907 0.678431 0.658824 0.631373 0
0.109497 0 -0.0198364 0.647059 0.619608 0.588235 0
0.0325713 0 -0.0191729 0.647059 0.619608 0.588235 0
0.132322 0.001 -0.00340942 0.678431 0.658824 0.631373 0
0.122667 9.22655e-18 -0.0143833 0.647059 0.619608 0.588235 0
0.149761 0.0008 -0.0064427 0.898039 0.917647 0.929412 0
0.049627 0 -0.0181566 0.647059 0.619608 0.588235 0
0.0975637 0.001 -0.00422932 0.686275 0.666667 0.643137 0
0.0325896 0.001 -0.000783691 0.713726 0.701961 0.682353 0
0.0504313 0.001 -0.0135573 0.682353 0.658824 0.635294 0
0.0875505 0.001 -0.0177907 0.741176 0.729412 0.713726 0
0.0845645 0.001 -0.00166246 0.678431 0.658824 0.631373 0
0.0475524 -9.22655e-18 -0.000729598 0.647059 0.619608 0.588235 0
0.0374045 0.001 -0.0117912 0.686275 0.666667 0.643137 0
0.0337654 0.001 -0.0123695 0.678431 0.658824 0.631373 0
0.0860339 0.001 -0.0114332 0.686275 0.666667 0.643137 0
0.0602717 6.38666e-05 0 0.666667 0.643137 0.615686 0
0.161986 0 -0.0182963 0.647059 0.619608 0.588235 0
0.11437 0.001 -0.0125685 0.686275 0.666667 0.643137 0
0.116003 0 -1.03475e-05 0.647059 0.619608 0.588235 0
0.113089 0 -0.000195719 0.647059 0.619608 0.588235 0
0.0691071 0.001 -0.00813607 0.686275 0.666667 0.643137 0
0.00531922 0 -0.0140629 0.647059 0.619608 0.588235 0
0.0539543 0.001 -0.0131144 0.662745 0.639216 0.607843 0
0.087213 0.001 -0.0192463 0.756863 0.74902 0.737255 0
0.00166329 0 -0.014404 0.647059 0.619608 0.588235 0
0.0349532 0 -0.000515903 0.647059 0.619608 0.588235 0
0.00550017 0.001 -0.00460681 0.682353 0.658824 0.635294 0
0.0483616 0 -0.0110172 0.647059 0.619608 0.588235 0
0.0799671 0 -0.0127035 0.647059 0.619608 0.588235 0
0.0448115 0.001 -0.0168707 0.713726 0.698039 0.678431 0
0.0157425 0.001 -0.0058252 0.67451 0.65098 0.623529 0
0.135368 0.001 -0.0137035 0.647059 0.619608 0.588235 0
0.0277784 0 -0.00935539 0.647059 0.619608 0.588235 0
0.0722456 0.001 -0.00247706 0.745098 0.737255 0.721569 0
0.125129 0.001 -0.00713268 0.74902 0.741176 0.72549 0
0.0982308 0 -0.0029715 0.647059 0.619608 0.588235 0
0.0457936 0.001 -0.0112135 0.666667 0.643137 0.615686 0
0.0958839 0 -0.0115061 0.647059 0.619608 0.588235 0
0.0121147 0.001 -0.00763051 0.721569 0.709804 0.690196 0
0.106075 0.001 -0.00784764 0.721569 0.709804 0.690196 0
0.0925277 0.001 -0.00221203 0.686275 0.666667 0.643137 0
0.106262 0.001 -0.00462781 0.756863 0.74902 0.737255 0
0.0936893 0.001 -0.00283172 0.686275 0.666667 0.643137 0
0.116901 0.001 -0.0101155 0.647059 0.619608 0.588235 0
0.0908052 0.000662563 0 0.717647 0.701961 0.682353 0
0.111626 0.001 -0.0107795 0.686275 0.666667 0.643137 0
0.0178166 0 -0.0177907 0.647059 0.619608 0.588235 0
0.112848 -9.22655e-18 -0.00312438 0.647059 0.619608 0.588235 0
0.0408878 0.001 -0.014207 0.729412 0.717647 0.698039 0
0.043053 -4.61327e-18 -0.00212482 0.647059 0.619608 0.588235 0
0.0979154 0.001 -0.00580421 0.686275 0.666667 0.643137 0
0.150608 0.001 -0.0140629 0.745098 0.737255 0.721569 0
0.0681866 0 -0.00112347 0.647059 0.619608 0.588235 0
0.0697127 -4.61327e-18 -0.00127813 0.647059 0.619608 0.588235 0
0.0109049 0.001 -0.00292699 0.756863 0.74902 0.737255 0
0.0564081 0.001 -0.0035405 0.756863 0.74902 0.737255 0
0.0193191 0.000305081 -0.02 0.678431 0.654902 0.627451 0
0.105904 0 -0.010437 0.647059 0.619608 0.588235 0
0.0422322 0.001 -0.00292699 0.686275 0.666667 0.643137 0
0.018334 0.001 -0.0174268 0.713726 0.701961 0.678431 0
0.116244 -1.84531e-17 -0.0155807 0.647059 0.619608 0.588235 0
0.0863887 0.001 -0.0126248 0.686275 0.666667 0.643137 0
0.0239463 0 -0.0174931 0.647059 0.619608 0.588235 0
0.140448 0 -0.00166329 0.647059 0.619608 0.588235 0
0.0325148 0 -0.000465892 0.647059 0.619608 0.588235 0
0.100582 9.22655e-18 -1.39893e-05 0.647059 0.619608 0.588235 0
0.104047 0.001 -0.00732553 0.721569 0.709804 0.690196 0
0.0880529 0 -0.0190585 0.647059 0.619608 0.588235 0
0.024793 0 -0.00813607 0.647059 0.619608 0.588235 0
0.0107753 0.001 -0.0149009 0.729412 0.717647 0.698039 0
0.0142244 0 -0.0110172 0.647059 0.619608 0.588235 0
0.0512719 0 -0.0029715 0.647059 0.619608 0.588235 0
0.0998068 0.001 -0.00473789 0.713726 0.701961 0.682353 0
0.147135 0 -0.0186374 0.647059 0.619608 0.588235 0
0.0391866 0.000465892 0 0.717647 0.701961 0.682353 0
0.0412452 0 -0.0172105 0.647059 0.619608 0.588235 0
0.141294 0.001 -0.0149095 0.835294 0.843137 0.843137 0
0.0279193 0 -0.0187936 0.647059 0.619608 0.588235 0
0.0733468 0.0008 -0.00569578 0.898039 0.917647 0.929412 0
0.111016 0.001 -0.00813607 0.678431 0.658824 0.631373 0
0.138754 0.0008 -0.0140629 0.898039 0.917647 0.929412 0
0.011851 0.001 -0.0198216 0.733333 0.72549 0.705882 0
0.0817572 0.001 -0.0151058 0.721569 0.705882 0.686275 0
0.0747474 0 -0.0064427 0.647059 0.619608 0.588235 0
0.0811167 0.001 -0.0070226 0.686275 0.666667 0.643137 0
0.163649 0.001 -0.0070016 0.647059 0.619608 0.588235 0
0.0739007 0 -0.0189092 0.647059 0.619608 0.588235 0
0.0867462 0 -0.0053569 0.647059 0.619608 0.588235 0
0.0442519 0.001 -0.0186374 0.756863 0.74902 0.737255 0
0.159921 0 -0.00121203 0.647059 0.619608 0.588235 0
0.0951486 0 -0.0137946 0.647059 0.619608 0.588235 0
0.0245762 0.001 -0.0168647 0.709804 0.694118 0.67451 0
0.0797657 0.001 -0.00167165 0.678431 0.658824 0.631373 0
0.00952747 0.001 -0.00424377 0.756863 0.74902 0.737255 0
0.126395 0.001 -0.00545286 0.717647 0.701961 0.686275 0
0.04342 0.001 -0.00939638 0.686275 0.666667 0.643137 0
0.0953691 0.001 -0.0136083 0.647059 0.619608 0.588235 0
0.0536371 0 -0.00645926 0.647059 0.619608 0.588235 0
0.111891 0 -0.0128126 0.647059 0.619608 0.588235 0
0.129782 0 -0.00305596 0.647059 0.619608 0.588235 0
0.0442679 0 -0.0112424 0.647059 0.619608 0.588235 0
0.0149026 0 -0.00434579 0.647059 0.619608 0.588235 0
0.104585 0 -0.017564 0.647059 0.619608 0.588235 0
0.119719 -5.76659e-19 -0.00525546 0.647059 0.619608 0.588235 0
0.0337654 0 -0.010045 0.647059 0.619608 0.588235 0
0.0193717 0.000670564 0 0.717647 0.701961 0.682353 0
0.11644 0.001 -0.0083914 0.647059 0.619608 0.588235 0
0.0739323 0.001 -0.0070226 0.741176 0.729412 0.713726 0
0.0405389 0.001 -0.00220927 0.713726 0.701961 0.682353 0
0.0184948 0 -0.00139311 0.647059 0.619608 0.588235 0
0.042065 0 -0.00584536 0.647059 0.619608 0.588235 0
0.045282 0.001 -0.0146023 0.686275 0.666667 0.643137 0
0.0966471 0.001 -0.00755717 0.686275 0.666667 0.643137 0
0.0792772 0.001 -0.00833007 0.721569 0.705882 0.686275 0
0.0231598 0.001 -0.000619263 0.721569 0.709804 0.690196 0
0.0303369 0.001 -0.0058638 0.713726 0.701961 0.682353 0
0.117161 0.001 -0.0114398 0.647059 0.619608 0.588235 0
0.00852252 0.001 -0.0186374 0.752941 0.745098 0.729412 0
0.151796 0.001 -0.0198216 0.682353 0.658824 0.635294 0
0.0693971 0.001 -0.0127106 0.686275 0.666667 0.643137 0
0.15427 0 -0.00839639 0.647059 0.619608 0.588235 0
0.0416074 0.001 -0.0149938 0.729412 0.717647 0.698039 0
0.109776 0 -0.00903037 0.647059 0.619608 0.588235 0
0.0715945 0 -0.00728938 0.647059 0.619608 0.588235 0
0.0896466 0 -0.00424377 0.647059 0.619608 0.588235 0
0.0770997 0.001 -0.00146595 0.678431 0.658824 0.631373 0
0.109854 0.001 -0.00941738 0.686275 0.666667 0.643137 0
0.0935506 0.001 -0.0170544 0.666667 0.643137 0.615686 0
0.146716 0.001 -0.00340942 0.686275 0.666667 0.643137 0
0.112039 -1.15332e-18 -0.00286068 0.647059 0.619608 0.588235 0
0.0928425 9.22655e-18 -0.0105917 0.647059 0.619608 0.588235 0
0.0211646 0.001 -0.00665025 0.686275 0.666667 0.643137 0
0.0628707 0.001 -0.0130279 0.662745 0.639216 0.607843 0
0.0341326 0 -0.00525546 0.647059 0.619608 0.588235 0
0.0896466 0.001 -0.0017296 0.713726 0.701961 0.682353 0
0.140433 0 -0.00305596 0.647059 0.619608 0.588235 0
0.0751297 0.001 -0.00415797 0.756863 0.74902 0.737255 0
0.024395 0 -0.0143833 0.647059 0.619608 0.588235 0
0.113608 0 -1.03475e-05 0.647059 0.619608 0.588235 0
0.0303369 0.001 -0.00417043 0.713726 0.701961 0.682353 0
0.108341 0 -0.0181145 0.647059 0.619608 0.588235 0
0.138249 0.001 -0.00460681 0.721569 0.705882 0.686275 0
0.139601 0.001 -0.0184931 0.729412 0.717647 0.701961 0
0.0908344 0.001 -0.0152507 0.721569 0.705882 0.686275 0
0.116546 0 -0.0148251 0.647059 0.619608 0.588235 0
0.140469 0.001 -0.00247706 0.713726 0.701961 0.682353 0
0.0658049 0.001 -0.014404 0.705882 0.686275 0.666667 0
0.0901426 0 -0.0166029 0.647059 0.619608 0.588235 0
0.139601 0 -0.0110172 0.647059 0.619608 0.588235 0
0.0955345 0.001 -0.0142487 0.682353 0.658824 0.635294 0
0.0925277 0 -0.0198879 0.647059 0.619608 0.588235 0
0.0611689 0 -0.00813268 0.647059 0.619608 0.588235 0
0.0963253 0 -0.0145644 0.647059 0.619608 0.588235 0
0.00525546 0 -0.00509046 0.647059 0.619608 0.588235 0
0.128935 0 -0.0127035 0.647059 0.619608 0.588235 0
0.0111711 0.001 -0.0119223 0.682353 0.658824 0.635294 0
0.102538 0.001 -0.00942393 0.686275 0.666667 0.643137 0
0.146716 0.001 -0.000663285 0.713726 0.701961 0.682353 0
0.0411773 0 -0.00932388 0.647059 0.619608 0.588235 0
0.0891925 0.000833184 -0.0159315 0.862745 0.87451 0.882353 0
0.0969623 0.001 -0.00714948 0.686275 0.666667 0.643137 0
0.110406 0 -0.00407595 0.647059 0.619608 0.588235 0
0.0340609 0 -0.013367 0.647059 0.619608 0.588235 0
0.126901 0 -0.00480421 0.647059 0.619608 0.588235 0
0.0822389 0 -0.00563996 0.647059 0.619608 0.588235 0
0.0735596 0.001 -0.0113087 0.654902 0.631373 0.6 0
0.0226856 0 -0.00797877 0.647059 0.619608 0.588235 0
0.0232843 0 -0.00265242 0.647059 0.619608 0.588235 0
0.0906461 -1.84531e-17 -0.0190463 0.647059 0.619608 0.588235 0
0.0897397 0 -0.0084612 0.647059 0.619608 0.588235 0
0.0897397 0 -0.0163638 0.647059 0.619608 0.588235 0
0.128284 0.001 -0.00176426 0.647059 0.619608 0.588235 0
0.113772 0 -0.0150785 0.647059 0.619608 0.588235 0
0.101955 0.001 -0.0130096 0.686275 0.666667 0.643137 0
0.0739007 0.001 -0.0070016 0.741176 0.729412 0.713726 0
0.111052 0.001 -0.0166017 0.686275 0.666667 0.643137 0
0.108525 0 -0.0114384 0.647059 0.619608 0.588235 0
0.0768183 0.001 -0.0126372 0.678431 0.658824 0.631373 0
0.0669892 0 -0.00917617 0.647059 0.619608 0.588235 0
0.121373 9.22655e-18 -0.00556515 0.647059 0.619608 0.588235 0
0.0656075 0 -0.0182963 0.647059 0.619608 0.588235 0
0.131981 0 -0.00763051 0.647059 0.619608 0.588235 0
0.0861475 0 -0.00678138 0.647059 0.619608 0.588235 0
0.0933744 0.001 -0.014404 0.678431 0.658824 0.631373 0
0.128935 0 -0.000515903 0.647059 0.619608 0.588235 0
0.0222141 0 -0.00480421 0.647059 0.619608 0.588235 0
0.0801605 0 -0.011571 0.647059 0.619608 0.588235 0
0.0970507 0.001 -0.0114442 0.682353 0.658824 0.635294 0
0.0748281 0 -0.00189114 0.647059 0.619608 0.588235 0
0.0654964 0 -0.00827413 0.647059 0.619608 0.588235 0
0.0561203 0 -0.00898275 0.647059 0.619608 0.588235 0
0.108914 0 -0.0119886 0.647059 0.619608 0.588235 0
0.0636026 0.001 -0.014404 0.678431 0.658824 0.631373 0
0.0879532 0 -0.0160974 0.647059 0.619608 0.588235 0
0.110814 0 -0.00360681 0.647059 0.619608 0.588235 0
0.0815991 0.001 -0.00585134 0.686275 0.666667 0.643137 0
0.00836483 0 -0.0135573 0.647059 0.619608 0.588235 0
0.0530513 9.22655e-18 -0.00922775 0.647059 0.619608 0.588235 0
0.0113104 0 -0.00187554 0.647059 0.619608 0.588235 0
0.0502257 -9.22655e-18 -0.0136593 0.647059 0.619608 0.588235 0
0.00722425 0.001 -0.00904504 0.682353 0.658824 0.635294 0
0.00232997 0 -0.000794416 0.647059 0.619608 0.588235 0
0.130958 6.38666e-05 0 0.666667 0.643137 0.615686 0
0.134821 -1.84531e-17 -0.00121203 0.647059 0.619608 0.588235 0
0.0471139 0 -0.016032 0.647059 0.619608 0.588235 0
0.0181217 0 -0.0173651 0.647059 0.619608 0.588235 0
0.089141 0 -0.0114547 0.647059 0.619608 0.588235 0
0.0877089 0.001 -0.00668876 0.721569 0.705882 0.686275 0
0.0729762 0 -0.0199527 0.647059 0.619608 0.588235 0
0.00962256 1.84531e-17 -0.0150549 0.647059 0.619608 0.588235 0
0.116485 0 -0.00982944 0.647059 0.619608 0.588235 0
0.0542558 0.001 -0.0174268 0.72549 0.713726 0.698039 0
0.0879532 0.001 -0.0115228 0.686275 0.666667 0.643137 0
0.0693971 0.001 -0.0177907 0.760784 0.752941 0.741176 0
0.0413014 0.000827078 -0.02 0.745098 0.733333 0.717647 0
0.0169887 0 -0.0155807 0.647059 0.619608 0.588235 0
0.00674647 0 -0.00974498 0.647059 0.619608 0.588235 0
0.00616591 0.001 -0.0189755 0.756863 0.74902 0.737255 0
