ply
format ascii 1.0
comment Created by Open3D
element vertex 791
property float32 x
property float32 y
property float32 z
property float32 red
property float32 green
property float32 blue
property uint8 segmentation
end_header
0.015341 0.0238081 -0.125576 0.65098 0.619608 0.588235 1
0.0247488 0.0172139 0.0348269 0.00784314 0.239216 0.823529 0
0.0193412 0.0249921 -0.00888547 0.65098 0.619608 0.588235 1
0.0210246 0.0290688 -0.0776813 0.65098 0.619608 0.588235 1
0.0210627 0.0383046 0.0359361 0.00784314 0.239216 0.823529 0
0.0196956 0.03259 -0.13586 0.65098 0.619608 0.588235 1
0.0134522 0.034299 0.0857835 0.00784314 0.239216 0.823529 0
0.0137807 0.0257391 -0.120563 0.65098 0.619608 0.588235 1
0.0155546 0.0289675 -0.0100878 0.65098 0.619608 0.588235 1
0.0222848 0.0388597 0.0353418 0.00784314 0.239216 0.823529 0
0.00939495 0.0227039 0.0818 0.00784314 0.239216 0.823529 0
0.0241517 0.0168759 0.0606972 0.00784314 0.239216 0.823529 0
0.00593412 0.0282314 0.0357691 0.00784314 0.239216 0.823529 0
0.0093532 0.0227763 0.0769164 0.00784314 0.239216 0.823529 0
0.0247082 0.0384192 0.0604706 0.00784314 0.239216 0.823529 0
0.0153759 0.0283922 -0.0243139 0.65098 0.619608 0.588235 1
0.0291465 0.0251925 0.00626169 0.00784314 0.239216 0.823529 0
0.0133689 0.0182412 0.0266836 0.00784314 0.239216 0.823529 0
0.0176905 0.0175286 0.00562596 0.00784314 0.239216 0.823529 0
0.0189399 0.0248805 -0.0474726 0.65098 0.619608 0.588235 1
0.0163249 0.0300342 -0.0585228 0.65098 0.619608 0.588235 1
0.00747163 0.030406 0.0376552 0.00784314 0.239216 0.823529 0
0.0123933 0.0386869 0.0443437 0.00784314 0.239216 0.823529 0
0.010755 0.0370752 0.0541264 0.00784314 0.239216 0.823529 0
0.0147704 0.037188 0.0134923 0.00784314 0.239216 0.823529 0
0.0303514 0.0260676 0.070541 0.00784314 0.239216 0.823529 0
0.0197752 0.0380786 0.0100871 0.00784314 0.239216 0.823529 0
0.0281332 0.0242589 0.0590908 0.00784314 0.239216 0.823529 0
0.011944 0.0357248 0.0130741 0.00784314 0.239216 0.823529 0
0.0134473 0.0391374 0.0596704 0.00784314 0.239216 0.823529 0
0.0158438 0.0261222 -0.048588 0.65098 0.619608 0.588235 1
0.00855477 0.0313562 0.0257194 0.00784314 0.239216 0.823529 0
0.0192462 0.024952 -0.0196741 0.65098 0.619608 0.588235 1
0.0301776 0.0259299 0.0576148 0.00784314 0.239216 0.823529 0
0.0083445 0.0310953 0.0406564 0.00784314 0.239216 0.823529 0
0.0208176 0.0261592 -0.000546581 0.65098 0.619608 0.588235 1
0.00720566 0.0292297 0.0276458 0.00784314 0.239216 0.823529 0
0.018055 0.0184902 0.020523 0.00784314 0.239216 0.823529 0
0.0189399 0.0307372 -0.072561 0.65098 0.619608 0.588235 1
0.0159735 0.0174792 0.069058 0.00784314 0.239216 0.823529 0
0.00626203 0.026082 0.0654835 0.00784314 0.239216 0.823529 0
0.0156762 0.0292074 -0.0776738 0.65098 0.619608 0.588235 1
0.0260071 0.0198824 0.0373382 0.00784314 0.239216 0.823529 0
0.0222921 0.0381547 0.0274169 0.00784314 0.239216 0.823529 0
0.0067818 0.0256946 0.0809646 0.00784314 0.239216 0.823529 0
0.0222653 0.0167564 0.00605656 0.00784314 0.239216 0.823529 0
0.0165809 0.0231246 -0.119598 0.65098 0.619608 0.588235 1
0.0159729 0.0259326 -0.0588435 0.65098 0.619608 0.588235 1
0.02026 0.0253012 -0.105618 0.65098 0.619608 0.588235 1
0.00703972 0.0300971 0.0693927 0.00784314 0.239216 0.823529 0
0.0299311 0.0268892 0.0828969 0.00784314 0.239216 0.823529 0
0.00911161 0.023602 0.0132111 0.00784314 0.239216 0.823529 0
0.0253867 0.0268627 -0.000345867 0.00784314 0.239216 0.823529 0
0.0234025 0.0165084 0.0317666 0.00784314 0.239216 0.823529 0
0.0268997 0.0221225 0.0676949 0.00784314 0.239216 0.823529 0
0.0230291 0.0242524 0.0869025 0.00784314 0.239216 0.823529 0
0.0212344 0.0336401 -0.000345867 0.00784314 0.239216 0.823529 0
0.0232144 0.0164707 0.0710875 0.00784314 0.239216 0.823529 0
0.0244687 0.0385665 0.0804179 0.00784314 0.239216 0.823529 0
0.0199596 0.030306 -0.079766 0.65098 0.619608 0.588235 1
0.0166916 0.0252855 -0.0576695 0.65098 0.619608 0.588235 1
0.020931 0.0292637 -0.00917994 0.65098 0.619608 0.588235 1
0.00909903 0.0323908 0.0569903 0.00784314 0.239216 0.823529 0
0.0213097 0.0277761 -0.0503682 0.65098 0.619608 0.588235 1
0.0189399 0.0307372 -0.0672577 0.65098 0.619608 0.588235 1
0.0212514 0.0271898 -0.027441 0.65098 0.619608 0.588235 1
0.0189384 0.0380786 0.079339 0.00784314 0.239216 0.823529 0
0.0168551 0.037958 0.0127883 0.00784314 0.239216 0.823529 0
0.0136326 0.0165754 0.0821434 0.00784314 0.239216 0.823529 0
0.0163116 0.025571 -0.0782322 0.65098 0.619608 0.588235 1
0.02595 0.0363107 0.0757528 0.00784314 0.239216 0.823529 0
0.0204639 0.0322988 -0.109788 0.65098 0.619608 0.588235 1
0.00887863 0.0235982 0.0756091 0.00784314 0.239216 0.823529 0
0.0217403 0.0241871 -0.132127 0.65098 0.619608 0.588235 1
0.0306007 0.0291684 0.0340583 0.00784314 0.239216 0.823529 0
0.00944579 0.0249566 0.0173126 0.00784314 0.239216 0.823529 0
0.0107882 0.0188039 0.00278747 0.00784314 0.239216 0.823529 0
0.0106112 0.0356011 0.00423681 0.00784314 0.239216 0.823529 0
0.00803072 0.0308059 0.0573779 0.00784314 0.239216 0.823529 0
0.026026 0.0355314 0.0631374 0.00784314 0.239216 0.823529 0
0.0177165 0.0307328 -0.0860202 0.65098 0.619608 0.588235 1
0.0212751 0.0273859 -0.0529113 0.65098 0.619608 0.588235 1
0.017279 0.0249949 -0.0491199 0.65098 0.619608 0.588235 1
0.0138072 0.0219774 -0.000345867 0.00784314 0.239216 0.823529 0
0.0116044 0.0382168 0.0078832 0.00784314 0.239216 0.823529 0
0.0175249 0.0306881 -0.0134789 0.65098 0.619608 0.588235 1
0.0105455 0.0206135 0.0340583 0.00784314 0.239216 0.823529 0
0.0266757 0.0338728 0.0361121 0.00784314 0.239216 0.823529 0
0.00851624 0.0313814 0.0622282 0.00784314 0.239216 0.823529 0
0.00606626 0.0263489 0.00383467 0.00784314 0.239216 0.823529 0
0.00837503 0.0244668 0.0646816 0.00784314 0.239216 0.823529 0
0.0156975 0.0382457 0.037329 0.00784314 0.239216 0.823529 0
0.0208176 0.0381933 0.0538632 0.00784314 0.239216 0.823529 0
0.0282555 0.0244662 0.0690506 0.00784314 0.239216 0.823529 0
0.0251595 0.0341853 0.0169802 0.00784314 0.239216 0.823529 0
0.0259147 0.0366725 0.0498204 0.00784314 0.239216 0.823529 0
0.0272534 0.0328723 0.0327626 0.00784314 0.239216 0.823529 0
0.0169908 0.0175286 0.0421863 0.00784314 0.239216 0.823529 0
0.0217014 0.0241506 -0.11876 0.65098 0.619608 0.588235 1
0.0114215 0.0211052 0.0152152 0.00784314 0.239216 0.823529 0
0.025321 0.035389 0.0255125 0.00784314 0.239216 0.823529 0
0.0255987 0.0378095 0.0748923 0.00784314 0.239216 0.823529 0
0.0281555 0.0245541 0.0256258 0.00784314 0.239216 0.823529 0
0.00935163 0.0311569 0.0225923 0.00784314 0.239216 0.823529 0
0.0307096 0.0276767 0.076213 0.00784314 0.239216 0.823529 0
0.0153553 0.0282213 -0.0283716 0.65098 0.619608 0.588235 1
0.00921852 0.0230095 0.0588419 0.00784314 0.239216 0.823529 0
0.00882478 0.0319158 0.0383364 0.00784314 0.239216 0.823529 0
0.01796 0.0175286 0.0724187 0.00784314 0.239216 0.823529 0
0.0115862 0.0303364 0.0863098 0.00784314 0.239216 0.823529 0
0.0147751 0.0242969 -0.117571 0.65098 0.619608 0.588235 1
0.0106248 0.0198664 0.0486829 0.00784314 0.239216 0.823529 0
0.0262364 0.0209735 0.0301404 0.00784314 0.239216 0.823529 0
0.0116903 0.017336 0.0423972 0.00784314 0.239216 0.823529 0
0.0281044 0.0313982 0.0503796 0.00784314 0.239216 0.823529 0
0.0210246 0.01732 0.0434396 0.00784314 0.239216 0.823529 0
0.0110942 0.0378715 0.0459928 0.00784314 0.239216 0.823529 0
0.010643 0.0347411 0.00131801 0.00784314 0.239216 0.823529 0
0.0114364 0.0200881 0.0255125 0.00784314 0.239216 0.823529 0
0.0136746 0.0358284 0.0184229 0.00784314 0.239216 0.823529 0
0.0228204 0.0191319 0.0145465 0.00784314 0.239216 0.823529 0
0.0210033 0.0264966 -0.103794 0.65098 0.619608 0.588235 1
0.0276798 0.0283374 0.0168801 0.00784314 0.239216 0.823529 0
0.0212383 0.0284283 -0.0298322 0.65098 0.619608 0.588235 1
0.0168343 0.0304058 -0.0764876 0.65098 0.619608 0.588235 1
0.0208176 0.0261592 -0.0213938 0.65098 0.619608 0.588235 1
0.0107413 0.0369349 0.0734736 0.00784314 0.239216 0.823529 0
0.0198703 0.0380786 0.054769 0.00784314 0.239216 0.823529 0
0.0272613 0.0328584 0.0633414 0.00784314 0.239216 0.823529 0
0.0159558 0.0186532 0.0163382 0.00784314 0.239216 0.823529 0
0.0249744 0.0173578 0.0673683 0.00784314 0.239216 0.823529 0
0.0134374 0.0374048 0.00162349 0.00784314 0.239216 0.823529 0
0.0106594 0.0360954 0.0825362 0.00784314 0.239216 0.823529 0
0.023412 0.0390954 0.0475377 0.00784314 0.239216 0.823529 0
0.0083058 0.024563 0.0630375 0.00784314 0.239216 0.823529 0
0.0258629 0.0184035 0.0725436 0.00784314 0.239216 0.823529 0
0.0103761 0.0346027 0.0572205 0.00784314 0.239216 0.823529 0
0.0263277 0.0344755 0.00883467 0.00784314 0.239216 0.823529 0
0.0211937 0.0172431 0.0713764 0.00784314 0.239216 0.823529 0
0.0304176 0.0294707 0.040591 0.00784314 0.239216 0.823529 0
0.0168551 0.0251931 -0.0522076 0.65098 0.619608 0.588235 1
0.0176917 0.0380786 0.058868 0.00784314 0.239216 0.823529 0
0.0306876 0.0284283 0.0346296 0.00784314 0.239216 0.823529 0
0.0288527 0.0306249 0.00692927 0.00784314 0.239216 0.823529 0
0.0231936 0.0288163 -0.122459 0.65098 0.619608 0.588235 1
0.0133077 0.0253012 0.0870118 0.00784314 0.239216 0.823529 0
0.0198777 0.0252546 -0.0425157 0.65098 0.619608 0.588235 1
0.00756965 0.027823 0.011498 0.00784314 0.239216 0.823529 0
0.0140005 0.0253012 -0.137096 0.65098 0.619608 0.588235 1
0.01637 0.0290126 0.0878678 0.00784314 0.239216 0.823529 0
0.0225094 0.0250942 -0.130098 0.65098 0.619608 0.588235 1
0.016103 0.0257937 -0.101275 0.65098 0.619608 0.588235 1
0.0229023 0.0391147 0.0726257 0.00784314 0.239216 0.823529 0
0.0245748 0.017103 0.0788799 0.00784314 0.239216 0.823529 0
0.00695171 0.0300342 0.0473213 0.00784314 0.239216 0.823529 0
0.0156058 0.0290686 -0.0553587 0.65098 0.619608 0.588235 1
0.0137281 0.0295083 -0.139366 0.65098 0.619608 0.588235 1
0.0268608 0.0220551 0.028202 0.00784314 0.239216 0.823529 0
0.0127107 0.0388519 0.0505291 0.00784314 0.239216 0.823529 0
0.0217388 0.0367672 0.0152958 0.00784314 0.239216 0.823529 0
0.0243178 0.0386449 0.0380208 0.00784314 0.239216 0.823529 0
0.0150877 0.0373024 0.0246361 0.00784314 0.239216 0.823529 0
0.0168551 0.0314546 -0.139946 0.65098 0.619608 0.588235 1
0.0136068 0.0164718 0.0768011 0.00784314 0.239216 0.823529 0
0.0087558 0.0284283 0.0153534 0.00784314 0.239216 0.823529 0
0.015301 0.0384258 0.0479068 0.00784314 0.239216 0.823529 0
0.0103231 0.034511 0.00775824 0.00784314 0.239216 0.823529 0
0.0172471 0.035988 0.0857057 0.00784314 0.239216 0.823529 0
0.025119 0.0366612 0.0275972 0.00784314 0.239216 0.823529 0
0.0208651 0.0293648 -0.0474528 0.65098 0.619608 0.588235 1
0.013201 0.0165181 0.0519926 0.00784314 0.239216 0.823529 0
0.0193438 0.0326966 -0.133981 0.65098 0.619608 0.588235 1
0.0266591 0.0217056 0.082184 0.00784314 0.239216 0.823529 0
0.00726691 0.0253476 0.0431631 0.00784314 0.239216 0.823529 0
0.0166482 0.0253181 -0.0484952 0.65098 0.619608 0.588235 1
0.0153596 0.0282566 -0.067671 0.65098 0.619608 0.588235 1
0.0200115 0.0184254 0.0223854 0.00784314 0.239216 0.823529 0
0.0104313 0.0209089 0.0674418 0.00784314 0.239216 0.823529 0
0.0203266 0.0255928 -0.0771593 0.65098 0.619608 0.588235 1
0.0191265 0.0175286 0.061301 0.00784314 0.239216 0.823529 0
0.0274119 0.0230095 0.0521488 0.00784314 0.239216 0.823529 0
0.0208176 0.0321195 -0.130436 0.65098 0.619608 0.588235 1
0.0134863 0.0367884 0.013006 0.00784314 0.239216 0.823529 0
0.0276368 0.0264916 0.016545 0.00784314 0.239216 0.823529 0
0.0158128 0.0261698 -0.103955 0.65098 0.619608 0.588235 1
0.0178975 0.0175286 0.0407122 0.00784314 0.239216 0.823529 0
0.0227043 0.016557 0.0549055 0.00784314 0.239216 0.823529 0
0.020931 0.0292637 -0.0339021 0.65098 0.619608 0.588235 1
0.0179312 0.0248397 -0.0860517 0.65098 0.619608 0.588235 1
0.010394 0.0249257 -0.000345867 0.00784314 0.239216 0.823529 0
0.0114215 0.0175074 0.0607686 0.00784314 0.239216 0.823529 0
0.0153248 0.0279683 -0.012526 0.65098 0.619608 0.588235 1
0.021594 0.0385459 0.0413467 0.00784314 0.239216 0.823529 0
0.0158438 0.0174281 0.0376548 0.00784314 0.239216 0.823529 0
0.0202824 0.0323908 -0.116249 0.65098 0.619608 0.588235 1
0.0164345 0.0380786 0.0324327 0.00784314 0.239216 0.823529 0
0.0260071 0.0357248 0.0815435 0.00784314 0.239216 0.823529 0
0.0187921 0.0228413 -0.132865 0.65098 0.619608 0.588235 1
0.0179087 0.0372987 0.0159543 0.00784314 0.239216 0.823529 0
0.0170083 0.0304952 -0.0206566 0.65098 0.619608 0.588235 1
0.0107113 0.0189795 0.0392124 0.00784314 0.239216 0.823529 0
0.00593367 0.0282213 0.0747371 0.00784314 0.239216 0.823529 0
0.0192536 0.0175286 0.0319736 0.00784314 0.239216 0.823529 0
0.00762123 0.0250942 0.0809646 0.00784314 0.239216 0.823529 0
0.017399 0.0380786 0.047609 0.00784314 0.239216 0.823529 0
0.02186 0.0242992 -0.125312 0.65098 0.619608 0.588235 1
0.0124787 0.0378095 0.0829664 0.00784314 0.239216 0.823529 0
0.0163158 0.0300257 -0.0764965 0.65098 0.619608 0.588235 1
0.0171352 0.0250512 -0.0790463 0.65098 0.619608 0.588235 1
0.0126727 0.0197924 0.0236347 0.00784314 0.239216 0.823529 0
0.00938954 0.030513 -0.00022817 0.00784314 0.239216 0.823529 0
0.0278338 0.0318669 0.0801292 0.00784314 0.239216 0.823529 0
0.0178297 0.0180047 0.0144012 0.00784314 0.239216 0.823529 0
0.014111 0.0389663 0.0460525 0.00784314 0.239216 0.823529 0
0.0199491 0.0253012 -0.00643116 0.65098 0.619608 0.588235 1
0.00939274 0.0228719 0.0251278 0.00784314 0.239216 0.823529 0
0.0268277 0.0219977 0.0256868 0.00784314 0.239216 0.823529 0
0.0306967 0.0282213 0.0812946 0.00784314 0.239216 0.823529 0
0.00593894 0.0283404 0.0611826 0.00784314 0.239216 0.823529 0
0.00911614 0.0324204 0.00513377 0.00784314 0.239216 0.823529 0
0.0217403 0.0241871 -0.123497 0.65098 0.619608 0.588235 1
0.00933608 0.0228059 0.0643542 0.00784314 0.239216 0.823529 0
0.0158128 0.0381933 0.00860116 0.00784314 0.239216 0.823529 0
0.0139053 0.0254474 -0.108745 0.65098 0.619608 0.588235 1
0.0155895 0.0290365 -0.0808084 0.65098 0.619608 0.588235 1
0.0189384 0.0380786 0.056407 0.00784314 0.239216 0.823529 0
0.0131743 0.0233498 -0.000345867 0.00784314 0.239216 0.823529 0
0.0256923 0.0210431 0.0135628 0.00784314 0.239216 0.823529 0
0.0153211 0.027823 -0.065449 0.65098 0.619608 0.588235 1
0.0224948 0.030513 -0.126465 0.65098 0.619608 0.588235 1
0.00606753 0.0263489 0.00678292 0.00784314 0.239216 0.823529 0
0.0105752 0.0352323 0.0569903 0.00784314 0.239216 0.823529 0
0.0106455 0.0354547 0.00201848 0.00784314 0.239216 0.823529 0
0.0278861 0.0286348 0.015258 0.00784314 0.239216 0.823529 0
0.0214027 0.0274664 -0.138799 0.65098 0.619608 0.588235 1
0.0189399 0.0380786 0.00987703 0.00784314 0.239216 0.823529 0
0.0277831 0.0319547 0.00674995 0.00784314 0.239216 0.823529 0
0.0268608 0.0220551 0.00527008 0.00784314 0.239216 0.823529 0
0.0154564 0.0286748 -0.0933786 0.65098 0.619608 0.588235 1
0.00710886 0.0301466 0.00779231 0.00784314 0.239216 0.823529 0
0.00904434 0.032296 0.027764 0.00784314 0.239216 0.823529 0
0.0129329 0.0389674 0.0546034 0.00784314 0.239216 0.823529 0
0.0206948 0.0296257 -0.091095 0.65098 0.619608 0.588235 1
0.0126857 0.0205654 -0.000339609 0.00784314 0.239216 0.823529 0
0.0198143 0.0252133 -0.00829446 0.65098 0.619608 0.588235 1
0.0190258 0.0380786 0.046521 0.00784314 0.239216 0.823529 0
0.0260689 0.0350967 0.0319399 0.00784314 0.239216 0.823529 0
0.0170502 0.0250942 -0.0821962 0.65098 0.619608 0.588235 1
0.0259728 0.036077 0.0489417 0.00784314 0.239216 0.823529 0
0.0202662 0.0255362 -0.0686614 0.65098 0.619608 0.588235 1
0.0166638 0.0302946 -0.0446556 0.65098 0.619608 0.588235 1
0.0109923 0.0377629 0.0635078 0.00784314 0.239216 0.823529 0
0.0244541 0.0200894 0.084589 0.00784314 0.239216 0.823529 0
0.0110774 0.019047 0.0279939 0.00784314 0.239216 0.823529 0
0.026793 0.0239914 0.0179852 0.00784314 0.239216 0.823529 0
0.0165896 0.0379681 0.0126373 0.00784314 0.239216 0.823529 0
0.0179912 0.0327743 -0.11083 0.65098 0.619608 0.588235 1
0.0180728 0.0230444 0.0873088 0.00784314 0.239216 0.823529 0
0.0212735 0.0273729 -0.0688474 0.65098 0.619608 0.588235 1
0.0274417 0.0230612 0.00278747 0.00784314 0.239216 0.823529 0
0.00733183 0.0253012 0.0640496 0.00784314 0.239216 0.823529 0
0.0182672 0.0380786 0.0287703 0.00784314 0.239216 0.823529 0
0.0153206 0.0278313 -0.0339021 0.65098 0.619608 0.588235 1
0.0155725 0.0266163 -0.017781 0.65098 0.619608 0.588235 1
0.0241517 0.0168759 0.0386604 0.00784314 0.239216 0.823529 0
0.0156585 0.0291726 -0.0697519 0.65098 0.619608 0.588235 1
0.00949053 0.0225384 0.0765271 0.00784314 0.239216 0.823529 0
0.0260762 0.0205568 0.0482467 0.00784314 0.239216 0.823529 0
0.0147409 0.0243334 -0.119157 0.65098 0.619608 0.588235 1
0.0189384 0.0327455 -0.132139 0.65098 0.619608 0.588235 1
0.014203 0.0194448 0.0208093 0.00784314 0.239216 0.823529 0
0.0195804 0.0250942 -0.0107776 0.65098 0.619608 0.588235 1
0.0155308 0.0363609 0.0852183 0.00784314 0.239216 0.823529 0
0.0262082 0.0209248 0.0296819 0.00784314 0.239216 0.823529 0
0.0106232 0.0357248 0.0658669 0.00784314 0.239216 0.823529 0
0.0275197 0.0301808 0.0222378 0.00784314 0.239216 0.823529 0
0.0158128 0.017414 0.0559479 0.00784314 0.239216 0.823529 0
0.0118661 0.0211318 0.0199378 0.00784314 0.239216 0.823529 0
0.0123126 0.0169623 0.0786729 0.00784314 0.239216 0.823529 0
0.0208651 0.0293648 -0.0901897 0.65098 0.619608 0.588235 1
0.0275314 0.0323908 0.0429737 0.00784314 0.239216 0.823529 0
0.00633051 0.0260238 0.0802317 0.00784314 0.239216 0.823529 0
0.0149551 0.0385829 0.00382984 0.00784314 0.239216 0.823529 0
0.015378 0.0284095 -0.0869744 0.65098 0.619608 0.588235 1
0.0278999 0.0267523 0.0150888 0.00784314 0.239216 0.823529 0
0.0260163 0.0199764 0.0313615 0.00784314 0.239216 0.823529 0
0.0268501 0.0242458 0.0189269 0.00784314 0.239216 0.823529 0
0.00902739 0.0322667 0.0461179 0.00784314 0.239216 0.823529 0
0.0100163 0.0219265 0.00117913 0.00784314 0.239216 0.823529 0
0.0273417 0.0228881 0.0359361 0.00784314 0.239216 0.823529 0
0.00755086 0.0304627 0.0572499 0.00784314 0.239216 0.823529 0
0.0269295 0.0221741 0.042605 0.00784314 0.239216 0.823529 0
0.0152531 0.0384475 0.0445722 0.00784314 0.239216 0.823529 0
0.0277884 0.0236617 0.0410554 0.00784314 0.239216 0.823529 0
0.0147704 0.0363716 -0.000291528 0.00784314 0.239216 0.823529 0
0.00974144 0.0221038 0.0694074 0.00784314 0.239216 0.823529 0
0.0111073 0.0177247 0.0378116 0.00784314 0.239216 0.823529 0
0.00616391 0.0294119 0.0649716 0.00784314 0.239216 0.823529 0
0.020931 0.0292637 -0.0651966 0.65098 0.619608 0.588235 1
0.0180585 0.0248244 -0.0121969 0.65098 0.619608 0.588235 1
0.0189384 0.031762 -0.107135 0.65098 0.619608 0.588235 1
0.0196755 0.0312475 -0.000345867 0.00784314 0.239216 0.823529 0
0.0191349 0.0329605 0.0871445 0.00784314 0.239216 0.823529 0
0.0164345 0.0324166 -0.119665 0.65098 0.619608 0.588235 1
0.00906912 0.0232683 0.0555893 0.00784314 0.239216 0.823529 0
0.0166482 0.0380786 0.0392701 0.00784314 0.239216 0.823529 0
0.0151068 0.0239838 -0.118044 0.65098 0.619608 0.588235 1
0.0197752 0.0373626 0.000702752 0.00784314 0.239216 0.823529 0
0.0158128 0.0315554 -0.139793 0.65098 0.619608 0.588235 1
0.0122513 0.0378095 0.0828423 0.00784314 0.239216 0.823529 0
0.0306483 0.0290031 0.0763607 0.00784314 0.239216 0.823529 0
0.0306876 0.027179 0.0505291 0.00784314 0.239216 0.823529 0
0.0177049 0.0307301 -0.050585 0.65098 0.619608 0.588235 1
0.0182014 0.0380786 0.0282633 0.00784314 0.239216 0.823529 0
0.00960855 0.022334 0.0281714 0.00784314 0.239216 0.823529 0
0.0184604 0.0237356 -0.000345867 0.00784314 0.239216 0.823529 0
0.0284837 0.0247157 0.0329474 0.00784314 0.239216 0.823529 0
0.00711214 0.0301489 0.0442185 0.00784314 0.239216 0.823529 0
0.020931 0.0292637 -0.0917308 0.65098 0.619608 0.588235 1
0.0226237 0.0390137 0.0711074 0.00784314 0.239216 0.823529 0
0.01572 0.0263119 -0.0518523 0.65098 0.619608 0.588235 1
0.0306918 0.0272746 0.0651148 0.00784314 0.239216 0.823529 0
0.0143147 0.0307713 -0.128544 0.65098 0.619608 0.588235 1
0.00593771 0.0285012 0.0038195 0.00784314 0.239216 0.823529 0
0.00981145 0.0315104 0.0181294 0.00784314 0.239216 0.823529 0
0.0124794 0.0349622 0.0191 0.00784314 0.239216 0.823529 0
0.0114215 0.0175074 0.0327603 0.00784314 0.239216 0.823529 0
0.0153269 0.0277176 -0.0915851 0.65098 0.619608 0.588235 1
0.0232676 0.0164802 0.0638235 0.00784314 0.239216 0.823529 0
0.025183 0.0174909 0.0653926 0.00784314 0.239216 0.823529 0
0.0275314 0.0232165 0.0767951 0.00784314 0.239216 0.823529 0
0.0106031 0.0355179 0.00695692 0.00784314 0.239216 0.823529 0
0.0284719 0.0247062 0.0526139 0.00784314 0.239216 0.823529 0
0.0257084 0.0376659 0.0525167 0.00784314 0.239216 0.823529 0
0.0231093 0.0291781 -0.122821 0.65098 0.619608 0.588235 1
0.0206029 0.0258729 -0.0462 0.65098 0.619608 0.588235 1
0.0281141 0.0242259 0.0724187 0.00784314 0.239216 0.823529 0
0.0159917 0.0259125 -0.0331621 0.65098 0.619608 0.588235 1
0.0178975 0.0248438 -0.00972086 0.65098 0.619608 0.588235 1
0.0121708 0.0188727 0.0268464 0.00784314 0.239216 0.823529 0
0.0195804 0.0250942 -0.0756389 0.65098 0.619608 0.588235 1
0.0169898 0.0380786 0.0761299 0.00784314 0.239216 0.823529 0
0.0153253 0.0279725 -0.0841132 0.65098 0.619608 0.588235 1
0.006068 0.0263489 0.0716443 0.00784314 0.239216 0.823529 0
0.0133479 0.0274176 -0.124518 0.65098 0.619608 0.588235 1
0.00862828 0.0315754 0.0599104 0.00784314 0.239216 0.823529 0
0.00726691 0.0253476 0.041689 0.00784314 0.239216 0.823529 0
0.0207023 0.0260054 -0.0161668 0.65098 0.619608 0.588235 1
0.0147091 0.0282681 -0.106649 0.65098 0.619608 0.588235 1
0.020222 0.0254948 -0.0940774 0.65098 0.619608 0.588235 1
0.0221157 0.0310323 -0.113796 0.65098 0.619608 0.588235 1
0.0170673 0.0192201 -0.000345867 0.00784314 0.239216 0.823529 0
0.0221311 0.0168173 0.0791416 0.00784314 0.239216 0.823529 0
0.010664 0.0361431 0.0547721 0.00784314 0.239216 0.823529 0
0.00762123 0.030513 0.0338513 0.00784314 0.239216 0.823529 0
0.0262756 0.0335782 0.0142948 0.00784314 0.239216 0.823529 0
0.00621274 0.0294707 0.0320725 0.00784314 0.239216 0.823529 0
0.0305593 0.0263436 0.0809646 0.00784314 0.239216 0.823529 0
0.0165167 0.0380786 0.0835533 0.00784314 0.239216 0.823529 0
0.0110306 0.0312574 0.0858145 0.00784314 0.239216 0.823529 0
0.0261667 0.0347606 0.00466523 0.00784314 0.239216 0.823529 0
0.0236095 0.0165941 0.0455243 0.00784314 0.239216 0.823529 0
0.025194 0.0381093 0.0379996 0.00784314 0.239216 0.823529 0
0.0147704 0.0313081 -0.114164 0.65098 0.619608 0.588235 1
0.0262626 0.021019 0.0672069 0.00784314 0.239216 0.823529 0
0.0169368 0.0175286 0.0297236 0.00784314 0.239216 0.823529 0
0.0128956 0.0166593 0.0475015 0.00784314 0.239216 0.823529 0
0.0191357 0.0306778 -0.0120126 0.65098 0.619608 0.588235 1
0.00754745 0.025147 0.0377599 0.00784314 0.239216 0.823529 0
0.0178975 0.0175286 0.0262147 0.00784314 0.239216 0.823529 0
0.0070665 0.025491 0.0563747 0.00784314 0.239216 0.823529 0
0.0117766 0.0329824 0.0856484 0.00784314 0.239216 0.823529 0
0.0258959 0.0187424 0.0818272 0.00784314 0.239216 0.823529 0
0.015042 0.0385434 0.0612694 0.00784314 0.239216 0.823529 0
0.00643152 0.0296622 0.0619951 0.00784314 0.239216 0.823529 0
0.0196884 0.0251403 -0.0842731 0.65098 0.619608 0.588235 1
0.0260273 0.0200894 0.0314435 0.00784314 0.239216 0.823529 0
0.0180316 0.0248276 -0.065173 0.65098 0.619608 0.588235 1
0.0197268 0.0175286 0.0830493 0.00784314 0.239216 0.823529 0
0.0219634 0.024396 -0.118851 0.65098 0.619608 0.588235 1
0.021054 0.0265967 -0.00181402 0.65098 0.619608 0.588235 1
0.0107047 0.0365602 0.00576143 0.00784314 0.239216 0.823529 0
0.0129963 0.0390004 0.0411479 0.00784314 0.239216 0.823529 0
0.0161078 0.0286008 0.0878595 0.00784314 0.239216 0.823529 0
0.00970084 0.0221741 0.0484444 0.00784314 0.239216 0.823529 0
0.0143308 0.0187223 0.000894969 0.00784314 0.239216 0.823529 0
0.0134473 0.0358217 0.0213284 0.00784314 0.239216 0.823529 0
0.010878 0.020946 0.0132111 0.00784314 0.239216 0.823529 0
0.0204193 0.017526 0.0775189 0.00784314 0.239216 0.823529 0
0.0282811 0.0292637 0.0247454 0.00784314 0.239216 0.823529 0
0.0121585 0.0170424 0.0780137 0.00784314 0.239216 0.823529 0
0.0114874 0.0381419 0.060144 0.00784314 0.239216 0.823529 0
0.0204125 0.0299362 -0.0209242 0.65098 0.619608 0.588235 1
0.0218169 0.0242589 -0.123127 0.65098 0.619608 0.588235 1
0.0153758 0.0272488 -0.0395389 0.65098 0.619608 0.588235 1
0.0202775 0.0255468 -0.0329326 0.65098 0.619608 0.588235 1
0.0281253 0.031362 0.0754759 0.00784314 0.239216 0.823529 0
0.0189076 0.0307424 -0.0462035 0.65098 0.619608 0.588235 1
0.0219516 0.0383303 0.0275249 0.00784314 0.239216 0.823529 0
0.0258751 0.0370781 0.0811188 0.00784314 0.239216 0.823529 0
0.0252551 0.03534 0.0128258 0.00784314 0.239216 0.823529 0
0.0136638 0.0278338 0.0873482 0.00784314 0.239216 0.823529 0
0.0258291 0.0182077 0.0578257 0.00784314 0.239216 0.823529 0
0.0212488 0.027179 -0.0827127 0.65098 0.619608 0.588235 1
0.0107062 0.0365754 0.0351007 0.00784314 0.239216 0.823529 0
0.0159269 0.0259949 -0.00555142 0.65098 0.619608 0.588235 1
0.024904 0.0173129 0.050169 0.00784314 0.239216 0.823529 0
0.00869596 0.0282213 0.0229569 0.00784314 0.239216 0.823529 0
0.00982033 0.0219672 0.0788778 0.00784314 0.239216 0.823529 0
0.00762123 0.030513 0.0734136 0.00784314 0.239216 0.823529 0
0.0268022 0.0219535 0.0776305 0.00784314 0.239216 0.823529 0
0.0150419 0.0369362 0.0232667 0.00784314 0.239216 0.823529 0
0.0274132 0.0230118 0.0340108 0.00784314 0.239216 0.823529 0
0.0269417 0.0221951 0.0451342 0.00784314 0.239216 0.823529 0
0.0156959 0.0263489 -0.0209327 0.65098 0.619608 0.588235 1
0.0226834 0.0390408 0.0558152 0.00784314 0.239216 0.823529 0
0.0161317 0.025763 -0.0999397 0.65098 0.619608 0.588235 1
0.0189384 0.0307376 -0.0747042 0.65098 0.619608 0.588235 1
0.0272329 0.0226996 0.0721577 0.00784314 0.239216 0.823529 0
0.0260294 0.0354965 0.010084 0.00784314 0.239216 0.823529 0
0.00861672 0.0240519 0.0778375 0.00784314 0.239216 0.823529 0
0.0135095 0.0391323 0.00806601 0.00784314 0.239216 0.823529 0
0.0249871 0.0213145 0.0203006 0.00784314 0.239216 0.823529 0
0.0189399 0.0307372 -0.0256137 0.65098 0.619608 0.588235 1
0.0106625 0.0194802 0.0633015 0.00784314 0.239216 0.823529 0
0.0212206 0.0285043 -0.0721384 0.65098 0.619608 0.588235 1
0.0202688 0.0255387 -0.016182 0.65098 0.619608 0.588235 1
0.0274119 0.0230095 0.0713124 0.00784314 0.239216 0.823529 0
0.0204848 0.0380883 0.0642201 0.00784314 0.239216 0.823529 0
0.0158438 0.0174281 0.00221453 0.00784314 0.239216 0.823529 0
0.0268018 0.0219529 0.0111019 0.00784314 0.239216 0.823529 0
0.0262776 0.0335732 0.0142999 0.00784314 0.239216 0.823529 0
0.0191078 0.0380786 0.0481099 0.00784314 0.239216 0.823529 0
0.015755 0.023517 -0.121819 0.65098 0.619608 0.588235 1
0.0259444 0.0192394 0.0595772 0.00784314 0.239216 0.823529 0
0.00595926 0.0287996 0.0470818 0.00784314 0.239216 0.823529 0
0.0151068 0.0170933 0.0615057 0.00784314 0.239216 0.823529 0
0.0212383 0.0284283 -0.0514739 0.65098 0.619608 0.588235 1
0.0273219 0.0327535 0.00729104 0.00784314 0.239216 0.823529 0
0.0170502 0.0250942 -0.0527138 0.65098 0.619608 0.588235 1
0.0210246 0.0336401 -0.000345867 0.00784314 0.239216 0.823529 0
0.0140027 0.0253012 0.0872285 0.00784314 0.239216 0.823529 0
0.0272787 0.0293513 0.0851499 0.00784314 0.239216 0.823529 0
0.0188317 0.0307516 -0.0459731 0.65098 0.619608 0.588235 1
0.0252793 0.0357272 0.00142854 0.00784314 0.239216 0.823529 0
0.00893743 0.031705 0.0250128 0.00784314 0.239216 0.823529 0
0.0178975 0.0373454 0.0224944 0.00784314 0.239216 0.823529 0
0.0193828 0.0306028 -0.016379 0.65098 0.619608 0.588235 1
0.018055 0.0186359 0.0850916 0.00784314 0.239216 0.823529 0
0.0262364 0.0280648 -0.000345867 0.00784314 0.239216 0.823529 0
0.0187329 0.0211318 0.0865503 0.00784314 0.239216 0.823529 0
0.0229023 0.0188328 0.00103361 0.00784314 0.239216 0.823529 0
0.00970084 0.0221741 0.00303137 0.00784314 0.239216 0.823529 0
0.0104057 0.0209532 0.0661645 0.00784314 0.239216 0.823529 0
0.00935663 0.030528 0.0212209 0.00784314 0.239216 0.823529 0
0.0167479 0.0308773 -0.106326 0.65098 0.619608 0.588235 1
0.0165652 0.0253804 -0.0130565 0.65098 0.619608 0.588235 1
0.00971053 0.0334414 0.0255125 0.00784314 0.239216 0.823529 0
0.0281332 0.0242589 0.0664614 0.00784314 0.239216 0.823529 0
0.0153921 0.027179 -0.067639 0.65098 0.619608 0.588235 1
0.014114 0.0361159 0.0173805 0.00784314 0.239216 0.823529 0
0.0134548 0.0267136 -0.125523 0.65098 0.619608 0.588235 1
0.0210246 0.0290688 -0.0917549 0.65098 0.619608 0.588235 1
0.0068138 0.0299356 0.0352472 0.00784314 0.239216 0.823529 0
0.017399 0.0380786 0.0257194 0.00784314 0.239216 0.823529 0
0.018151 0.0228064 -0.133846 0.65098 0.619608 0.588235 1
0.0260071 0.0198824 0.03439 0.00784314 0.239216 0.823529 0
0.00752094 0.025166 0.0719355 0.00784314 0.239216 0.823529 0
0.0077559 0.0292637 0.0264392 0.00784314 0.239216 0.823529 0
0.0171673 0.0175286 0.0498496 0.00784314 0.239216 0.823529 0
0.00733183 0.0253012 0.00884162 0.00784314 0.239216 0.823529 0
0.0304176 0.0294707 0.0302722 0.00784314 0.239216 0.823529 0
0.0166482 0.0380786 0.034728 0.00784314 0.239216 0.823529 0
0.0270718 0.0331868 0.0562544 0.00784314 0.239216 0.823529 0
0.0187329 0.0307635 -0.0371403 0.65098 0.619608 0.588235 1
0.0226237 0.0303155 -0.134921 0.65098 0.619608 0.588235 1
0.0134218 0.0391373 0.0809677 0.00784314 0.239216 0.823529 0
0.013301 0.0200033 0.0198961 0.00784314 0.239216 0.823529 0
0.021224 0.0284894 -0.0350075 0.65098 0.619608 0.588235 1
0.00851624 0.0313814 0.00987703 0.00784314 0.239216 0.823529 0
0.0163486 0.0175286 0.0715923 0.00784314 0.239216 0.823529 0
0.0210246 0.0290688 -0.0297327 0.65098 0.619608 0.588235 1
0.0257247 0.0201779 0.083905 0.00784314 0.239216 0.823529 0
0.0230681 0.0365989 0.0245312 0.00784314 0.239216 0.823529 0
0.00830927 0.0245587 0.0671986 0.00784314 0.239216 0.823529 0
0.0155546 0.0289675 -0.0496976 0.65098 0.619608 0.588235 1
0.00642781 0.0296595 0.00523912 0.00784314 0.239216 0.823529 0
0.00778159 0.0292637 0.0117237 0.00784314 0.239216 0.823529 0
0.0136243 0.0391324 0.049997 0.00784314 0.239216 0.823529 0
0.0290673 0.0251359 0.050614 0.00784314 0.239216 0.823529 0
0.0166707 0.0253012 -0.0130549 0.65098 0.619608 0.588235 1
0.027676 0.0321402 0.0309312 0.00784314 0.239216 0.823529 0
0.0247388 0.0383997 0.0433781 0.00784314 0.239216 0.823529 0
0.0143716 0.0247324 -0.12563 0.65098 0.619608 0.588235 1
0.0303998 0.0294922 0.0614913 0.00784314 0.239216 0.823529 0
0.0182014 0.0380786 0.0528073 0.00784314 0.239216 0.823529 0
0.0260111 0.0356838 0.0655503 0.00784314 0.239216 0.823529 0
0.0276998 0.032099 0.0541012 0.00784314 0.239216 0.823529 0
0.0212904 0.0281302 -0.0353667 0.65098 0.619608 0.588235 1
0.0286188 0.0257582 0.0120887 0.00784314 0.239216 0.823529 0
0.00773616 0.0250121 0.0561299 0.00784314 0.239216 0.823529 0
0.0261712 0.0208545 0.0546496 0.00784314 0.239216 0.823529 0
0.0275308 0.0323917 0.0423082 0.00784314 0.239216 0.823529 0
0.0212018 0.028585 -0.0202205 0.65098 0.619608 0.588235 1
0.015383 0.0272179 -0.0339021 0.65098 0.619608 0.588235 1
0.0158128 0.017414 0.0759764 0.00784314 0.239216 0.823529 0
0.0116324 0.0374161 0.0828423 0.00784314 0.239216 0.823529 0
0.00711214 0.0301489 0.0775741 0.00784314 0.239216 0.823529 0
0.0220669 0.0366785 0.0229875 0.00784314 0.239216 0.823529 0
0.0155454 0.0180699 0.0132451 0.00784314 0.239216 0.823529 0
0.0212854 0.0282213 -0.0257497 0.65098 0.619608 0.588235 1
0.0210246 0.0290688 -0.093229 0.65098 0.619608 0.588235 1
0.0189536 0.030733 -0.0253168 0.65098 0.619608 0.588235 1
0.0301886 0.0259377 0.0682493 0.00784314 0.239216 0.823529 0
0.0293635 0.0261562 0.0276133 0.00784314 0.239216 0.823529 0
0.0105317 0.0349394 0.0309158 0.00784314 0.239216 0.823529 0
0.0258725 0.0185023 0.0423429 0.00784314 0.239216 0.823529 0
0.00963709 0.0222845 0.056545 0.00784314 0.239216 0.823529 0
0.0178975 0.0248438 -0.077273 0.65098 0.619608 0.588235 1
0.0201829 0.0380786 0.0115612 0.00784314 0.239216 0.823529 0
0.013779 0.0376033 0.00163721 0.00784314 0.239216 0.823529 0
0.0211496 0.0287761 -0.0604161 0.65098 0.619608 0.588235 1
0.0196755 0.0380786 0.0749191 0.00784314 0.239216 0.823529 0
0.0229023 0.0346825 0.0856989 0.00784314 0.239216 0.823529 0
0.0210063 0.0291116 -0.0980653 0.65098 0.619608 0.588235 1
0.0306723 0.0287719 0.0370036 0.00784314 0.239216 0.823529 0
0.0174887 0.0306797 -0.0609483 0.65098 0.619608 0.588235 1
0.020306 0.0255735 -0.103857 0.65098 0.619608 0.588235 1
0.0158774 0.0300342 -0.105987 0.65098 0.619608 0.588235 1
0.0202662 0.0255362 -0.0276787 0.65098 0.619608 0.588235 1
0.016416 0.0266051 0.0878749 0.00784314 0.239216 0.823529 0
0.0209848 0.029162 -0.0151713 0.65098 0.619608 0.588235 1
0.0126857 0.033071 0.0860297 0.00784314 0.239216 0.823529 0
0.0306876 0.027179 0.0520264 0.00784314 0.239216 0.823529 0
0.0257696 0.036703 0.00948509 0.00784314 0.239216 0.823529 0
0.00687621 0.0294707 0.0830033 0.00784314 0.239216 0.823529 0
0.0269038 0.0221295 0.0637168 0.00784314 0.239216 0.823529 0
0.0166482 0.0175286 0.0338513 0.00784314 0.239216 0.823529 0
0.0275534 0.0316979 0.0135196 0.00784314 0.239216 0.823529 0
0.0212751 0.0273859 -0.0558595 0.65098 0.619608 0.588235 1
0.025182 0.0174903 0.0507387 0.00784314 0.239216 0.823529 0
0.0306876 0.027179 0.0515715 0.00784314 0.239216 0.823529 0
0.0143896 0.0366203 0.0230457 0.00784314 0.239216 0.823529 0
0.02391 0.0167503 0.0389023 0.00784314 0.239216 0.823529 0
0.026496 0.0214233 0.0316324 0.00784314 0.239216 0.823529 0
0.0147704 0.0169405 0.0434396 0.00784314 0.239216 0.823529 0
0.0145161 0.0384884 0.0101334 0.00784314 0.239216 0.823529 0
0.0276485 0.024991 0.0234072 0.00784314 0.239216 0.823529 0
0.0219794 0.0263534 -0.107042 0.65098 0.619608 0.588235 1
0.0207311 0.0381563 0.0613109 0.00784314 0.239216 0.823529 0
0.0102974 0.0344664 0.0284603 0.00784314 0.239216 0.823529 0
0.0137281 0.0258624 -0.118126 0.65098 0.619608 0.588235 1
0.0210033 0.0173296 0.0762469 0.00784314 0.239216 0.823529 0
0.0194137 0.0305935 -0.0783586 0.65098 0.619608 0.588235 1
0.0154138 0.027086 -0.0116436 0.65098 0.619608 0.588235 1
0.0195463 0.0250797 -0.0211868 0.65098 0.619608 0.588235 1
0.00592315 0.0276237 0.0759709 0.00784314 0.239216 0.823529 0
0.0106232 0.0357248 0.047402 0.00784314 0.239216 0.823529 0
0.0227043 0.016557 0.073668 0.00784314 0.239216 0.823529 0
0.0231093 0.0164697 0.0588168 0.00784314 0.239216 0.823529 0
0.0230194 0.0294707 -0.126465 0.65098 0.619608 0.588235 1
0.0212751 0.0273859 -0.0243139 0.65098 0.619608 0.588235 1
0.0166482 0.0379757 0.00134535 0.00784314 0.239216 0.823529 0
0.0150678 0.024013 -0.128279 0.65098 0.619608 0.588235 1
0.00739573 0.0252555 0.00745636 0.00784314 0.239216 0.823529 0
0.0249871 0.0382413 0.0767951 0.00784314 0.239216 0.823529 0
0.0130741 0.0390408 0.0595688 0.00784314 0.239216 0.823529 0
0.0267144 0.0338057 0.0693458 0.00784314 0.239216 0.823529 0
0.0114038 0.0380885 0.0753416 0.00784314 0.239216 0.823529 0
0.0165548 0.0180708 0.0140465 0.00784314 0.239216 0.823529 0
0.0114963 0.020987 0.0150931 0.00784314 0.239216 0.823529 0
0.0209643 0.0287873 -0.138098 0.65098 0.619608 0.588235 1
0.0165901 0.0253617 -0.0943068 0.65098 0.619608 0.588235 1
0.0238516 0.0353937 0.0849271 0.00784314 0.239216 0.823529 0
0.0232144 0.0329465 0.0863489 0.00784314 0.239216 0.823529 0
0.0224948 0.030513 -0.116553 0.65098 0.619608 0.588235 1
0.0184604 0.0228232 -0.118003 0.65098 0.619608 0.588235 1
0.0147704 0.0243019 -0.120564 0.65098 0.619608 0.588235 1
0.0304058 0.0261366 0.0818311 0.00784314 0.239216 0.823529 0
0.0110642 0.0378463 0.0675175 0.00784314 0.239216 0.823529 0
0.0166647 0.0302952 -0.0530993 0.65098 0.619608 0.588235 1
0.0248393 0.0383356 0.072834 0.00784314 0.239216 0.823529 0
0.0189384 0.0380786 0.0626612 0.00784314 0.239216 0.823529 0
0.0196755 0.0304647 -0.0990272 0.65098 0.619608 0.588235 1
0.0254724 0.0176822 0.0397334 0.00784314 0.239216 0.823529 0
0.00793254 0.0307357 0.0277521 0.00784314 0.239216 0.823529 0
0.0306197 0.02661 0.0298852 0.00784314 0.239216 0.823529 0
0.0166649 0.0302953 -0.0745319 0.65098 0.619608 0.588235 1
0.00830927 0.0245569 0.0025805 0.00784314 0.239216 0.823529 0
0.01796 0.0175286 0.0411479 0.00784314 0.239216 0.823529 0
0.0283211 0.0310487 0.0640798 0.00784314 0.239216 0.823529 0
0.0157612 0.0293753 -0.0652345 0.65098 0.619608 0.588235 1
0.0209643 0.0173473 0.00890126 0.00784314 0.239216 0.823529 0
0.0259388 0.0191817 0.0347099 0.00784314 0.239216 0.823529 0
0.0306072 0.0264569 0.0492905 0.00784314 0.239216 0.823529 0
0.0158011 0.0261877 -0.010775 0.65098 0.619608 0.588235 1
0.00897063 0.0237537 0.0130041 0.00784314 0.239216 0.823529 0
0.0212751 0.0273859 -0.0578773 0.65098 0.619608 0.588235 1
0.012235 0.0386046 0.071901 0.00784314 0.239216 0.823529 0
0.0306995 0.0281583 0.0405381 0.00784314 0.239216 0.823529 0
0.0181203 0.0372332 0.0164858 0.00784314 0.239216 0.823529 0
0.0281141 0.0313814 0.0757492 0.00784314 0.239216 0.823529 0
0.0266797 0.0338659 0.0688424 0.00784314 0.239216 0.823529 0
0.0161598 0.0276854 0.0878873 0.00784314 0.239216 0.823529 0
0.0174869 0.0306792 -0.0195506 0.65098 0.619608 0.588235 1
0.00851403 0.0313775 0.0651415 0.00784314 0.239216 0.823529 0
0.0264337 0.0342919 0.0831757 0.00784314 0.239216 0.823529 0
0.0157649 0.0367281 0.0182431 0.00784314 0.239216 0.823529 0
0.0273052 0.0228247 0.0383529 0.00784314 0.239216 0.823529 0
0.0220669 0.0324461 0.0868789 0.00784314 0.239216 0.823529 0
0.0178975 0.0175286 0.0719125 0.00784314 0.239216 0.823529 0
0.024148 0.016874 0.0504553 0.00784314 0.239216 0.823529 0
0.0248743 0.0177593 0.0825109 0.00784314 0.239216 0.823529 0
0.0104221 0.0346825 0.0759846 0.00784314 0.239216 0.823529 0
0.0197258 0.0175296 0.00174511 0.00784314 0.239216 0.823529 0
0.0230291 0.036129 0.0226781 0.00784314 0.239216 0.823529 0
0.00594695 0.027086 0.03258 0.00784314 0.239216 0.823529 0
0.00593367 0.0273859 0.00581741 0.00784314 0.239216 0.823529 0
0.00969116 0.0221909 0.0738102 0.00784314 0.239216 0.823529 0
0.0199822 0.0302891 -0.0307751 0.65098 0.619608 0.588235 1
0.0141844 0.0305976 -0.11836 0.65098 0.619608 0.588235 1
0.0241096 0.0351644 0.0211844 0.00784314 0.239216 0.823529 0
0.0171716 0.0380786 0.0480681 0.00784314 0.239216 0.823529 0
0.0234613 0.0334331 0.0860756 0.00784314 0.239216 0.823529 0
0.0128536 0.0389262 0.0552898 0.00784314 0.239216 0.823529 0
0.0196755 0.0380786 0.0469108 0.00784314 0.239216 0.823529 0
0.0209257 0.0263436 -0.0826862 0.65098 0.619608 0.588235 1
0.0183487 0.0248124 -0.0341374 0.65098 0.619608 0.588235 1
0.0158128 0.0373618 0.023985 0.00784314 0.239216 0.823529 0
0.0206727 0.0174736 0.0486514 0.00784314 0.239216 0.823529 0
0.0156058 0.0290686 -0.00448881 0.65098 0.619608 0.588235 1
0.0246548 0.0347229 0.00049578 0.00784314 0.239216 0.823529 0
0.0163861 0.0300915 -0.0366464 0.65098 0.619608 0.588235 1
0.0151068 0.0170933 0.00696317 0.00784314 0.239216 0.823529 0
0.0172821 0.0306121 -0.0864842 0.65098 0.619608 0.588235 1
0.0306111 0.0291394 0.0655901 0.00784314 0.239216 0.823529 0
0.0134312 0.0391373 0.0527878 0.00784314 0.239216 0.823529 0
0.0290021 0.0305181 0.0351007 0.00784314 0.239216 0.823529 0
0.0134127 0.0268942 -0.125928 0.65098 0.619608 0.588235 1
0.0183122 0.0248104 -0.0920476 0.65098 0.619608 0.588235 1
0.00607105 0.0263436 0.0318323 0.00784314 0.239216 0.823529 0
0.0166482 0.0325079 -0.118255 0.65098 0.619608 0.588235 1
0.0214957 0.0277931 -0.13819 0.65098 0.619608 0.588235 1
0.0107124 0.0366393 0.0556372 0.00784314 0.239216 0.823529 0
0.0224384 0.0249996 -0.123123 0.65098 0.619608 0.588235 1
0.0156058 0.0290686 -0.0251265 0.65098 0.619608 0.588235 1
0.0301164 0.0286841 0.0288465 0.00784314 0.239216 0.823529 0
0.0159269 0.0381454 0.0567221 0.00784314 0.239216 0.823529 0
0.0116433 0.0382413 0.0317435 0.00784314 0.239216 0.823529 0
0.0158438 0.0261222 -0.0335752 0.65098 0.619608 0.588235 1
0.0146535 0.0387199 0.0434518 0.00784314 0.239216 0.823529 0
0.0168551 0.0180913 0.0846169 0.00784314 0.239216 0.823529 0
0.0213746 0.0317353 -0.134804 0.65098 0.619608 0.588235 1
0.0106844 0.0193501 0.0826391 0.00784314 0.239216 0.823529 0
0.030585 0.0263956 0.0699678 0.00784314 0.239216 0.823529 0
0.0204506 0.0298955 -0.0850421 0.65098 0.619608 0.588235 1
0.0274059 0.0325977 0.0126462 0.00784314 0.239216 0.823529 0
0.0124787 0.0168759 0.0348937 0.00784314 0.239216 0.823529 0
0.0211774 0.0172505 0.0345376 0.00784314 0.239216 0.823529 0
0.00983158 0.0219477 0.050334 0.00784314 0.239216 0.823529 0
0.0098327 0.0219457 0.0100431 0.00784314 0.239216 0.823529 0
0.0100888 0.0233978 0.0171736 0.00784314 0.239216 0.823529 0
0.0272966 0.0228099 0.0754759 0.00784314 0.239216 0.823529 0
0.0201386 0.0254249 -0.0973296 0.65098 0.619608 0.588235 1
0.0204293 0.0368141 0.0187222 0.00784314 0.239216 0.823529 0
0.0114664 0.0376026 0.00904164 0.00784314 0.239216 0.823529 0
0.0259231 0.0190205 0.0822136 0.00784314 0.239216 0.823529 0
0.0193412 0.0249921 -0.0995709 0.65098 0.619608 0.588235 1
0.0210993 0.0266864 -0.066191 0.65098 0.619608 0.588235 1
0.006068 0.0263489 0.0701701 0.00784314 0.239216 0.823529 0
0.0153223 0.0279478 -0.0225747 0.65098 0.619608 0.588235 1
0.00899028 0.0234049 0.0465884 0.00784314 0.239216 0.823529 0
0.0258778 0.0370512 0.0560613 0.00784314 0.239216 0.823529 0
0.00685274 0.0299634 0.0417514 0.00784314 0.239216 0.823529 0
0.0116433 0.0199498 0.0254439 0.00784314 0.239216 0.823529 0
0.0129678 0.0167633 0.0296356 0.00784314 0.239216 0.823529 0
0.00784626 0.030674 0.0470376 0.00784314 0.239216 0.823529 0
0.020743 0.0260597 -0.0619189 0.65098 0.619608 0.588235 1
0.00640839 0.0296456 0.036592 0.00784314 0.239216 0.823529 0
0.0122856 0.0183147 0.0103312 0.00784314 0.239216 0.823529 0
0.0114364 0.0348418 0.0142534 0.00784314 0.239216 0.823529 0
0.0262082 0.0209248 0.0548266 0.00784314 0.239216 0.823529 0
0.0255888 0.0363823 0.027764 0.00784314 0.239216 0.823529 0
0.0171074 0.0175286 0.0458169 0.00784314 0.239216 0.823529 0
0.00863651 0.0315897 0.0311873 0.00784314 0.239216 0.823529 0
0.0245748 0.017103 0.0351007 0.00784314 0.239216 0.823529 0
0.0218867 0.0386789 0.0314325 0.00784314 0.239216 0.823529 0
0.016773 0.0252347 -0.100175 0.65098 0.619608 0.588235 1
0.0292982 0.0282213 0.0109194 0.00784314 0.239216 0.823529 0
0.00861672 0.0240519 0.0611597 0.00784314 0.239216 0.823529 0
0.0270684 0.0331926 0.0419337 0.00784314 0.239216 0.823529 0
0.0229023 0.0258364 -0.10916 0.65098 0.619608 0.588235 1
0.0276607 0.0250162 0.0234324 0.00784314 0.239216 0.823529 0
0.0208614 0.0382132 0.0747104 0.00784314 0.239216 0.823529 0
0.0134863 0.029044 -0.112617 0.65098 0.619608 0.588235 1
0.0229023 0.0391147 0.0684562 0.00784314 0.239216 0.823529 0
0.0233555 0.0391114 0.0799844 0.00784314 0.239216 0.823529 0
0.017166 0.0305625 -0.0266205 0.65098 0.619608 0.588235 1
0.0171664 0.0305627 -0.044904 0.65098 0.619608 0.588235 1
0.0157902 0.0262044 -0.0207882 0.65098 0.619608 0.588235 1
0.0183796 0.0327955 -0.109633 0.65098 0.619608 0.588235 1
0.0103225 0.0345098 0.0702812 0.00784314 0.239216 0.823529 0
0.0239515 0.0203256 0.0212066 0.00784314 0.239216 0.823529 0
0.0301989 0.0296622 0.0553566 0.00784314 0.239216 0.823529 0
0.0154955 0.0288037 -0.020732 0.65098 0.619608 0.588235 1
0.0265681 0.0215481 0.00476311 0.00784314 0.239216 0.823529 0
0.00762123 0.0250942 0.0674139 0.00784314 0.239216 0.823529 0
0.0153324 0.0276155 -0.0384146 0.65098 0.619608 0.588235 1
0.0169229 0.0380786 0.0736407 0.00784314 0.239216 0.823529 0
0.0187921 0.0228413 -0.132049 0.65098 0.619608 0.588235 1
0.0280137 0.0315554 0.0569903 0.00784314 0.239216 0.823529 0
0.0168551 0.0251931 -0.0555848 0.65098 0.619608 0.588235 1
0.0301989 0.0259451 0.0508954 0.00784314 0.239216 0.823529 0
0.0277831 0.0319547 0.0296819 0.00784314 0.239216 0.823529 0
0.0125979 0.0357248 0.0846522 0.00784314 0.239216 0.823529 0
0.0107831 0.0189414 0.0826252 0.00784314 0.239216 0.823529 0
0.0272742 0.0328361 0.0356746 0.00784314 0.239216 0.823529 0
0.00592058 0.0276819 0.0425956 0.00784314 0.239216 0.823529 0
0.0108852 0.0180047 0.0317666 0.00784314 0.239216 0.823529 0
0.0184998 0.0175286 0.0354163 0.00784314 0.239216 0.823529 0
0.0270419 0.0223687 0.0317666 0.00784314 0.239216 0.823529 0
0.0228828 0.017261 0.00985726 0.00784314 0.239216 0.823529 0
0.0260363 0.0201817 0.0830493 0.00784314 0.239216 0.823529 0
0.00597345 0.026653 0.0546986 0.00784314 0.239216 0.823529 0
0.00733183 0.0253012 0.00655885 0.00784314 0.239216 0.823529 0
0.00594943 0.0285775 0.0302365 0.00784314 0.239216 0.823529 0
0.0274338 0.0325597 0.0623325 0.00784314 0.239216 0.823529 0
0.0153921 0.027179 -0.0847709 0.65098 0.619608 0.588235 1
0.0230653 0.0391378 0.0741143 0.00784314 0.239216 0.823529 0
0.0163956 0.0301004 -0.0306707 0.65098 0.619608 0.588235 1
0.00969026 0.0221924 0.0728525 0.00784314 0.239216 0.823529 0
0.0270718 0.0325828 0.0244277 0.00784314 0.239216 0.823529 0
0.013363 0.0271411 -0.127751 0.65098 0.619608 0.588235 1
0.0268468 0.0315554 0.0205759 0.00784314 0.239216 0.823529 0
0.00955861 0.0224205 0.059075 0.00784314 0.239216 0.823529 0
0.0259252 0.0365649 0.0732212 0.00784314 0.239216 0.823529 0
0.0169629 0.0251385 -0.0498529 0.65098 0.619608 0.588235 1
0.0130384 0.0342579 0.0856534 0.00784314 0.239216 0.823529 0
0.00593875 0.0272713 0.0500842 0.00784314 0.239216 0.823529 0
0.00849722 0.0242589 0.0411479 0.00784314 0.239216 0.823529 0
0.00950378 0.0330918 0.0680683 0.00784314 0.239216 0.823529 0
0.0153468 0.0273733 -0.00898267 0.65098 0.619608 0.588235 1
0.0257535 0.0375883 0.070541 0.00784314 0.239216 0.823529 0
0.0238462 0.0388901 0.0614004 0.00784314 0.239216 0.823529 0
0.0153553 0.0282213 -0.0411416 0.65098 0.619608 0.588235 1
0.0106179 0.0356705 0.0768362 0.00784314 0.239216 0.823529 0
0.0208176 0.0261592 -0.00638119 0.65098 0.619608 0.588235 1
0.0174867 0.0175286 0.0390632 0.00784314 0.239216 0.823529 0
0.0177688 0.0248593 -0.0550263 0.65098 0.619608 0.588235 1
0.00830927 0.0250942 0.00127993 0.00784314 0.239216 0.823529 0
0.0102031 0.0213042 0.0515512 0.00784314 0.239216 0.823529 0
0.0101111 0.0261071 -0.000345867 0.00784314 0.239216 0.823529 0
0.0107744 0.0183528 0.0630698 0.00784314 0.239216 0.823529 0
0.0163956 0.0301004 -0.0952971 0.65098 0.619608 0.588235 1
0.0200439 0.0310322 -0.000345867 0.00784314 0.239216 0.823529 0
0.0257399 0.0376117 0.0731609 0.00784314 0.239216 0.823529 0
0.0140465 0.0366753 0.023885 0.00784314 0.239216 0.823529 0
0.0212961 0.0280255 -0.0782209 0.65098 0.619608 0.588235 1
0.0093962 0.0316231 0.014833 0.00784314 0.239216 0.823529 0
0.0107603 0.0184772 0.0456803 0.00784314 0.239216 0.823529 0
0.0191244 0.0380786 0.0733478 0.00784314 0.239216 0.823529 0
0.0142767 0.0269811 -0.107274 0.65098 0.619608 0.588235 1
0.0272787 0.022779 0.0342315 0.00784314 0.239216 0.823529 0
0.0106031 0.0355179 0.0646653 0.00784314 0.239216 0.823529 0
0.0217485 0.0335732 0.0865318 0.00784314 0.239216 0.823529 0
0.0207494 0.029542 -0.092605 0.65098 0.619608 0.588235 1
0.0258699 0.0184753 0.0673591 0.00784314 0.239216 0.823529 0
0.010358 0.0345713 0.0722435 0.00784314 0.239216 0.823529 0
0.0200158 0.0373366 0.000714389 0.00784314 0.239216 0.823529 0
0.0114364 0.0174979 0.0689825 0.00784314 0.239216 0.823529 0
0.00935163 0.0243491 0.000653469 0.00784314 0.239216 0.823529 0
0.0260988 0.02067 0.00263779 0.00784314 0.239216 0.823529 0
0.0245745 0.0171033 0.00799928 0.00784314 0.239216 0.823529 0
0.0153693 0.0283372 -0.0618977 0.65098 0.619608 0.588235 1
0.0123126 0.0386449 0.0632444 0.00784314 0.239216 0.823529 0
0.0126857 0.0167684 0.0591155 0.00784314 0.239216 0.823529 0
0.0219265 0.0188319 0.0231446 0.00784314 0.239216 0.823529 0
0.0115532 0.0216212 -0.000339609 0.00784314 0.239216 0.823529 0
0.0240131 0.0221741 -0.000345867 0.00784314 0.239216 0.823529 0
0.0135354 0.0391377 0.0673812 0.00784314 0.239216 0.823529 0
0.0156065 0.0265369 -0.103541 0.65098 0.619608 0.588235 1
0.0174311 0.0249488 -0.0364103 0.65098 0.619608 0.588235 1
0.0130558 0.016829 0.00278747 0.00784314 0.239216 0.823529 0
0.0135211 0.0322963 -0.000345867 0.00784314 0.239216 0.823529 0
0.0305593 0.0263436 0.0684062 0.00784314 0.239216 0.823529 0
0.0069912 0.0282814 0.00208856 0.00784314 0.239216 0.823529 0
0.0136326 0.0260858 -0.126889 0.65098 0.619608 0.588235 1
0.0189825 0.0380786 0.00389792 0.00784314 0.239216 0.823529 0
0.0127389 0.0354773 0.000621491 0.00784314 0.239216 0.823529 0
0.0206347 0.029699 -0.093353 0.65098 0.619608 0.588235 1
0.0102917 0.0344566 0.0284504 0.00784314 0.239216 0.823529 0
