ply
format ascii 1.0
comment Created by Open3D
element vertex 794
property float32 x
property float32 y
property float32 z
property float32 red
property float32 green
property float32 blue
property uint8 segmentation
end_header
0.0903637 0.00131789 0.00496168 0.792157 0.819608 0.933333 1
0.0309094 0.0171875 0.00197818 0.898039 0.898039 0.898039 8
0.0374263 0.0261167 -0.00103269 0.898039 0.898039 0.898039 5
0.0214823 -0.00379468 -0.00538311 0.792157 0.819608 0.933333 1
0.139341 0.0183915 0.00508 0.25098 0.25098 0.25098 0
0.0520976 -0.00468547 -0.00458961 0.792157 0.819608 0.933333 1
0.0813788 0.0157742 0.004572 0.898039 0.898039 0.898039 5
0.00260607 -0.00453184 0.00180202 0.792157 0.819608 0.933333 1
0.0600264 0.015867 -0.00459356 0.898039 0.898039 0.898039 5
0.0825119 -0.000139351 -0.00735435 0.792157 0.819608 0.933333 1
0.0950809 -0.0365427 0.00208658 0.792157 0.819608 0.933333 1
0.0868205 0.0266439 -9.46521e-05 0.898039 0.898039 0.898039 3
0.10614 0.0345117 -0.002413 0.898039 0.898039 0.898039 3
0.0277851 -0.00041566 0.00619514 0.792157 0.819608 0.933333 1
0.0695145 0.0257811 9.02364e-05 0.898039 0.898039 0.898039 5
0.072284 -0.00597211 0.00426327 0.792157 0.819608 0.933333 1
-0.01524 0.00504398 0.000636786 0.792157 0.819608 0.933333 2
-0.0142234 -0.00669495 0.00361456 0.792157 0.819608 0.933333 2
0.0974182 0.0274004 0.002413 0.898039 0.898039 0.898039 3
-0.00267707 0.0228855 -0.00279773 0.898039 0.898039 0.898039 8
0.0290256 -0.00329282 0.00521554 0.792157 0.819608 0.933333 1
0.051803 -0.000290374 0.00568743 0.792157 0.819608 0.933333 1
0.154684 -0.00968818 0.000245986 0.25098 0.25098 0.25098 4
0.0425995 0.0179489 0.00245438 0.898039 0.898039 0.898039 8
0.106774 0.0446174 0.002413 0.898039 0.898039 0.898039 3
0.130882 -0.0402 -0.00157079 0.792157 0.819608 0.933333 1
0.149631 0.00801164 0.00116825 0.25098 0.25098 0.25098 0
0.0174142 0.0201787 -0.003175 0.898039 0.898039 0.898039 8
0.0598719 0.00579147 0.00630964 0.792157 0.819608 0.933333 1
0.137038 0.0393102 0.002413 0.898039 0.898039 0.898039 3
0.0568014 -0.00512167 0.00405077 0.792157 0.819608 0.933333 1
0.0465145 0.00232372 0.00570002 0.792157 0.819608 0.933333 1
0.124367 0.0466875 0.000262586 0.898039 0.898039 0.898039 3
0.0265652 0.0268369 -0.0052964 0.898039 0.898039 0.898039 5
0.0719711 0.00838734 -0.00635328 0.792157 0.819608 0.933333 1
0.000921777 0.0316179 0.000245986 0.898039 0.898039 0.898039 5
0.000345571 0.0228614 0.00480688 0.898039 0.898039 0.898039 8
0.0209871 0.0213697 -0.003175 0.898039 0.898039 0.898039 8
0.028976 0.0272784 -0.00175064 0.898039 0.898039 0.898039 5
0.0179237 0.028988 -0.00076337 0.898039 0.898039 0.898039 5
0.0976976 0.0436329 0.00197187 0.898039 0.898039 0.898039 3
0.000456546 -0.000357788 0.00492426 0.792157 0.819608 0.933333 1
0.0974829 -0.0361081 0.002413 0.792157 0.819608 0.933333 1
0.0373128 0.00742592 0.002286 0.898039 0.898039 0.898039 7
0.0950859 0.0289001 0.002413 0.898039 0.898039 0.898039 3
0.0709684 0.00880378 -0.00480688 0.792157 0.819608 0.933333 1
0.091655 -0.0294575 -0.002413 0.792157 0.819608 0.933333 1
0.0532285 -0.00418701 0.00524174 0.792157 0.819608 0.933333 1
0.0996088 -0.0179186 -0.002413 0.792157 0.819608 0.933333 1
0.0955945 0.038398 -0.002413 0.898039 0.898039 0.898039 3
0.0883924 0.0312453 -0.00193831 0.898039 0.898039 0.898039 3
0.123922 -0.0398387 0.00117247 0.792157 0.819608 0.933333 1
0.00646661 -0.0003664 -0.00495389 0.792157 0.819608 0.933333 1
0.0676955 0.0249975 -0.00390792 0.898039 0.898039 0.898039 5
-0.000762511 0.0210764 0.00715908 0.898039 0.898039 0.898039 8
0.000921777 0.00321806 0.00373622 0.792157 0.819608 0.933333 1
0.0770525 0.00587878 0.00593292 0.792157 0.819608 0.933333 1
0.00195561 -0.00422695 -0.0024604 0.792157 0.819608 0.933333 1
0.141864 0.00478977 0.00649117 0.25098 0.25098 0.25098 0
0.12278 -0.0485497 0.002413 0.792157 0.819608 0.933333 1
0.143365 -0.04919 0.000245986 0.792157 0.819608 0.933333 1
0.0545551 0.0215293 -0.00491689 0.898039 0.898039 0.898039 5
0.149139 -0.0274463 -0.002413 0.792157 0.819608 0.933333 1
0.0317677 0.0198309 0.005842 0.898039 0.898039 0.898039 5
0.0982481 -0.00825246 0.00361456 0.792157 0.819608 0.933333 1
0.115453 0.0465697 -0.0014383 0.898039 0.898039 0.898039 3
0.0177647 0.0232136 0.005842 0.898039 0.898039 0.898039 5
0.0239905 0.00439157 -0.00473944 0.792157 0.819608 0.933333 1
0.0706694 0.00185794 0.0054538 0.792157 0.819608 0.933333 1
-0.01016 -0.00633577 0.00122401 0.792157 0.819608 0.933333 2
0.0687853 0.000825917 0.00542542 0.792157 0.819608 0.933333 1
0.0542287 0.0210374 0.0049373 0.898039 0.898039 0.898039 5
0.0863878 0.0237552 0.002794 0.898039 0.898039 0.898039 5
0.125097 -0.0500886 -0.002413 0.792157 0.819608 0.933333 1
0.147947 0.0158393 -0.00508 0.25098 0.25098 0.25098 0
0.130363 -0.040194 -0.00233309 0.792157 0.819608 0.933333 1
0.0288244 0.00637075 -0.000106746 0.898039 0.898039 0.898039 7
0.0230892 0.0230154 -0.005842 0.898039 0.898039 0.898039 5
0.0545494 0.00430545 0.0059595 0.792157 0.819608 0.933333 1
0.110534 0.0375619 -0.002413 0.898039 0.898039 0.898039 3
0.0683632 0.00158155 -0.00546665 0.792157 0.819608 0.933333 1
0.0334152 0.00805504 -0.002286 0.898039 0.898039 0.898039 7
0.0131455 -0.00483167 -0.0042261 0.792157 0.819608 0.933333 1
0.0974182 -0.0400844 -0.00145515 0.792157 0.819608 0.933333 1
0.0926454 0.0395645 -0.0014383 0.898039 0.898039 0.898039 3
0.0992433 0.00729048 -0.00321135 0.792157 0.819608 0.933333 1
0.0935576 -0.0155366 -0.002413 0.792157 0.819608 0.933333 1
0.0434371 0.0150496 -0.000410073 0.898039 0.898039 0.898039 7
0.137841 0.00949601 -0.00508 0.25098 0.25098 0.25098 0
0.121872 -0.0436506 0.002413 0.792157 0.819608 0.933333 1
0.0201939 0.00476576 -0.00354809 0.792157 0.819608 0.933333 1
0.0262585 -0.000364319 -0.00461004 0.792157 0.819608 0.933333 1
0.0654167 0.0128858 0.004572 0.898039 0.898039 0.898039 5
0.0581876 -0.00367035 0.00570442 0.792157 0.819608 0.933333 1
0.147455 -0.0207735 -0.00508 0.25098 0.25098 0.25098 4
0.0786465 -0.00672085 0.00361456 0.792157 0.819608 0.933333 1
0.0851362 0.00637075 0.00562213 0.792157 0.819608 0.933333 1
0.00678059 0.0289125 0.000396204 0.898039 0.898039 0.898039 5
0.0457348 0.00342863 -0.00562944 0.792157 0.819608 0.933333 1
0.100389 -0.0235026 0.002413 0.792157 0.819608 0.933333 1
0.0855814 0.00408078 0.0052947 0.792157 0.819608 0.933333 1
0.143299 0.0369282 0.002413 0.898039 0.898039 0.898039 3
0.0464305 0.0241563 0.00558962 0.898039 0.898039 0.898039 5
0.0345208 0.00682234 -0.002286 0.898039 0.898039 0.898039 7
0.0944119 0.0320884 -0.002413 0.898039 0.898039 0.898039 3
0.0107457 -0.00554533 0.00193027 0.792157 0.819608 0.933333 1
0.147691 -0.00821446 -0.00931092 0.25098 0.25098 0.25098 4
0.0182573 0.0264815 0.005842 0.898039 0.898039 0.898039 5
0.120681 -0.0409824 0.002413 0.792157 0.819608 0.933333 1
0.0822219 -0.00702429 -0.00019128 0.792157 0.819608 0.933333 1
0.0841631 0.00899615 0.001143 0.898039 0.898039 0.898039 3
0.00646661 0.0228746 0.00503301 0.898039 0.898039 0.898039 8
0.134472 0.00587878 0.00621472 0.25098 0.25098 0.25098 0
0.0974182 -0.0126484 0.002413 0.792157 0.819608 0.933333 1
0.142894 0.0125433 0.00661142 0.25098 0.25098 0.25098 0
0.0868205 0.0266439 -0.00142125 0.898039 0.898039 0.898039 3
0.118384 0.0466702 -0.000365238 0.898039 0.898039 0.898039 3
-0.00700769 -0.00206258 0.00241046 0.792157 0.819608 0.933333 2
0.0766267 0.0140899 0.004572 0.898039 0.898039 0.898039 5
0.152508 0.00807284 0.00382713 0.25098 0.25098 0.25098 0
-0.0114319 0.00745264 -0.00155621 0.792157 0.819608 0.933333 2
-0.01016 -0.000208259 -0.00420775 0.792157 0.819608 0.933333 2
0.132678 0.0447077 -0.002413 0.898039 0.898039 0.898039 3
-0.014742 -0.00721361 -0.00138918 0.792157 0.819608 0.933333 2
0.120998 -0.0446499 0.002413 0.792157 0.819608 0.933333 1
0.033785 0.0239093 -0.005842 0.898039 0.898039 0.898039 5
0.0733338 0.0061205 0.00613709 0.792157 0.819608 0.933333 1
0.0162576 0.0292457 -0.0014383 0.898039 0.898039 0.898039 5
0.112085 0.0361846 -0.000803293 0.898039 0.898039 0.898039 3
0.00597464 0.0214862 0.00533076 0.898039 0.898039 0.898039 8
0.090189 -0.0227541 -0.002413 0.792157 0.819608 0.933333 1
0.14121 -0.00955273 -0.00985069 0.25098 0.25098 0.25098 4
0.102677 0.0311769 -0.002413 0.898039 0.898039 0.898039 3
0.0320315 0.026822 -0.00124215 0.898039 0.898039 0.898039 5
0.0942304 0.0294588 -0.002413 0.898039 0.898039 0.898039 3
0.0564922 0.0140666 0.00469916 0.898039 0.898039 0.898039 5
0.0491993 -0.00495848 -0.00285554 0.792157 0.819608 0.933333 1
0.0334152 0.00587878 0.002286 0.898039 0.898039 0.898039 7
-0.0038936 0.0296912 0.00569009 0.898039 0.898039 0.898039 5
0.0454123 0.022695 -0.005842 0.898039 0.898039 0.898039 5
0.102341 0.0265822 0.00208214 0.898039 0.898039 0.898039 3
0.0419432 0.00533045 -0.00498257 0.792157 0.819608 0.933333 1
0.0257562 0.0181608 -0.003175 0.898039 0.898039 0.898039 8
0.0721538 0.00871226 -0.00529885 0.792157 0.819608 0.933333 1
0.0940496 0.0244059 0.002413 0.898039 0.898039 0.898039 3
0.0815787 0.00911211 0.0048754 0.792157 0.819608 0.933333 1
0.0321389 0.00810411 -0.000199193 0.898039 0.898039 0.898039 7
0.101979 0.0255234 0.000330057 0.898039 0.898039 0.898039 3
0.103249 -0.00867088 0.00355555 0.792157 0.819608 0.933333 1
0.0395378 0.00589772 0.00403394 0.792157 0.819608 0.933333 1
0.0913283 -0.0109303 -0.002413 0.792157 0.819608 0.933333 1
0.0990805 0.0060459 0.00487788 0.792157 0.819608 0.933333 1
0.0909833 -0.0115308 -0.002413 0.792157 0.819608 0.933333 1
0.0740423 0.000535241 0.0053138 0.792157 0.819608 0.933333 1
0.0915775 -0.00634575 -0.00480688 0.792157 0.819608 0.933333 1
0.0938339 0.0369336 -0.002413 0.898039 0.898039 0.898039 3
0.0986105 -0.0261227 -0.002413 0.792157 0.819608 0.933333 1
0.103011 0.00131789 0.00331707 0.792157 0.819608 0.933333 1
0.0629236 0.0248979 -0.00375764 0.898039 0.898039 0.898039 5
0.131201 -0.0497407 0.002413 0.792157 0.819608 0.933333 1
0.122191 -0.0504182 -0.00193027 0.792157 0.819608 0.933333 1
0.104788 0.0423194 -0.002413 0.898039 0.898039 0.898039 3
0.0644558 0.00743838 -0.00674371 0.792157 0.819608 0.933333 1
0.0447418 0.0159434 0.005842 0.898039 0.898039 0.898039 5
0.140718 0.00757045 -0.0102712 0.25098 0.25098 0.25098 0
0.100295 0.0218164 -0.002413 0.898039 0.898039 0.898039 3
0.0974182 0.0215293 -0.002413 0.898039 0.898039 0.898039 3
0.102044 -0.0115308 -0.002413 0.792157 0.819608 0.933333 1
0.0663781 0.0143002 -0.00473235 0.898039 0.898039 0.898039 5
0.0359228 0.0254672 0.00530543 0.898039 0.898039 0.898039 5
0.11099 -0.0402129 0.002413 0.792157 0.819608 0.933333 1
0.0888725 0.0062911 -0.00540305 0.792157 0.819608 0.933333 1
0.0357809 -0.00340004 -0.00505999 0.792157 0.819608 0.933333 1
0.0991024 -0.0362284 0.002413 0.792157 0.819608 0.933333 1
0.0163437 0.0245497 -0.005842 0.898039 0.898039 0.898039 5
0.075134 0.0260756 0.00193027 0.898039 0.898039 0.898039 5
0.0628739 0.00756307 -0.0067856 0.792157 0.819608 0.933333 1
0.0271573 0.0249826 -0.005842 0.898039 0.898039 0.898039 5
0.121114 0.0379854 0.002413 0.898039 0.898039 0.898039 3
0.141932 -0.0256307 -9.41238e-05 0.792157 0.819608 0.933333 1
0.0726424 0.0034152 -0.00560121 0.792157 0.819608 0.933333 1
0.102211 0.0280962 0.002413 0.898039 0.898039 0.898039 3
0.0127118 -0.000399997 -0.00633191 0.792157 0.819608 0.933333 1
0.138416 0.0231396 -0.00135428 0.898039 0.898039 0.898039 3
0.054819 0.0138374 0.0048278 0.898039 0.898039 0.898039 5
0.0141614 0.0046961 -0.0046926 0.792157 0.819608 0.933333 1
-0.011557 -0.000829395 0.00757342 0.792157 0.819608 0.933333 2
0.0996764 -0.00581654 0.00480805 0.792157 0.819608 0.933333 1
0.0212601 0.0284719 0.00110249 0.898039 0.898039 0.898039 5
0.0908306 0.0350158 -0.002413 0.898039 0.898039 0.898039 3
0.0736842 0.0159845 -0.004572 0.898039 0.898039 0.898039 5
0.100295 0.00203546 0.00476249 0.792157 0.819608 0.933333 1
0.00320768 0.0274444 0.00453247 0.898039 0.898039 0.898039 5
0.0911392 -0.00422695 0.00504135 0.792157 0.819608 0.933333 1
0.0281329 0.0189878 -0.003175 0.898039 0.898039 0.898039 8
0.00801444 0.0225607 -0.00458246 0.898039 0.898039 0.898039 8
0.032617 0.0232136 -0.005842 0.898039 0.898039 0.898039 5
0.0340878 0.0249426 -0.00572884 0.898039 0.898039 0.898039 5
0.0409258 -0.00512733 0.00187887 0.792157 0.819608 0.933333 1
0.0753053 0.0172416 -0.004572 0.898039 0.898039 0.898039 5
0.120506 0.0377321 0.002413 0.898039 0.898039 0.898039 3
0.0220246 0.0182784 -0.00144696 0.898039 0.898039 0.898039 8
0.0772924 0.0142763 0.004572 0.898039 0.898039 0.898039 5
0.0511301 0.00210907 0.00570494 0.792157 0.819608 0.933333 1
0.090189 0.00562732 -0.00527944 0.792157 0.819608 0.933333 1
0.0979765 0.0400565 -0.002413 0.898039 0.898039 0.898039 3
0.147455 0.00692154 0.00940418 0.25098 0.25098 0.25098 0
0.0235844 -0.00343954 0.0054736 0.792157 0.819608 0.933333 1
0.130612 -0.0463341 -0.002413 0.792157 0.819608 0.933333 1
0.0649247 0.00127591 0.00383585 0.792157 0.819608 0.933333 1
0.124292 -0.0408098 -0.002413 0.792157 0.819608 0.933333 1
0.138649 -0.0128834 0.00608545 0.25098 0.25098 0.25098 4
0.0400492 0.00481249 0.002286 0.898039 0.898039 0.898039 7
-0.00195483 0.0229666 -0.00748051 0.898039 0.898039 0.898039 8
0.0188914 0.0186632 -0.00156041 0.898039 0.898039 0.898039 8
0.13582 0.0109988 0.00284679 0.25098 0.25098 0.25098 0
0.0969203 0.00195438 0.00484357 0.792157 0.819608 0.933333 1
0.00607275 0.00429673 0.00243295 0.792157 0.819608 0.933333 1
0.0855465 -0.016017 0.000245986 0.792157 0.819608 0.933333 1
0.0483888 0.0163371 0.00564131 0.898039 0.898039 0.898039 5
0.0952603 0.00801066 -0.00515861 0.792157 0.819608 0.933333 1
0.0413447 0.0248979 0.00532327 0.898039 0.898039 0.898039 5
0.0931735 0.033664 0.002413 0.898039 0.898039 0.898039 3
0.146262 0.0157758 0.00508 0.25098 0.25098 0.25098 0
-0.0145001 -0.00759396 7.00383e-05 0.792157 0.819608 0.933333 2
0.115945 -0.0425581 0.002413 0.792157 0.819608 0.933333 1
0.0720759 -0.00448642 -0.00186922 0.792157 0.819608 0.933333 1
0.0678316 -0.00588169 0.00317125 0.792157 0.819608 0.933333 1
0.0770479 -0.000224016 0.00525233 0.792157 0.819608 0.933333 1
0.0346075 -0.00558946 0.000388342 0.792157 0.819608 0.933333 1
0.0361122 -0.00541657 -0.0012708 0.792157 0.819608 0.933333 1
0.0822596 0.00229525 0.00649117 0.792157 0.819608 0.933333 1
0.147947 -0.0238512 -0.00508 0.25098 0.25098 0.25098 4
0.0610047 0.0192177 -0.00457813 0.898039 0.898039 0.898039 5
0.106871 -0.0441579 0.002413 0.792157 0.819608 0.933333 1
-0.005477 0.0246635 -0.00159997 0.898039 0.898039 0.898039 8
0.0595934 0.0171885 -0.00461137 0.898039 0.898039 0.898039 5
0.140718 0.0337261 -0.002413 0.898039 0.898039 0.898039 3
0.149631 0.00570966 0.00654792 0.25098 0.25098 0.25098 0
0.000921777 0.0228855 0.00296802 0.898039 0.898039 0.898039 8
0.0403766 0.0121898 0.002286 0.898039 0.898039 0.898039 7
-0.0103763 -0.0003664 -0.00759942 0.792157 0.819608 0.933333 2
0.0839788 -0.010191 -0.00192746 0.792157 0.819608 0.933333 1
0.147455 0.00545192 0.00190195 0.25098 0.25098 0.25098 0
0.0996764 0.0437386 0.002413 0.898039 0.898039 0.898039 3
0.102397 0.0274004 0.002413 0.898039 0.898039 0.898039 3
0.0198813 -0.00589301 0.00320022 0.792157 0.819608 0.933333 1
0.0944794 -0.0140338 0.002413 0.792157 0.819608 0.933333 1
0.142402 -0.0126484 -0.0101021 0.25098 0.25098 0.25098 4
0.136792 0.0183834 0.00222799 0.898039 0.898039 0.898039 3
0.090681 -0.0261227 0.002413 0.792157 0.819608 0.933333 1
0.0984854 -0.034439 0.002413 0.792157 0.819608 0.933333 1
-0.0108682 0.00657017 -0.00384035 0.792157 0.819608 0.933333 2
0.0805753 0.0176497 0.004572 0.898039 0.898039 0.898039 5
0.0362918 0.00973933 0.002286 0.898039 0.898039 0.898039 7
-0.00794409 -0.00210185 0.00237119 0.792157 0.819608 0.933333 2
0.0961034 -0.0286858 0.002413 0.792157 0.819608 0.933333 1
0.140471 -0.0216159 -0.00185564 0.792157 0.819608 0.933333 1
0.0857326 0.0236381 0.002794 0.898039 0.898039 0.898039 5
0.0196308 -0.00178917 0.00649117 0.792157 0.819608 0.933333 1
0.092281 0.00477366 0.00510199 0.792157 0.819608 0.933333 1
0.0269736 9.76137e-05 -0.00623464 0.792157 0.819608 0.933333 1
0.0883574 0.0311431 -0.000608155 0.898039 0.898039 0.898039 3
0.0556702 -0.00254639 -0.00353053 0.792157 0.819608 0.933333 1
0.0633912 -0.00543063 0.00419047 0.792157 0.819608 0.933333 1
0.141806 0.0440769 -0.00234808 0.898039 0.898039 0.898039 3
0.101376 0.0311431 -0.002413 0.898039 0.898039 0.898039 3
0.135552 0.00428911 0.00726157 0.25098 0.25098 0.25098 0
-0.01524 -0.00359468 0.00394255 0.792157 0.819608 0.933333 2
0.0345208 0.00312891 -0.00532972 0.792157 0.819608 0.933333 1
0.0745915 -0.00646026 -0.0028644 0.792157 0.819608 0.933333 1
0.00879541 -0.00441789 0.00312259 0.792157 0.819608 0.933333 1
0.135827 0.0109386 -0.0041407 0.25098 0.25098 0.25098 0
-0.01016 -0.00541926 0.00529885 0.792157 0.819608 0.933333 2
0.0230212 0.0278109 0.00481871 0.898039 0.898039 0.898039 5
0.0198813 0.0186962 0.003175 0.898039 0.898039 0.898039 8
0.00860387 0.000308631 -0.00533991 0.792157 0.819608 0.933333 1
0.0965135 0.00827009 -0.00510835 0.792157 0.819608 0.933333 1
0.136157 -0.0458422 -0.002413 0.792157 0.819608 0.933333 1
-0.01524 0.00313989 0.00604 0.792157 0.819608 0.933333 2
0.0517478 0.0193531 -0.00518729 0.898039 0.898039 0.898039 5
0.139926 -0.0205779 -0.00361456 0.25098 0.25098 0.25098 4
0.0904059 -0.00123485 0.00494273 0.792157 0.819608 0.933333 1
0.14121 -0.0434242 -0.002413 0.792157 0.819608 0.933333 1
0.0540716 0.0144925 -0.00490331 0.898039 0.898039 0.898039 5
0.0721258 0.0136442 0.00463463 0.898039 0.898039 0.898039 5
0.134472 -0.0497027 0.002413 0.792157 0.819608 0.933333 1
0.105163 -0.00880589 -0.000302731 0.792157 0.819608 0.933333 1
0.0624703 0.022854 -0.004572 0.898039 0.898039 0.898039 5
0.0885047 -0.0122886 0.002413 0.792157 0.819608 0.933333 1
0.00717767 -0.00346495 -0.00371914 0.792157 0.819608 0.933333 1
0.0680405 -0.00244973 -0.00565849 0.792157 0.819608 0.933333 1
0.0735151 0.0224088 0.004572 0.898039 0.898039 0.898039 5
0.0178472 0.0289672 -0.00393815 0.898039 0.898039 0.898039 5
0.0774869 0.00805504 0.00637651 0.792157 0.819608 0.933333 1
0.120506 0.044878 0.002413 0.898039 0.898039 0.898039 3
0.0782389 -0.00671558 0.00166883 0.792157 0.819608 0.933333 1
0.0736466 0.0245947 0.00438605 0.898039 0.898039 0.898039 5
0.0958777 -0.00524262 0.00321455 0.792157 0.819608 0.933333 1
0.0298685 0.00221778 0.00570122 0.792157 0.819608 0.933333 1
0.136908 0.0181608 0.00254876 0.25098 0.25098 0.25098 0
0.101651 -0.00194216 0.00471004 0.792157 0.819608 0.933333 1
0.101286 0.0234943 -0.00148554 0.898039 0.898039 0.898039 3
0.0719871 0.0143002 0.00494479 0.898039 0.898039 0.898039 5
0.0317309 0.00583597 0.002286 0.898039 0.898039 0.898039 7
0.0753176 0.00862304 -0.00604181 0.792157 0.819608 0.933333 1
0.0957339 0.0260902 0.002413 0.898039 0.898039 0.898039 3
0.0113561 0.0195884 -0.00221151 0.898039 0.898039 0.898039 8
0.0958311 -0.0318761 0.002413 0.792157 0.819608 0.933333 1
0.109253 0.0417408 0.002413 0.898039 0.898039 0.898039 3
-0.00315895 -0.00301792 -0.000957543 0.792157 0.819608 0.933333 2
0.0115195 0.0299786 0.000227263 0.898039 0.898039 0.898039 5
0.139525 0.0133447 0.00605871 0.25098 0.25098 0.25098 0
0.106748 -0.0262692 0.000409601 0.792157 0.819608 0.933333 1
0.140104 0.032798 -0.002413 0.898039 0.898039 0.898039 3
0.139033 -0.0138407 0.00843131 0.25098 0.25098 0.25098 4
0.0880728 -0.0230615 0.00127612 0.792157 0.819608 0.933333 1
0.0247761 0.00295068 -0.0056805 0.792157 0.819608 0.933333 1
0.0218832 0.00183687 -0.00635224 0.792157 0.819608 0.933333 1
0.132788 0.0462774 -0.00193027 0.898039 0.898039 0.898039 3
0.0654167 0.0131079 -0.004572 0.898039 0.898039 0.898039 5
0.0560205 0.00707804 -0.00648208 0.792157 0.819608 0.933333 1
0.0901486 0.00172979 0.00498281 0.792157 0.819608 0.933333 1
0.000392711 0.00147106 0.00471755 0.792157 0.819608 0.933333 1
0.0856001 0.0244059 -0.0045658 0.898039 0.898039 0.898039 5
0.0214201 0.0284471 0.00135352 0.898039 0.898039 0.898039 5
0.0839439 0.0195953 0.004572 0.898039 0.898039 0.898039 5
-0.00751107 -0.000669666 -0.00309506 0.792157 0.819608 0.933333 2
0.0632404 0.00724005 0.00670373 0.792157 0.819608 0.933333 1
0.0822596 -0.00716494 -0.00188289 0.792157 0.819608 0.933333 1
0.0131232 -0.00350888 -0.00537265 0.792157 0.819608 0.933333 1
0.0974624 0.0123019 0.000910315 0.898039 0.898039 0.898039 3
-0.0126521 -0.00721361 -0.00244307 0.792157 0.819608 0.933333 2
0.149072 0.00924736 -0.00698314 0.25098 0.25098 0.25098 0
0.145691 -0.039022 0.002413 0.792157 0.819608 0.933333 1
0.0894094 -0.0262274 -0.000245986 0.792157 0.819608 0.933333 1
0.104155 -0.0384279 -0.002413 0.792157 0.819608 0.933333 1
0.0868205 0.00758566 0.00572189 0.792157 0.819608 0.933333 1
0.0989916 0.044245 -0.000493709 0.898039 0.898039 0.898039 3
-0.0053234 -0.0003664 -0.00314294 0.792157 0.819608 0.933333 2
0.0038133 0.0225096 -0.00606234 0.898039 0.898039 0.898039 8
0.0321608 -0.00254168 0.00548365 0.792157 0.819608 0.933333 1
0.0889967 0.0152678 0.004572 0.898039 0.898039 0.898039 5
0.0456826 0.00891366 0.002286 0.898039 0.898039 0.898039 7
0.0210632 0.0277757 -0.00521694 0.898039 0.898039 0.898039 5
0.0909065 -0.0199664 0.002413 0.792157 0.819608 0.933333 1
0.0636105 0.00711259 -0.0066609 0.792157 0.819608 0.933333 1
0.0866418 -0.0193855 0.00193027 0.792157 0.819608 0.933333 1
0.103045 -0.0468497 -0.00141268 0.792157 0.819608 0.933333 1
0.090681 0.0306484 -0.002413 0.898039 0.898039 0.898039 3
0.0997248 0.0328076 0.002413 0.898039 0.898039 0.898039 3
0.109353 -0.0464398 0.002413 0.792157 0.819608 0.933333 1
0.139158 -0.0498578 -0.000245986 0.792157 0.819608 0.933333 1
0.0378591 0.00756307 -0.002286 0.898039 0.898039 0.898039 7
0.0298191 0.0173214 -0.00279419 0.898039 0.898039 0.898039 8
-0.00897839 0.0228855 0.0043481 0.898039 0.898039 0.898039 8
0.0643573 0.00265762 -0.00566796 0.792157 0.819608 0.933333 1
0.039814 0.00501582 -0.002286 0.898039 0.898039 0.898039 7
0.0249938 0.0277745 0.00428139 0.898039 0.898039 0.898039 5
0.0175745 -0.00378192 -0.00554168 0.792157 0.819608 0.933333 1
-0.00437117 0.00315725 0.000202837 0.792157 0.819608 0.933333 2
0.10231 0.00442887 0.00306484 0.792157 0.819608 0.933333 1
0.0610147 -0.00521884 6.32119e-05 0.792157 0.819608 0.933333 1
0.109204 -0.0495813 -0.0023993 0.792157 0.819608 0.933333 1
0.0100056 0.00274136 -0.00494217 0.792157 0.819608 0.933333 1
0.0393469 0.0046961 -0.00489949 0.792157 0.819608 0.933333 1
0.0396604 0.00590157 0.00403779 0.792157 0.819608 0.933333 1
0.0569952 0.0138657 -0.00468577 0.898039 0.898039 0.898039 5
0.0716619 0.0250066 0.00408726 0.898039 0.898039 0.898039 5
0.0316516 0.00471484 -0.00423622 0.792157 0.819608 0.933333 1
0.0861671 0.00288326 -0.00516986 0.792157 0.819608 0.933333 1
0.0987051 -0.0158279 -0.002413 0.792157 0.819608 0.933333 1
0.139233 0.0393102 0.002413 0.898039 0.898039 0.898039 3
0.0552103 0.00891366 0.002286 0.898039 0.898039 0.898039 7
0.0843076 -0.0115831 2.12721e-05 0.792157 0.819608 0.933333 1
0.0468895 0.00293724 -0.00566706 0.792157 0.819608 0.933333 1
0.0362918 0.00756307 -0.002286 0.898039 0.898039 0.898039 7
-0.01524 0.00574979 -0.000845773 0.792157 0.819608 0.933333 2
0.0972944 -0.0394919 0.002413 0.792157 0.819608 0.933333 1
0.142402 -0.0128261 0.0100963 0.25098 0.25098 0.25098 4
0.0935576 -0.0234405 -0.002413 0.792157 0.819608 0.933333 1
0.0198591 -0.00494438 -0.00451689 0.792157 0.819608 0.933333 1
0.0214264 0.0219935 -0.003175 0.898039 0.898039 0.898039 8
0.0776651 0.00287597 0.00540985 0.792157 0.819608 0.933333 1
0.0940496 -0.00823972 -0.00312259 0.792157 0.819608 0.933333 1
0.136227 0.00756307 0.00698314 0.25098 0.25098 0.25098 0
0.0992526 -0.0424736 0.00124506 0.792157 0.819608 0.933333 1
0.106871 -0.0468281 0.002413 0.792157 0.819608 0.933333 1
0.00260607 0.0209624 -0.00640701 0.898039 0.898039 0.898039 8
0.0308944 -0.00415929 0.00455108 0.792157 0.819608 0.933333 1
0.0571456 0.0248768 0.00361456 0.898039 0.898039 0.898039 5
0.090189 0.0264278 0.00361456 0.898039 0.898039 0.898039 5
0.0866908 -0.0179324 -0.002413 0.792157 0.819608 0.933333 1
0.0860668 -0.015525 -0.002413 0.792157 0.819608 0.933333 1
0.0178239 -0.00189519 0.00646455 0.792157 0.819608 0.933333 1
0.0541995 0.000380499 0.00403551 0.792157 0.819608 0.933333 1
0.00983519 0.0302391 -0.00189415 0.898039 0.898039 0.898039 5
0.0984339 0.0353502 0.002413 0.898039 0.898039 0.898039 3
0.0804463 0.0230843 0.004572 0.898039 0.898039 0.898039 5
0.099727 -0.006456 -0.0047306 0.792157 0.819608 0.933333 1
0.0872881 -0.0212029 0.0014383 0.792157 0.819608 0.933333 1
0.0632404 0.0183455 0.004572 0.898039 0.898039 0.898039 5
0.14177 -0.0495881 0.00103641 0.792157 0.819608 0.933333 1
0.0298283 0.0190221 -0.00427916 0.898039 0.898039 0.898039 5
0.0704864 0.00115722 -0.00538793 0.792157 0.819608 0.933333 1
0.0750304 0.0132696 -0.004572 0.898039 0.898039 0.898039 5
0.00341874 0.0294325 0.00138467 0.898039 0.898039 0.898039 5
0.00340167 0.0246635 -0.00361456 0.898039 0.898039 0.898039 8
0.106836 -0.0289993 -0.002413 0.792157 0.819608 0.933333 1
0.102826 -0.00558466 -0.00470933 0.792157 0.819608 0.933333 1
0.0668504 0.0223025 0.004572 0.898039 0.898039 0.898039 5
0.0901575 0.00131789 0.000245986 0.898039 0.898039 0.898039 3
0.148415 0.0147922 0.00361456 0.25098 0.25098 0.25098 0
0.0043135 0.0213697 -0.00590061 0.898039 0.898039 0.898039 8
0.120998 0.0369282 0.002413 0.898039 0.898039 0.898039 3
0.11465 -0.039105 -0.002413 0.792157 0.819608 0.933333 1
0.100358 -0.0256307 -0.002413 0.792157 0.819608 0.933333 1
0.0879583 0.00142283 0.00501869 0.792157 0.819608 0.933333 1
0.0940496 0.0277745 0.002413 0.898039 0.898039 0.898039 3
0.0598719 -0.00525273 -0.00193027 0.792157 0.819608 0.933333 1
0.101314 -0.0256307 0.002413 0.792157 0.819608 0.933333 1
0.094864 -0.0345441 0.002413 0.792157 0.819608 0.933333 1
0.134472 0.0354186 -0.00172356 0.898039 0.898039 0.898039 3
0.0980776 -0.0225254 0.002413 0.792157 0.819608 0.933333 1
0.145771 -0.0198185 0.00649117 0.25098 0.25098 0.25098 4
0.0902287 0.0228647 -0.00539688 0.898039 0.898039 0.898039 5
0.100086 -0.0393698 -0.002413 0.792157 0.819608 0.933333 1
0.0830293 0.000492614 -0.00729057 0.792157 0.819608 0.933333 1
0.0295547 0.0252187 -0.00581532 0.898039 0.898039 0.898039 5
0.0647903 0.0250543 -0.00367509 0.898039 0.898039 0.898039 5
0.0330953 0.00787638 -0.002286 0.898039 0.898039 0.898039 7
0.0773451 -0.00658083 0.00108317 0.792157 0.819608 0.933333 1
-0.00763994 0.0311431 -0.00252818 0.898039 0.898039 0.898039 5
0.0991024 0.0299508 -0.002413 0.898039 0.898039 0.898039 3
0.0905501 0.0232136 0.00514799 0.898039 0.898039 0.898039 5
0.0160804 0.0262913 -0.005842 0.898039 0.898039 0.898039 5
0.0401524 0.0221677 -0.005842 0.898039 0.898039 0.898039 5
0.0435563 -0.00480641 -0.00373464 0.792157 0.819608 0.933333 1
0.146262 0.0260902 0.002413 0.898039 0.898039 0.898039 3
0.0870846 -0.0177012 -0.002413 0.792157 0.819608 0.933333 1
0.00951184 0.0198148 -0.00348644 0.898039 0.898039 0.898039 8
-0.00991868 -0.000409366 0.00313919 0.792157 0.819608 0.933333 2
0.0870882 -0.0146706 0.002413 0.792157 0.819608 0.933333 1
0.147448 0.0225433 0.00162399 0.898039 0.898039 0.898039 3
0.151315 -0.0269808 0.00193027 0.792157 0.819608 0.933333 1
0.0326739 0.0267278 -0.00360793 0.898039 0.898039 0.898039 5
0.098051 -0.0409087 -0.00149126 0.792157 0.819608 0.933333 1
0.133234 0.0359213 0.00140613 0.898039 0.898039 0.898039 3
0.105736 -0.0241362 -0.002413 0.792157 0.819608 0.933333 1
0.0413447 0.00526485 -0.00491698 0.792157 0.819608 0.933333 1
0.026942 0.0176747 0.00261194 0.898039 0.898039 0.898039 8
0.0189739 0.000825917 0.0067163 0.792157 0.819608 0.933333 1
0.141054 -0.0222213 0.00312259 0.25098 0.25098 0.25098 4
0.00593749 0.00491659 -0.000380249 0.792157 0.819608 0.933333 1
0.00678059 -0.00480941 0.00141628 0.792157 0.819608 0.933333 1
0.00958517 0.0302778 -0.00197667 0.898039 0.898039 0.898039 5
0.0997151 0.0188962 -0.00202309 0.898039 0.898039 0.898039 3
0.123544 -0.0475265 0.002413 0.792157 0.819608 0.933333 1
0.0293135 0.0211732 0.005842 0.898039 0.898039 0.898039 5
0.0452052 0.0165378 0.005842 0.898039 0.898039 0.898039 5
0.0187406 0.0198283 0.001397 0.898039 0.898039 0.898039 8
0.102471 -0.039105 -0.002413 0.792157 0.819608 0.933333 1
0.0332719 0.00323068 -0.00526474 0.792157 0.819608 0.933333 1
0.0392847 0.0259219 -0.00155621 0.898039 0.898039 0.898039 5
0.136718 0.0338255 0.00169224 0.898039 0.898039 0.898039 3
0.0367731 0.00206287 0.00565874 0.792157 0.819608 0.933333 1
0.0952419 -0.0314524 0.002413 0.792157 0.819608 0.933333 1
0.0139315 0.0279157 0.00575265 0.898039 0.898039 0.898039 5
-0.000922658 0.00243416 0.00203804 0.792157 0.819608 0.933333 2
0.139525 0.00451278 0.000598984 0.25098 0.25098 0.25098 0
0.118384 0.0423194 -0.002413 0.898039 0.898039 0.898039 3
0.0397628 0.0179181 -0.005842 0.898039 0.898039 0.898039 5
0.111538 0.0395645 0.002413 0.898039 0.898039 0.898039 3
0.0920975 -0.0163935 0.002413 0.792157 0.819608 0.933333 1
0.0354845 0.0263394 -0.00361456 0.898039 0.898039 0.898039 5
0.102209 -0.00422695 -0.00193027 0.792157 0.819608 0.933333 1
0.0809152 -0.00332343 0.0053575 0.792157 0.819608 0.933333 1
0.0972397 0.036046 0.002413 0.898039 0.898039 0.898039 3
0.0599595 0.0222128 0.00459877 0.898039 0.898039 0.898039 5
0.0980524 -0.0200706 0.002413 0.792157 0.819608 0.933333 1
0.127422 -0.0416759 0.002413 0.792157 0.819608 0.933333 1
0.140344 0.00504398 0.0101126 0.25098 0.25098 0.25098 0
0.0464927 0.00707804 -0.002286 0.898039 0.898039 0.898039 7
0.0601543 -0.00373498 0.00571749 0.792157 0.819608 0.933333 1
0.120506 -0.0503738 -0.00193027 0.792157 0.819608 0.933333 1
0.0913614 0.0378802 -0.00118651 0.898039 0.898039 0.898039 3
0.0130833 0.00510115 -0.00393339 0.792157 0.819608 0.933333 1
0.152013 -0.0193855 0.00480688 0.25098 0.25098 0.25098 4
0.07506 0.0249426 -0.00425653 0.898039 0.898039 0.898039 5
0.149631 -0.0291325 -0.002413 0.792157 0.819608 0.933333 1
0.126636 -0.0426667 0.002413 0.792157 0.819608 0.933333 1
-0.01016 -0.00158913 0.00455557 0.792157 0.819608 0.933333 2
0.100295 -0.0186766 -0.002413 0.792157 0.819608 0.933333 1
0.0551774 0.0222128 0.00485743 0.898039 0.898039 0.898039 5
0.0925305 0.00178006 0.00493254 0.792157 0.819608 0.933333 1
0.100787 0.0400565 -0.002413 0.898039 0.898039 0.898039 3
0.0124192 0.00389089 0.00492549 0.792157 0.819608 0.933333 1
0.144086 -0.0104721 0.0104345 0.25098 0.25098 0.25098 4
0.076505 0.00891737 0.00515268 0.792157 0.819608 0.933333 1
0.0708767 0.0136054 0.00529158 0.898039 0.898039 0.898039 5
0.0294422 0.0272062 -0.00193027 0.898039 0.898039 0.898039 5
0.13795 0.0217746 0.00155103 0.898039 0.898039 0.898039 3
0.0238643 0.00226997 -0.00605561 0.792157 0.819608 0.933333 1
0.0805357 -0.00683294 7.28395e-08 0.792157 0.819608 0.933333 1
-0.0151442 -0.00692418 -0.000526732 0.792157 0.819608 0.933333 2
0.115917 -0.0419663 0.002413 0.792157 0.819608 0.933333 1
0.046748 -0.00496895 -0.00150452 0.792157 0.819608 0.933333 1
-0.01016 -0.00193582 0.00698314 0.792157 0.819608 0.933333 2
0.0309866 0.0222231 -0.005842 0.898039 0.898039 0.898039 5
0.11233 0.0412488 0.002413 0.898039 0.898039 0.898039 3
0.0881767 -0.0176675 -0.002413 0.792157 0.819608 0.933333 1
0.0748977 0.0124495 0.004572 0.898039 0.898039 0.898039 5
-0.0095192 -0.00294617 -0.00116602 0.792157 0.819608 0.933333 2
-0.00369081 0.0305322 -0.00398299 0.898039 0.898039 0.898039 5
0.140718 -0.0497377 -0.00193027 0.792157 0.819608 0.933333 1
0.103659 -0.0167414 -0.002413 0.792157 0.819608 0.933333 1
0.00854284 0.0293586 0.00548684 0.898039 0.898039 0.898039 5
0.0961394 0.00838273 0.00342572 0.792157 0.819608 0.933333 1
0.0560205 0.0142239 -0.00472199 0.898039 0.898039 0.898039 5
0.102471 0.0401762 -0.002413 0.898039 0.898039 0.898039 3
0.0147476 -0.00630726 0.00193027 0.792157 0.819608 0.933333 1
0.0750304 -0.0045265 0.00551943 0.792157 0.819608 0.933333 1
0.099285 -0.0401141 -0.002413 0.792157 0.819608 0.933333 1
0.0699776 0.0168831 0.00549153 0.898039 0.898039 0.898039 5
0.0476215 0.00513805 -0.002286 0.898039 0.898039 0.898039 7
-0.01016 0.00601907 8.71644e-05 0.792157 0.819608 0.933333 2
0.0762147 0.00713161 -0.00624683 0.792157 0.819608 0.933333 1
0.0800833 0.00296362 -0.00535024 0.792157 0.819608 0.933333 1
0.090663 -0.00806993 -0.00278788 0.792157 0.819608 0.933333 1
0.102468 -0.0131685 -0.002413 0.792157 0.819608 0.933333 1
0.00723972 -0.00509556 -1.62064e-05 0.792157 0.819608 0.933333 1
0.0603835 -0.00518625 9.58011e-05 0.792157 0.819608 0.933333 1
0.0817676 0.00379816 0.00538173 0.792157 0.819608 0.933333 1
0.107524 -0.0410422 -0.002413 0.792157 0.819608 0.933333 1
0.100421 -0.0167616 0.002413 0.792157 0.819608 0.933333 1
0.146293 0.00756307 0.00985974 0.25098 0.25098 0.25098 0
0.143379 -0.00919241 0.0103813 0.25098 0.25098 0.25098 4
0.0952419 0.0233323 0.002413 0.898039 0.898039 0.898039 3
0.0988955 -0.00924601 -0.002413 0.792157 0.819608 0.933333 1
0.104742 -0.00682673 -0.00361456 0.792157 0.819608 0.933333 1
0.0773195 -0.00599185 0.00466718 0.792157 0.819608 0.933333 1
0.0710079 0.0222807 -0.004572 0.898039 0.898039 0.898039 5
0.111634 0.0451094 0.002413 0.898039 0.898039 0.898039 3
0.112429 0.0464211 0.0019067 0.898039 0.898039 0.898039 3
0.0428747 0.0210374 -0.005842 0.898039 0.898039 0.898039 5
0.031938 0.022695 -0.005842 0.898039 0.898039 0.898039 5
0.141518 0.00898317 0.0104202 0.25098 0.25098 0.25098 0
0.139024 0.0299508 0.000432263 0.898039 0.898039 0.898039 3
0.0569952 0.00740005 0.00649117 0.792157 0.819608 0.933333 1
0.0579766 0.0248979 -0.00357452 0.898039 0.898039 0.898039 5
0.145771 -0.0432539 0.002413 0.792157 0.819608 0.933333 1
0.00141375 0.0219277 -0.00490622 0.898039 0.898039 0.898039 8
0.0242383 -0.00559202 0.00314868 0.792157 0.819608 0.933333 1
0.100787 -0.0392939 0.002413 0.792157 0.819608 0.933333 1
0.0869235 -0.0132621 -0.002413 0.792157 0.819608 0.933333 1
0.129892 0.0393102 0.002413 0.898039 0.898039 0.898039 3
0.028951 0.0221677 -0.005842 0.898039 0.898039 0.898039 5
0.0721074 -0.006038 -0.00075995 0.792157 0.819608 0.933333 1
0.0619593 0.0142264 -0.004572 0.898039 0.898039 0.898039 5
0.0885108 -0.016017 0.002413 0.792157 0.819608 0.933333 1
0.144152 -0.0381789 -0.002413 0.792157 0.819608 0.933333 1
0.090189 -0.0109641 -0.002413 0.792157 0.819608 0.933333 1
0.116308 -0.0477066 -0.002413 0.792157 0.819608 0.933333 1
0.0667392 0.00112319 -0.0054687 0.792157 0.819608 0.933333 1
0.0647937 -0.00517955 0.0048175 0.792157 0.819608 0.933333 1
0.0934279 0.0368523 -0.002413 0.898039 0.898039 0.898039 3
0.0580089 0.00747161 -0.00649117 0.792157 0.819608 0.933333 1
0.0519639 -0.00225293 0.0057724 0.792157 0.819608 0.933333 1
0.0967965 -0.0298421 -0.002413 0.792157 0.819608 0.933333 1
0.0597688 0.00604109 -0.00638896 0.792157 0.819608 0.933333 1
0.104253 0.0353135 0.002413 0.898039 0.898039 0.898039 3
0.00597464 0.00419449 -0.00261387 0.792157 0.819608 0.933333 1
0.0234353 -0.00143227 -0.00634009 0.792157 0.819608 0.933333 1
0.0283624 0.0175003 -0.00286074 0.898039 0.898039 0.898039 8
0.0867582 0.0134527 -0.002413 0.898039 0.898039 0.898039 3
0.0876815 0.00945999 -0.002413 0.898039 0.898039 0.898039 3
0.0292373 0.0272379 0.00312259 0.898039 0.898039 0.898039 5
-0.0123313 -0.00591123 0.00480283 0.792157 0.819608 0.933333 2
0.0640826 0.00592491 0.00633268 0.792157 0.819608 0.933333 1
-0.0119091 0.00131789 -0.00749313 0.792157 0.819608 0.933333 2
0.0567837 0.0178431 0.00470338 0.898039 0.898039 0.898039 5
0.135514 0.013876 0.00483746 0.25098 0.25098 0.25098 0
0.0763428 0.00587878 -0.00596287 0.792157 0.819608 0.933333 1
0.0384172 0.00468646 -0.00480562 0.792157 0.819608 0.933333 1
0.108771 -0.0453349 0.002413 0.792157 0.819608 0.933333 1
0.0564535 0.024117 -0.0044221 0.898039 0.898039 0.898039 5
0.0401524 -0.00506858 0.00259542 0.792157 0.819608 0.933333 1
0.103249 -0.0185801 0.002413 0.792157 0.819608 0.933333 1
-0.0126323 -0.00711634 0.00270033 0.792157 0.819608 0.933333 2
0.10584 -0.0328598 0.002413 0.792157 0.819608 0.933333 1
0.0127421 0.00357604 0.0052484 0.792157 0.819608 0.933333 1
0.121179 -0.0503916 0.00240484 0.792157 0.819608 0.933333 1
0.0481712 0.0201134 0.0057401 0.898039 0.898039 0.898039 5
0.078399 0.0135816 0.004572 0.898039 0.898039 0.898039 5
0.0359953 -0.00373498 -0.00484558 0.792157 0.819608 0.933333 1
0.0103222 0.0301638 0.000784969 0.898039 0.898039 0.898039 5
0.0682776 0.0257163 0.00123537 0.898039 0.898039 0.898039 5
0.0377458 0.0177135 0.005842 0.898039 0.898039 0.898039 5
0.0401524 0.00821791 0.002286 0.898039 0.898039 0.898039 7
0.0889967 0.0210374 0.0058233 0.898039 0.898039 0.898039 5
0.0418367 -0.00517101 0.000111038 0.792157 0.819608 0.933333 1
0.00788642 0.0297065 -0.00531256 0.898039 0.898039 0.898039 5
-0.0024468 0.0215424 -0.00698314 0.898039 0.898039 0.898039 8
0.0889576 -0.00644064 0.0047318 0.792157 0.819608 0.933333 1
0.143388 -0.0306836 -0.00154968 0.792157 0.819608 0.933333 1
0.100295 0.0282665 0.002413 0.898039 0.898039 0.898039 3
0.0716619 0.000527773 -0.00371795 0.792157 0.819608 0.933333 1
0.0814896 -0.00710355 0.00318201 0.792157 0.819608 0.933333 1
0.0677985 -0.00571629 -0.00108166 0.792157 0.819608 0.933333 1
0.0581876 0.0181608 0.00464802 0.898039 0.898039 0.898039 5
0.0893677 -0.0260889 -0.002413 0.792157 0.819608 0.933333 1
0.0904182 -0.0283386 0.000762847 0.792157 0.819608 0.933333 1
0.0839439 0.0163473 -0.004572 0.898039 0.898039 0.898039 5
0.0139264 -0.00448294 0.00474652 0.792157 0.819608 0.933333 1
0.0324928 -0.00329282 0.00511692 0.792157 0.819608 0.933333 1
0.0109837 0.0228855 -0.0012739 0.898039 0.898039 0.898039 8
0.0930286 -0.0332969 -0.00111774 0.792157 0.819608 0.933333 1
0.0916874 0.0383158 -9.37243e-05 0.898039 0.898039 0.898039 3
0.0952419 0.0114226 0.002413 0.898039 0.898039 0.898039 3
0.0081509 -0.000858371 0.00518213 0.792157 0.819608 0.933333 1
0.0527954 0.0250083 0.00370037 0.898039 0.898039 0.898039 5
0.033392 -0.0036407 -0.00489777 0.792157 0.819608 0.933333 1
0.0210722 -0.00667542 -8.62885e-05 0.792157 0.819608 0.933333 1
0.143029 -0.0432539 0.002413 0.792157 0.819608 0.933333 1
0.105937 -0.0223484 0.002413 0.792157 0.819608 0.933333 1
-0.0138138 0.00690619 0.00320768 0.792157 0.819608 0.933333 2
0.0991024 -0.0338964 -0.002413 0.792157 0.819608 0.933333 1
0.100295 -0.0205779 0.002413 0.792157 0.819608 0.933333 1
0.142894 -0.0493681 -0.000304838 0.792157 0.819608 0.933333 1
0.0924454 0.0222807 -0.004572 0.898039 0.898039 0.898039 5
0.0323339 0.026713 -0.00407397 0.898039 0.898039 0.898039 5
0.0726279 0.0248443 0.00423669 0.898039 0.898039 0.898039 5
0.0358103 -0.00438251 -0.00428665 0.792157 0.819608 0.933333 1
0.0405379 -0.0036407 -0.00504446 0.792157 0.819608 0.933333 1
0.078891 0.0163473 -0.004572 0.898039 0.898039 0.898039 5
0.090681 0.0146085 0.002413 0.898039 0.898039 0.898039 3
0.0401278 0.0177135 0.005842 0.898039 0.898039 0.898039 5
0.049241 0.0017817 0.005712 0.792157 0.819608 0.933333 1
-0.015165 -0.00591123 0.00361456 0.792157 0.819608 0.933333 2
0.121029 -0.0500886 -0.002413 0.792157 0.819608 0.933333 1
0.0940496 -0.0178565 0.002413 0.792157 0.819608 0.933333 1
0.0947032 0.0198451 -0.004572 0.898039 0.898039 0.898039 5
0.0540716 0.00560129 -0.00611781 0.792157 0.819608 0.933333 1
0.0957339 0.0109316 0.002413 0.898039 0.898039 0.898039 3
0.0933736 0.0372665 -0.002413 0.898039 0.898039 0.898039 3
0.0851362 -0.00914884 -0.002413 0.792157 0.819608 0.933333 1
0.0373652 0.0108373 -0.00227845 0.898039 0.898039 0.898039 7
0.132788 0.0360759 0.000864968 0.898039 0.898039 0.898039 3
0.090189 0.0239274 -0.00480688 0.898039 0.898039 0.898039 5
0.146262 -0.0242265 -0.00465277 0.25098 0.25098 0.25098 4
-0.000365238 -0.00265634 -0.00172073 0.792157 0.819608 0.933333 2
0.00524174 0.0272212 -0.005842 0.898039 0.898039 0.898039 5
0.0909065 -0.00329282 0.00500341 0.792157 0.819608 0.933333 1
-0.01524 -0.00400594 -0.00348777 0.792157 0.819608 0.933333 2
0.0575593 0.00315725 0.00579608 0.792157 0.819608 0.933333 1
0.0924215 0.00169438 -0.00493328 0.792157 0.819608 0.933333 1
0.0182566 0.0289318 -0.00361456 0.898039 0.898039 0.898039 5
0.0995387 0.039248 -0.002413 0.898039 0.898039 0.898039 3
0.139525 0.0446174 0.002413 0.898039 0.898039 0.898039 3
0.106342 -0.0242826 -0.00193027 0.792157 0.819608 0.933333 1
0.0300466 -0.00523768 -0.00312259 0.792157 0.819608 0.933333 1
0.0328968 0.00231416 -0.00560102 0.792157 0.819608 0.933333 1
0.0418248 0.0177546 -0.00139808 0.898039 0.898039 0.898039 8
0.0820801 0.00587878 -0.00570389 0.792157 0.819608 0.933333 1
0.0505398 -0.00497221 -0.0025215 0.792157 0.819608 0.933333 1
0.0975154 0.0162579 0.002413 0.898039 0.898039 0.898039 3
0.0396604 -0.00375972 -0.00492774 0.792157 0.819608 0.933333 1
0.00678059 0.0278192 0.005842 0.898039 0.898039 0.898039 5
0.0980524 -0.0349538 0.002413 0.792157 0.819608 0.933333 1
0.102463 0.0269412 -0.000428217 0.898039 0.898039 0.898039 3
0.0995786 0.0184965 0.00174948 0.898039 0.898039 0.898039 3
0.13645 0.00414855 0.00503134 0.25098 0.25098 0.25098 0
0.0348324 -0.00508111 0.00312259 0.792157 0.819608 0.933333 1
0.122743 0.0384279 0.002413 0.898039 0.898039 0.898039 3
0.135665 0.0155499 0.00415837 0.25098 0.25098 0.25098 0
0.132788 -0.0441579 -0.002413 0.792157 0.819608 0.933333 1
0.129018 -0.0436506 0.002413 0.792157 0.819608 0.933333 1
0.100787 -0.0345441 0.002413 0.792157 0.819608 0.933333 1
0.140093 -0.0205779 0.00174497 0.792157 0.819608 0.933333 1
0.0977045 -0.0250782 -0.002413 0.792157 0.819608 0.933333 1
0.035656 0.00315725 0.0053223 0.792157 0.819608 0.933333 1
0.0974182 -0.0311756 0.002413 0.792157 0.819608 0.933333 1
0.0639011 -0.0003664 -0.00552315 0.792157 0.819608 0.933333 1
0.0536385 0.014461 -0.002286 0.898039 0.898039 0.898039 7
0.144566 0.00510978 -0.00698314 0.25098 0.25098 0.25098 0
0.0946979 0.0415579 -0.000231908 0.898039 0.898039 0.898039 3
0.138545 -0.0470192 0.002413 0.792157 0.819608 0.933333 1
0.0756477 0.0232136 -0.004572 0.898039 0.898039 0.898039 5
0.0425944 0.00105471 0.00574325 0.792157 0.819608 0.933333 1
0.0249938 0.0179139 0.00175845 0.898039 0.898039 0.898039 8
0.00158846 0.0228855 -0.00348206 0.898039 0.898039 0.898039 8
0.0172965 0.022987 0.00533453 0.898039 0.898039 0.898039 5
0.0932747 -0.0212365 0.002413 0.792157 0.819608 0.933333 1
0.056602 0.000967483 -0.00562655 0.792157 0.819608 0.933333 1
0.0901651 0.0247778 0.00455422 0.898039 0.898039 0.898039 5
0.100776 -0.000554429 0.00472762 0.792157 0.819608 0.933333 1
0.0957339 0.0169904 0.002413 0.898039 0.898039 0.898039 3
0.110219 -0.04972 0.00173331 0.792157 0.819608 0.933333 1
-0.0102803 0.00632024 0.00423984 0.792157 0.819608 0.933333 2
0.0240449 0.0215293 0.005842 0.898039 0.898039 0.898039 5
0.0339325 0.00904211 -0.00145973 0.898039 0.898039 0.898039 7
-0.00749966 -0.0003664 0.00314294 0.792157 0.819608 0.933333 2
0.0384681 0.0197858 -0.005842 0.898039 0.898039 0.898039 5
0.104155 -0.0354123 0.002413 0.792157 0.819608 0.933333 1
0.00597464 -0.00422695 -0.00254358 0.792157 0.819608 0.933333 1
0.0851362 0.0188996 0.004572 0.898039 0.898039 0.898039 5
0.0616931 -0.000607272 -0.00556428 0.792157 0.819608 0.933333 1
0.079082 0.00421084 0.00369407 0.792157 0.819608 0.933333 1
0.0931735 0.0268778 -0.002413 0.898039 0.898039 0.898039 3
0.0233095 0.0260902 0.00582267 0.898039 0.898039 0.898039 5
0.0619132 0.0208984 -0.004572 0.898039 0.898039 0.898039 5
0.1104 0.0463022 0.00168448 0.898039 0.898039 0.898039 3
0.0910309 -0.0295024 -0.00208711 0.792157 0.819608 0.933333 1
0.0770409 0.0163473 -0.004572 0.898039 0.898039 0.898039 5
0.0991758 0.0377509 -0.002413 0.898039 0.898039 0.898039 3
0.0770569 0.000134383 0.00525072 0.792157 0.819608 0.933333 1
0.0935576 -0.0219246 0.002413 0.792157 0.819608 0.933333 1
0.0342581 0.000825917 -0.00588703 0.792157 0.819608 0.933333 1
0.147947 0.016631 0.00480688 0.25098 0.25098 0.25098 0
0.0914937 -0.0274463 -0.002413 0.792157 0.819608 0.933333 1
0.092029 -0.0313983 0.000780898 0.792157 0.819608 0.933333 1
0.0927398 0.0222336 -0.004572 0.898039 0.898039 0.898039 5
0.0194489 0.00316379 0.00601611 0.792157 0.819608 0.933333 1
-0.0142988 -0.00135673 0.00748653 0.792157 0.819608 0.933333 2
0.0952725 0.00719049 -0.00511694 0.792157 0.819608 0.933333 1
0.0998664 0.00874287 0.00493662 0.792157 0.819608 0.933333 1
-0.0103763 0.00398329 0.00649117 0.792157 0.819608 0.933333 2
0.0811634 0.00880259 -0.00607277 0.792157 0.819608 0.933333 1
0.0326196 0.0260902 -0.00514357 0.898039 0.898039 0.898039 5
0.0984854 -0.0185801 0.002413 0.792157 0.819608 0.933333 1
0.0983353 0.0439466 0.000327793 0.898039 0.898039 0.898039 3
-1.58734e-06 0.0242004 0.00649117 0.898039 0.898039 0.898039 8
0.0599639 0.0198309 0.00459443 0.898039 0.898039 0.898039 5
0.080816 0.0185158 -0.004572 0.898039 0.898039 0.898039 5
-0.01016 0.00487795 0.00529885 0.792157 0.819608 0.933333 2
0.139033 -0.00923981 0.000806132 0.25098 0.25098 0.25098 4
0.061996 0.00734772 -0.00673247 0.792157 0.819608 0.933333 1
0.0881767 -0.00785483 -0.0027061 0.792157 0.819608 0.933333 1
0.0925789 -0.0127383 0.002413 0.792157 0.819608 0.933333 1
0.031925 -0.00457681 -0.00405864 0.792157 0.819608 0.933333 1
0.0687853 0.0067791 -0.00649117 0.792157 0.819608 0.933333 1
0.0262011 0.0244059 -0.005842 0.898039 0.898039 0.898039 5
0.0435209 -0.00412433 -0.00480688 0.792157 0.819608 0.933333 1
-0.0142368 -0.00309172 0.00695422 0.792157 0.819608 0.933333 2
0.0809687 -0.000273753 -0.00697992 0.792157 0.819608 0.933333 1
0.0165806 -0.00675912 7.38969e-05 0.792157 0.819608 0.933333 1
0.0803581 0.0142817 -0.004572 0.898039 0.898039 0.898039 5
0.0222632 -0.00214847 0.00619284 0.792157 0.819608 0.933333 1
0.0980972 -0.0305863 -0.002413 0.792157 0.819608 0.933333 1
0.0611322 0.00266204 0.00570559 0.792157 0.819608 0.933333 1
0.0542904 0.0121847 -0.002286 0.898039 0.898039 0.898039 7
0.0649247 0.00587878 -0.00632304 0.792157 0.819608 0.933333 1
0.0889967 0.0330145 -1.51471e-05 0.898039 0.898039 0.898039 3
0.103399 0.0312821 0.002413 0.898039 0.898039 0.898039 3
0.141577 -0.0494038 0.002413 0.792157 0.819608 0.933333 1
0.0885047 0.0109316 -0.002413 0.898039 0.898039 0.898039 3
0.0462106 0.00112319 -0.00572433 0.792157 0.819608 0.933333 1
0.101806 -0.0456726 0.00149073 0.792157 0.819608 0.933333 1
0.0753874 0.0259875 0.00294366 0.898039 0.898039 0.898039 5
0.0405379 0.022695 -0.005842 0.898039 0.898039 0.898039 5
0.0973428 0.0430331 0.002413 0.898039 0.898039 0.898039 3
0.0744049 0.0188996 0.004572 0.898039 0.898039 0.898039 5
0.0663292 -0.00529077 -0.00478125 0.792157 0.819608 0.933333 1
0.0901002 0.0311431 0.002413 0.898039 0.898039 0.898039 3
0.131104 -0.0463341 0.002413 0.792157 0.819608 0.933333 1
-0.00413109 0.0323948 0.00361456 0.898039 0.898039 0.898039 5
-0.0103763 0.00757872 -0.000735135 0.792157 0.819608 0.933333 2
0.10584 0.0447077 -0.002413 0.898039 0.898039 0.898039 3
-0.00195483 0.0246427 -0.00593504 0.898039 0.898039 0.898039 8
0.0440067 -0.00499991 -0.00159813 0.792157 0.819608 0.933333 1
0.0914418 0.00468646 0.00513948 0.792157 0.819608 0.933333 1
0.105184 -0.0320399 0.002413 0.792157 0.819608 0.933333 1
0.0514504 0.000825917 -0.00568953 0.792157 0.819608 0.933333 1
0.0612158 0.0249272 0.00361926 0.898039 0.898039 0.898039 5
0.0352788 0.0244056 -0.00581569 0.898039 0.898039 0.898039 5
0.150823 0.00815286 -0.00480688 0.25098 0.25098 0.25098 0
0.0256279 -0.00110716 0.0045383 0.792157 0.819608 0.933333 1
-0.0139276 0.00407527 -0.00643701 0.792157 0.819608 0.933333 2
0.025023 -0.00613929 0.00172328 0.792157 0.819608 0.933333 1
0.101625 0.00266204 0.0047283 0.792157 0.819608 0.933333 1
0.0126503 -0.001249 -0.006206 0.792157 0.819608 0.933333 1
0.0221454 0.0283349 0.00343772 0.898039 0.898039 0.898039 5
0.108716 -0.0362163 0.002413 0.792157 0.819608 0.933333 1
0.107524 0.0350036 -0.002413 0.898039 0.898039 0.898039 3
0.0918343 -0.020265 0.002413 0.792157 0.819608 0.933333 1
0.0800228 0.00674511 0.000813207 0.898039 0.898039 0.898039 3
0.0516763 0.0252133 -0.00104596 0.898039 0.898039 0.898039 5
0.0350995 0.00583597 0.002286 0.898039 0.898039 0.898039 7
0.0868912 -0.0201523 -0.00230577 0.792157 0.819608 0.933333 1
0.144578 0.0202546 0.002413 0.898039 0.898039 0.898039 3
0.0721538 -0.00591123 0.00435337 0.792157 0.819608 0.933333 1
0.114445 -0.0432539 0.002413 0.792157 0.819608 0.933333 1
0.0860764 0.0168296 -0.004572 0.898039 0.898039 0.898039 5
0.0361219 0.00773497 0.002286 0.898039 0.898039 0.898039 7
