ply
format ascii 1.0
comment Created by Open3D
element vertex 677
property float32 x
property float32 y
property float32 z
property float32 red
property float32 green
property float32 blue
property float32 volume
property uint8 segmentation
end_header
-0.390285 -0.109753 -0.010638 0.3415 0.062325 0.429425 4.68206e-06 1
-0.397119 -0.0995921 -0.00020591 0.3415 0.062325 0.429425 3.83116e-06 1
-0.379274 -0.111856 0.00750057 0.3415 0.062325 0.429425 4.30895e-07 1
-0.393099 -0.114532 0.00241689 0.3415 0.062325 0.429425 2.5947e-06 1
-0.395327 -0.111591 -0.000305654 0.3415 0.062325 0.429425 1.95519e-06 1
-0.392859 -0.105728 -0.00142035 0.3415 0.062325 0.429425 7.92627e-06 1
-0.376399 -0.110182 0.0114816 0.3415 0.062325 0.429425 2.42333e-07 1
-0.393809 -0.107973 0.00424371 0.3415 0.062325 0.429425 3.33658e-06 1
-0.375328 -0.107828 0.0135912 0.3415 0.062325 0.429425 3.45657e-07 1
-0.388532 -0.109741 0.00760857 0.3415 0.062325 0.429425 2.74473e-06 1
-0.390918 -0.110091 0.0104814 0.3415 0.062325 0.429425 2.0408e-07 1
-0.374231 -0.111002 0.00522775 0.3415 0.062325 0.429425 2.70088e-06 1
-0.380233 -0.105395 0.013957 0.3415 0.062325 0.429425 8.69965e-07 1
-0.398069 -0.101836 0.00545815 0.3415 0.062325 0.429425 1.65589e-06 1
-0.375417 -0.114071 0.00599784 0.3415 0.062325 0.429425 6.25318e-07 1
-0.377062 -0.111005 0.00796646 0.3415 0.062325 0.429425 1.17196e-06 1
-0.384129 -0.116367 0.00551619 0.3415 0.062325 0.429425 3.62437e-07 1
-0.382167 -0.108124 0.00896674 0.3415 0.062325 0.429425 4.02554e-06 1
-0.380619 -0.100202 0.00585983 0.3415 0.062325 0.429425 1.50742e-05 1
-0.386033 -0.0995748 -0.0011624 0.3415 0.062325 0.429425 1.83627e-05 1
-0.391826 -0.107952 0.0124097 0.3415 0.062325 0.429425 7.39899e-07 1
-0.382957 -0.100082 0.0162188 0.3415 0.062325 0.429425 9.36776e-07 1
-0.387267 -0.109674 0.0124258 0.3415 0.062325 0.429425 1.47649e-06 1
-0.381141 -0.103257 0.0158854 0.3415 0.062325 0.429425 4.03223e-07 1
-0.382947 -0.106597 0.0145433 0.3415 0.062325 0.429425 8.66232e-07 1
-0.349255 -0.092912 0.010556 0.3415 0.062325 0.429425 1.47322e-06 1
-0.362653 -0.0996822 0.0149313 0.3415 0.062325 0.429425 3.94277e-07 1
-0.360396 -0.0983937 0.0141149 0.3415 0.062325 0.429425 3.22569e-07 1
-0.347063 -0.086236 0.00797815 0.3415 0.062325 0.429425 6.27144e-07 1
-0.351908 -0.0961212 0.0151309 0.3415 0.062325 0.429425 2.72511e-07 1
-0.358277 -0.0963981 0.0152216 0.3415 0.062325 0.429425 5.02973e-07 1
-0.346009 -0.0924497 0.0100643 0.3415 0.062325 0.429425 7.75003e-07 1
-0.350722 -0.0851806 0.00717416 0.3415 0.062325 0.429425 1.09835e-06 1
-0.350058 -0.0970456 0.00700619 0.3415 0.062325 0.429425 6.44514e-06 1
-0.360723 -0.0952549 0.0148602 0.3415 0.062325 0.429425 3.26088e-07 1
-0.367411 -0.0994903 0.00244069 0.3415 0.062325 0.429425 7.40889e-06 1
-0.353811 -0.0983062 0.0146642 0.3415 0.062325 0.429425 4.40493e-07 1
-0.348217 -0.089253 0.00980532 0.3415 0.062325 0.429425 1.47932e-06 1
-0.360574 -0.100339 0.0115221 0.3415 0.062325 0.429425 1.75804e-06 1
-0.367451 -0.103019 0.0130566 0.3415 0.062325 0.429425 1.17603e-06 1
-0.367072 -0.0985561 0.015304 0.3415 0.062325 0.429425 4.00764e-07 1
-0.370058 -0.0966944 0.00907418 0.3415 0.062325 0.429425 5.23454e-06 1
-0.371444 -0.0892973 0.00910923 0.3415 0.062325 0.429425 1.43588e-06 1
-0.371772 -0.0950731 0.0162371 0.3415 0.062325 0.429425 4.00764e-07 1
-0.373536 -0.0921389 0.0140248 0.3415 0.062325 0.429425 1.61744e-06 1
-0.371172 -0.10623 0.0144666 0.3415 0.062325 0.429425 3.03895e-07 1
-0.359032 -0.0941074 0.00756866 0.3415 0.062325 0.429425 5.41282e-06 1
-0.355461 -0.099536 0.00429746 0.3415 0.062325 0.429425 3.01119e-06 1
-0.363261 -0.099583 0.00246963 0.3415 0.062325 0.429425 1.75464e-06 1
-0.360962 -0.0985348 0.00763978 0.3415 0.062325 0.429425 8.85752e-07 1
-0.363558 -0.0985286 0.00863655 0.3415 0.062325 0.429425 2.34181e-06 1
-0.359405 -0.0868321 0.00870072 0.3415 0.062325 0.429425 7.33918e-07 1
-0.39443 -0.0947136 0.00334836 0.3415 0.062325 0.429425 3.46462e-06 1
-0.348878 -0.113031 -0.00226637 0.3415 0.062325 0.429425 1.61911e-07 1
-0.392078 -0.0809331 0.00507683 0.3415 0.062325 0.429425 9.45994e-07 1
-0.393863 -0.0865196 0.000728595 0.3415 0.062325 0.429425 4.22828e-06 1
-0.380882 -0.102703 -0.0245039 0.3415 0.062325 0.429425 2.23684e-06 1
-0.382464 -0.0964414 -0.02077 0.3415 0.062325 0.429425 3.5613e-06 1
-0.387637 -0.0931694 -0.0200048 0.3415 0.062325 0.429425 5.76985e-07 1
-0.338126 -0.10794 -0.0086313 0.3415 0.062325 0.429425 7.97869e-07 1
-0.344015 -0.104265 -0.0151437 0.3415 0.062325 0.429425 6.60117e-07 1
-0.367124 -0.0978515 -0.0117799 0.3415 0.062325 0.429425 9.84357e-06 1
-0.384509 -0.108724 -0.0133657 0.3415 0.062325 0.429425 3.80757e-06 1
-0.385437 -0.0979668 -0.0165591 0.3415 0.062325 0.429425 5.86732e-06 1
-0.38441 -0.080643 -0.00282805 0.3415 0.062325 0.429425 1.50628e-06 1
-0.394882 -0.0892009 -0.00514098 0.3415 0.062325 0.429425 1.12595e-06 1
-0.3805 -0.0942977 0.0111836 0.3415 0.062325 0.429425 4.29769e-06 1
-0.374862 -0.0935971 -0.019311 0.3415 0.062325 0.429425 1.45684e-05 1
-0.392838 -0.0907674 -0.00352175 0.3415 0.062325 0.429425 3.01214e-06 1
-0.370019 -0.105208 -0.0079088 0.3415 0.062325 0.429425 5.30693e-06 1
-0.385521 -0.103833 -0.0185538 0.3415 0.062325 0.429425 2.46036e-06 1
-0.372679 -0.0911661 -0.0125268 0.3415 0.062325 0.429425 1.3054e-05 1
-0.381775 -0.102163 -0.00843949 0.3415 0.062325 0.429425 1.25995e-05 1
-0.354306 -0.0847661 0.00448722 0.3415 0.062325 0.429425 9.51224e-07 1
-0.381432 -0.106832 -0.0226459 0.3415 0.062325 0.429425 1.6388e-06 1
-0.377454 -0.106091 -0.0257507 0.3415 0.062325 0.429425 1.61004e-06 1
-0.39736 -0.0885069 0.00598444 0.3415 0.062325 0.429425 6.67618e-07 1
-0.384413 -0.104415 -0.0267859 0.3415 0.062325 0.429425 7.43621e-07 1
-0.344429 -0.107978 -0.0109221 0.3415 0.062325 0.429425 5.68077e-07 1
-0.372009 -0.100147 -0.0232227 0.3415 0.062325 0.429425 1.0652e-05 1
-0.383862 -0.100285 -0.0286439 0.3415 0.062325 0.429425 1.01499e-06 1
-0.362991 -0.0907159 -0.0084125 0.3415 0.062325 0.429425 1.00845e-05 1
-0.344724 -0.111502 -0.00759716 0.3415 0.062325 0.429425 1.85412e-07 1
-0.363886 -0.113714 -0.00225001 0.3415 0.062325 0.429425 8.58464e-07 1
-0.349046 -0.107045 -0.0176153 0.3415 0.062325 0.429425 8.29437e-07 1
-0.345093 -0.106923 -0.0148498 0.3415 0.062325 0.429425 3.55552e-07 1
-0.352655 -0.0920444 0.00286484 0.3415 0.062325 0.429425 7.40761e-06 1
-0.388547 -0.0819181 0.000468266 0.3415 0.062325 0.429425 3.63468e-06 1
-0.382583 -0.0857753 0.0110918 0.3415 0.062325 0.429425 9.24961e-07 1
-0.342827 -0.10833 -0.00868149 0.3415 0.062325 0.429425 1.13942e-06 1
-0.347181 -0.105248 -0.00210767 0.3415 0.062325 0.429425 3.33689e-06 1
-0.344294 -0.101731 -0.00642761 0.3415 0.062325 0.429425 6.00606e-06 1
-0.368993 -0.107862 0.0123649 0.3415 0.062325 0.429425 4.2611e-07 1
-0.346994 -0.105032 -0.0139714 0.3415 0.062325 0.429425 1.23081e-06 1
-0.384895 -0.0909897 0.0100309 0.3415 0.062325 0.429425 3.389e-06 1
-0.368134 -0.105629 -0.00209 0.3415 0.062325 0.429425 3.86803e-06 1
-0.356979 -0.112882 -0.00401112 0.3415 0.062325 0.429425 4.04663e-07 1
-0.372587 -0.114067 0.00325913 0.3415 0.062325 0.429425 3.62409e-07 1
-0.386366 -0.0881583 -0.00432801 0.3415 0.062325 0.429425 4.50577e-06 1
-0.392281 -0.082453 -0.000338813 0.3415 0.062325 0.429425 1.89674e-06 1
-0.380136 -0.0866015 0.00860766 0.3415 0.062325 0.429425 1.79913e-06 1
-0.360742 -0.111316 0.00844344 0.3415 0.062325 0.429425 2.73773e-07 1
-0.383657 -0.0833756 0.000729416 0.3415 0.062325 0.429425 2.83772e-06 1
-0.375742 -0.0899096 0.00976032 0.3415 0.062325 0.429425 2.42495e-06 1
-0.370781 -0.102833 0.00454348 0.3415 0.062325 0.429425 2.87305e-06 1
-0.39542 -0.0934382 0.00824599 0.3415 0.062325 0.429425 7.3341e-07 1
-0.372666 -0.102412 -0.00127531 0.3415 0.062325 0.429425 5.38219e-06 1
-0.376361 -0.10279 -0.00141726 0.3415 0.062325 0.429425 9.59322e-06 1
-0.374878 -0.111158 -0.0016835 0.3415 0.062325 0.429425 5.65509e-06 1
-0.370118 -0.109905 0.00811628 0.3415 0.062325 0.429425 7.07898e-07 1
-0.365163 -0.0919343 -1.07174e-05 0.3415 0.062325 0.429425 1.27104e-05 1
-0.367551 -0.084807 0.0046892 0.3415 0.062325 0.429425 1.57812e-06 1
-0.393301 -0.0851343 -0.00620839 0.3415 0.062325 0.429425 1.64231e-06 1
-0.39739 -0.0983636 0.00804047 0.3415 0.062325 0.429425 7.34598e-07 1
-0.357077 -0.10489 -0.00382218 0.3415 0.062325 0.429425 5.57527e-06 1
-0.361265 -0.103954 0.00585567 0.3415 0.062325 0.429425 3.43826e-06 1
-0.363426 -0.0851865 0.00730484 0.3415 0.062325 0.429425 1.37774e-06 1
-0.380491 -0.0829337 0.00617628 0.3415 0.062325 0.429425 1.71109e-06 1
-0.387958 -0.0921045 0.0025421 0.3415 0.062325 0.429425 8.33081e-06 1
-0.383786 -0.10714 -0.0293683 0.3415 0.062325 0.429425 7.44856e-07 1
-0.386087 -0.0972177 -0.0297004 0.3415 0.062325 0.429425 2.65235e-07 1
-0.326636 -0.102918 0.00242794 0.3415 0.062325 0.429425 1.87778e-06 1
-0.310229 -0.0905022 -0.00585553 0.3415 0.062325 0.429425 2.15378e-07 1
-0.311529 -0.100795 0.0113609 0.3415 0.062325 0.429425 8.59158e-07 1
-0.311196 -0.103936 0.00706892 0.3415 0.062325 0.429425 4.0035e-06 1
-0.299796 -0.105624 -0.00145915 0.3415 0.062325 0.429425 9.72075e-07 1
-0.307187 -0.104997 -0.00325305 0.3415 0.062325 0.429425 2.82927e-06 1
-0.303954 -0.102318 0.00842513 0.3415 0.062325 0.429425 1.53789e-06 1
-0.319022 -0.0976506 -0.0128023 0.3415 0.062325 0.429425 1.44883e-06 1
-0.3135 -0.10509 -0.00866828 0.3415 0.062325 0.429425 1.73888e-06 1
-0.303632 -0.104717 -0.00563508 0.3415 0.062325 0.429425 1.15479e-06 1
-0.291255 -0.0984896 0.0129493 0.3415 0.062325 0.429425 4.17815e-07 1
-0.303937 -0.105042 -0.00326307 0.3415 0.062325 0.429425 7.94828e-07 1
-0.337522 -0.0855571 0.00732788 0.3415 0.062325 0.429425 3.15214e-07 1
-0.305874 -0.100736 0.00117737 0.3415 0.062325 0.429425 3.34154e-06 1
-0.336642 -0.0882629 0.000581574 0.3415 0.062325 0.429425 1.06226e-06 1
-0.287128 -0.0993447 -0.0142394 0.3415 0.062325 0.429425 2.41496e-07 1
-0.296829 -0.105509 0.00044845 0.3415 0.062325 0.429425 2.28017e-06 1
-0.307278 -0.105417 0.00428265 0.3415 0.062325 0.429425 3.25461e-06 1
-0.318685 -0.0955 -0.00951066 0.3415 0.062325 0.429425 1.83089e-06 1
-0.32471 -0.100739 -0.00543818 0.3415 0.062325 0.429425 8.17232e-06 1
-0.300763 -0.106924 0.00898542 0.3415 0.062325 0.429425 2.34097e-06 1
-0.322364 -0.102523 0.00150338 0.3415 0.062325 0.429425 9.09999e-06 1
-0.291734 -0.0996633 -0.00817135 0.3415 0.062325 0.429425 1.81737e-06 1
-0.287262 -0.0986357 -0.0129836 0.3415 0.062325 0.429425 1.31337e-07 1
-0.31356 -0.100828 -0.0125563 0.3415 0.062325 0.429425 8.53616e-07 1
-0.324125 -0.109688 0.00225838 0.3415 0.062325 0.429425 4.73478e-07 1
-0.323347 -0.106804 -0.00799283 0.3415 0.062325 0.429425 2.10725e-06 1
-0.294737 -0.0920215 0.00622853 0.3415 0.062325 0.429425 7.93864e-07 1
-0.287257 -0.110384 -0.0015298 0.3415 0.062325 0.429425 2.39464e-07 1
-0.289356 -0.0967002 -0.0128342 0.3415 0.062325 0.429425 3.17055e-07 1
-0.28309 -0.0946161 -0.00726639 0.3415 0.062325 0.429425 1.4213e-06 1
-0.303881 -0.0997274 -0.00846164 0.3415 0.062325 0.429425 1.34947e-06 1
-0.302337 -0.0980023 -0.0144108 0.3415 0.062325 0.429425 3.72113e-07 1
-0.285845 -0.105438 -0.0014079 0.3415 0.062325 0.429425 4.75239e-06 1
-0.309247 -0.100912 -0.00621075 0.3415 0.062325 0.429425 2.23762e-06 1
-0.279068 -0.0984459 0.0108809 0.3415 0.062325 0.429425 1.19716e-06 1
-0.285241 -0.104759 0.00651731 0.3415 0.062325 0.429425 1.34609e-06 1
-0.284367 -0.097643 -0.0147354 0.3415 0.062325 0.429425 1.34271e-07 1
-0.293231 -0.0979463 -0.0146333 0.3415 0.062325 0.429425 1.29304e-07 1
-0.30602 -0.0972178 -0.0123918 0.3415 0.062325 0.429425 8.87087e-07 1
-0.308743 -0.0949249 0.000350581 0.3415 0.062325 0.429425 3.67698e-06 1
-0.310532 -0.0955693 -0.00426737 0.3415 0.062325 0.429425 3.02402e-06 1
-0.288801 -0.0978155 -0.0101925 0.3415 0.062325 0.429425 1.41943e-06 1
-0.281102 -0.104712 0.00778064 0.3415 0.062325 0.429425 2.67104e-06 1
-0.307042 -0.109926 -0.00333552 0.3415 0.062325 0.429425 1.78927e-07 1
-0.299251 -0.100727 0.00895993 0.3415 0.062325 0.429425 2.56633e-06 1
-0.305833 -0.100551 -0.00763397 0.3415 0.062325 0.429425 9.63939e-07 1
-0.29606 -0.105333 0.00952021 0.3415 0.062325 0.429425 1.0254e-06 1
-0.278823 -0.0954476 -0.0100355 0.3415 0.062325 0.429425 2.52234e-06 1
-0.297763 -0.0976397 -0.0133524 0.3415 0.062325 0.429425 1.49447e-08 1
-0.284569 -0.101685 0.00290921 0.3415 0.062325 0.429425 4.72643e-06 1
-0.308935 -0.100206 -0.0128203 0.3415 0.062325 0.429425 6.02928e-07 1
-0.279371 -0.100157 0.0124281 0.3415 0.062325 0.429425 1.16456e-06 1
-0.290498 -0.0919197 0.00372393 0.3415 0.062325 0.429425 7.31958e-07 1
-0.282369 -0.0970264 -0.0141663 0.3415 0.062325 0.429425 1.74468e-07 1
-0.29123 -0.0974901 -0.0142013 0.3415 0.062325 0.429425 1.84554e-07 1
-0.307312 -0.103398 -0.011472 0.3415 0.062325 0.429425 4.11208e-07 1
-0.29609 -0.103637 0.00417845 0.3415 0.062325 0.429425 2.66116e-06 1
-0.310928 -0.0941246 -0.0128024 0.3415 0.062325 0.429425 5.43934e-08 1
-0.284222 -0.101471 0.0119677 0.3415 0.062325 0.429425 5.3605e-07 1
-0.296496 -0.0998756 -0.0132287 0.3415 0.062325 0.429425 5.19873e-07 1
-0.29286 -0.100677 -0.000395908 0.3415 0.062325 0.429425 3.20175e-06 1
-0.290195 -0.105378 -0.00139449 0.3415 0.062325 0.429425 2.2133e-07 1
-0.299469 -0.0989428 0.0048899 0.3415 0.062325 0.429425 3.77259e-06 1
-0.295531 -0.0950424 0.00733209 0.3415 0.062325 0.429425 2.08156e-06 1
-0.295372 -0.0973183 -0.0134888 0.3415 0.062325 0.429425 3.33646e-08 1
-0.311937 -0.10402 -0.0112081 0.3415 0.062325 0.429425 5.82182e-07 1
-0.305461 -0.104107 -0.0103555 0.3415 0.062325 0.429425 7.01652e-07 1
-0.302468 -0.0974537 -0.0132921 0.3415 0.062325 0.429425 8.33879e-07 1
-0.283588 -0.0969417 0.0036206 0.3415 0.062325 0.429425 7.44878e-07 1
-0.280308 -0.101691 0.00667708 0.3415 0.062325 0.429425 1.09816e-06 1
-0.291292 -0.0949406 0.00482749 0.3415 0.062325 0.429425 2.28779e-06 1
-0.288179 -0.0997533 0.00665262 0.3415 0.062325 0.429425 2.8395e-07 1
-0.292121 -0.0988058 0.00333409 0.3415 0.062325 0.429425 4.003e-06 1
-0.285918 -0.108279 0.00948745 0.3415 0.062325 0.429425 7.51316e-07 1
-0.295312 -0.0968268 0.0114021 0.3415 0.062325 0.429425 9.27919e-07 1
-0.293166 -0.108361 0.00727532 0.3415 0.062325 0.429425 5.64254e-07 1
-0.281931 -0.108577 0.00628724 0.3415 0.062325 0.429425 1.72007e-06 1
-0.302817 -0.09603 -0.0091497 0.3415 0.062325 0.429425 1.59066e-06 1
-0.300453 -0.09979 -0.00856401 0.3415 0.062325 0.429425 6.89383e-07 1
-0.294601 -0.0966897 -0.00440477 0.3415 0.062325 0.429425 3.65375e-06 1
-0.291936 -0.101391 -0.00540335 0.3415 0.062325 0.429425 9.43326e-07 1
-0.30068 -0.101162 -0.00592498 0.3415 0.062325 0.429425 6.45421e-07 1
-0.298428 -0.101602 -0.00451922 0.3415 0.062325 0.429425 2.20003e-06 1
-0.285131 -0.098728 -0.0136703 0.3415 0.062325 0.429425 1.2258e-07 1
-0.297691 -0.103024 -0.0114219 0.3415 0.062325 0.429425 7.63665e-07 1
-0.295398 -0.10417 -0.00969901 0.3415 0.062325 0.429425 1.15833e-06 1
-0.298015 -0.105863 -0.00692356 0.3415 0.062325 0.429425 1.02365e-06 1
-0.295763 -0.106302 -0.0055178 0.3415 0.062325 0.429425 6.58188e-07 1
-0.293372 -0.096862 -0.0130568 0.3415 0.062325 0.429425 3.17055e-07 1
-0.287508 -0.101691 -0.00900739 0.3415 0.062325 0.429425 2.41202e-06 1
-0.28336 -0.103479 -0.0062528 0.3415 0.062325 0.429425 5.14171e-06 1
-0.314819 -0.0968305 -0.0116047 0.3415 0.062325 0.429425 5.20504e-07 1
-0.307396 -0.0992124 0.0117683 0.3415 0.062325 0.429425 1.94823e-06 1
-0.312531 -0.0931546 -0.0118012 0.3415 0.062325 0.429425 1.05703e-07 1
-0.310527 -0.0927528 -0.0112209 0.3415 0.062325 0.429425 3.30015e-08 1
-0.315531 -0.0988004 -0.00630415 0.3415 0.062325 0.429425 1.10909e-06 1
-0.314722 -0.100526 -0.00843506 0.3415 0.062325 0.429425 1.12049e-06 1
-0.313334 -0.0953853 -0.00592798 0.3415 0.062325 0.429425 6.44207e-07 1
-0.308562 -0.092251 -0.00856695 0.3415 0.062325 0.429425 2.40443e-07 1
-0.316216 -0.0914928 -0.0123348 0.3415 0.062325 0.429425 2.908e-07 1
-0.309583 -0.0931108 0.0115747 0.3415 0.062325 0.429425 8.51316e-07 1
-0.320511 -0.0925737 -0.0129598 0.3415 0.062325 0.429425 7.66974e-07 1
-0.320352 -0.0945026 -0.00536785 0.3415 0.062325 0.429425 4.60388e-06 1
-0.318989 -0.100567 -0.0079225 0.3415 0.062325 0.429425 2.01608e-06 1
-0.312657 -0.0982915 0.00401318 0.3415 0.062325 0.429425 5.97459e-06 1
-0.31299 -0.0951504 0.00830518 0.3415 0.062325 0.429425 1.97344e-06 1
-0.329711 -0.106222 -0.0110612 0.3415 0.062325 0.429425 1.33245e-06 1
-0.320048 -0.0894354 -0.00695601 0.3415 0.062325 0.429425 8.76579e-07 1
-0.326507 -0.0993435 0.00681778 0.3415 0.062325 0.429425 8.22923e-06 1
-0.327727 -0.106897 -0.00888989 0.3415 0.062325 0.429425 7.36963e-07 1
-0.318306 -0.109095 0.00538444 0.3415 0.062325 0.429425 1.99936e-06 1
-0.32909 -0.100832 -0.00633525 0.3415 0.062325 0.429425 7.45719e-07 1
-0.330207 -0.104527 -0.00220419 0.3415 0.062325 0.429425 2.64205e-07 1
-0.328699 -0.106136 0.00961877 0.3415 0.062325 0.429425 1.83111e-06 1
-0.330044 -0.098196 0.00100071 0.3415 0.062325 0.429425 1.69262e-06 1
-0.348512 -0.0941598 -0.00639697 0.3415 0.062325 0.429425 5.61357e-06 1
-0.331584 -0.088376 0.000616854 0.3415 0.062325 0.429425 7.92021e-07 1
-0.340707 -0.084958 0.00687053 0.3415 0.062325 0.429425 6.00205e-07 1
-0.338185 -0.0875002 -0.00758054 0.3415 0.062325 0.429425 3.21964e-06 1
-0.337308 -0.0894621 -0.0137252 0.3415 0.062325 0.429425 1.18994e-06 1
-0.329438 -0.0916605 -0.0112758 0.3415 0.062325 0.429425 1.54134e-06 1
-0.316314 -0.0936119 0.00868021 0.3415 0.062325 0.429425 6.901e-07 1
-0.341355 -0.103495 0.00835584 0.3415 0.062325 0.429425 4.6098e-06 1
-0.34422 -0.0965894 0.00551958 0.3415 0.062325 0.429425 3.51273e-06 1
-0.332627 -0.0983654 -0.00654326 0.3415 0.062325 0.429425 7.12697e-06 1
-0.347189 -0.109017 0.00821185 0.3415 0.062325 0.429425 7.84946e-08 1
-0.335198 -0.087433 -0.00250544 0.3415 0.062325 0.429425 5.19796e-06 1
-0.345169 -0.0892089 -0.0152367 0.3415 0.062325 0.429425 1.18994e-06 1
-0.325859 -0.0849782 0.00684427 0.3415 0.062325 0.429425 3.56636e-07 1
-0.342303 -0.0956363 -0.0019774 0.3415 0.062325 0.429425 2.35609e-06 1
-0.334774 -0.104021 -0.0119194 0.3415 0.062325 0.429425 6.51025e-07 1
-0.318006 -0.0962864 0.00157371 0.3415 0.062325 0.429425 5.14073e-06 1
-0.330757 -0.0915028 -0.00547664 0.3415 0.062325 0.429425 3.30869e-06 1
-0.339752 -0.0890786 0.00119754 0.3415 0.062325 0.429425 4.91373e-06 1
-0.351141 -0.107361 0.0105994 0.3415 0.062325 0.429425 4.95659e-07 1
-0.333253 -0.088601 -0.0102574 0.3415 0.062325 0.429425 3.00713e-06 1
-0.312668 -0.0903637 0.00755419 0.3415 0.062325 0.429425 2.48478e-06 1
-0.354107 -0.113161 -0.000833347 0.3415 0.062325 0.429425 1.19111e-07 1
-0.309229 -0.0886215 0.00333464 0.3415 0.062325 0.429425 2.77249e-07 1
-0.320544 -0.0962746 0.0129997 0.3415 0.062325 0.429425 1.23733e-06 1
-0.353329 -0.110747 0.00751053 0.3415 0.062325 0.429425 7.15999e-08 1
-0.338838 -0.0996943 0.0127157 0.3415 0.062325 0.429425 2.54641e-06 1
-0.354934 -0.105152 0.00834487 0.3415 0.062325 0.429425 1.15234e-06 1
-0.352687 -0.102591 0.0110316 0.3415 0.062325 0.429425 2.19621e-06 1
-0.36087 -0.113001 -0.000500188 0.3415 0.062325 0.429425 5.13711e-07 1
-0.34243 -0.0961495 0.0143716 0.3415 0.062325 0.429425 9.06361e-07 1
-0.343054 -0.108727 0.00841529 0.3415 0.062325 0.429425 1.58821e-06 1
-0.346228 -0.102812 0.00309321 0.3415 0.062325 0.429425 6.09014e-06 1
-0.347496 -0.110008 0.00572604 0.3415 0.062325 0.429425 7.81387e-07 1
-0.353151 -0.108801 0.0101033 0.3415 0.062325 0.429425 1.92171e-07 1
-0.354736 -0.109789 0.0081078 0.3415 0.062325 0.429425 1.58788e-07 1
-0.349781 -0.109011 0.00920681 0.3415 0.062325 0.429425 6.003e-08 1
-0.354479 -0.111235 0.00833869 0.3415 0.062325 0.429425 9.67742e-08 1
-0.349383 -0.0987308 -0.0158664 0.3415 0.062325 0.429425 4.4573e-06 1
-0.343764 -0.110992 0.00692878 0.3415 0.062325 0.429425 5.49635e-07 1
-0.353068 -0.110448 0.00920105 0.3415 0.062325 0.429425 7.27781e-08 1
-0.358103 -0.103819 0.011334 0.3415 0.062325 0.429425 1.81228e-06 1
-0.352028 -0.111572 0.0065201 0.3415 0.062325 0.429425 1.08578e-07 1
-0.352998 -0.113452 -0.00242467 0.3415 0.062325 0.429425 7.97901e-08 1
-0.357908 -0.110201 0.0096373 0.3415 0.062325 0.429425 1.52832e-07 1
-0.357904 -0.108456 0.0110969 0.3415 0.062325 0.429425 2.49276e-07 1
-0.349327 -0.0881642 -0.0118261 0.3415 0.062325 0.429425 4.13787e-06 1
-0.35144 -0.0950074 -0.0105853 0.3415 0.062325 0.429425 9.22665e-06 1
-0.346399 -0.0873166 -0.00763783 0.3415 0.062325 0.429425 2.00884e-06 1
-0.351399 -0.0976769 -0.00207703 0.3415 0.062325 0.429425 4.07198e-06 1
-0.354206 -0.105168 -0.000644405 0.3415 0.062325 0.429425 1.64106e-06 1
-0.360968 -0.105009 -0.000311245 0.3415 0.062325 0.429425 7.07769e-06 1
-0.336563 -0.0960544 0.000166196 0.3415 0.062325 0.429425 7.56731e-06 1
-0.324166 -0.0934756 0.0119643 0.3415 0.062325 0.429425 1.07216e-06 1
-0.318492 -0.0899829 0.00455777 0.3415 0.062325 0.429425 3.31225e-06 1
-0.32619 -0.093009 0.0091498 0.3415 0.062325 0.429425 1.57762e-06 1
-0.322687 -0.0898888 0.00769234 0.3415 0.062325 0.429425 4.03884e-06 1
-0.339114 -0.102612 -0.00300875 0.3415 0.062325 0.429425 5.66233e-06 1
-0.337175 -0.105912 0.00115916 0.3415 0.062325 0.429425 2.35267e-06 1
-0.328926 -0.0945011 -0.00313035 0.3415 0.062325 0.429425 1.45603e-06 1
-0.331542 -0.103223 -0.0134075 0.3415 0.062325 0.429425 2.87659e-07 1
-0.322924 -0.089499 -0.00962058 0.3415 0.062325 0.429425 1.62143e-06 1
-0.334624 -0.0993545 0.00433411 0.3415 0.062325 0.429425 3.28477e-06 1
-0.329653 -0.0949201 0.0063393 0.3415 0.062325 0.429425 1.85702e-06 1
-0.334203 -0.111915 -0.00229212 0.3415 0.062325 0.429425 5.94921e-08 1
-0.337498 -0.105842 0.00502678 0.3415 0.062325 0.429425 2.36055e-06 1
-0.334982 -0.102041 0.00938667 0.3415 0.062325 0.429425 2.1574e-06 1
-0.323008 -0.109118 0.00835498 0.3415 0.062325 0.429425 1.44454e-06 1
-0.334234 -0.0960786 0.0096727 0.3415 0.062325 0.429425 3.7312e-06 1
-0.269944 -0.097943 -0.00974262 0.3415 0.062325 0.429425 1.01931e-06 1
-0.240166 -0.099056 -0.00957245 0.3415 0.062325 0.429425 2.28318e-06 1
-0.245005 -0.105988 -0.00597169 0.3415 0.062325 0.429425 1.15753e-06 1
-0.256238 -0.0992582 0.00925135 0.3415 0.062325 0.429425 7.19343e-06 1
-0.244325 -0.101303 -0.00187814 0.3415 0.062325 0.429425 4.24932e-06 1
-0.242666 -0.105778 -0.00682715 0.3415 0.062325 0.429425 6.58157e-07 1
-0.266982 -0.0971414 -0.00691529 0.3415 0.062325 0.429425 1.03918e-06 1
-0.250711 -0.104955 -0.0115852 0.3415 0.062325 0.429425 5.47045e-07 1
-0.270176 -0.0974846 0.00763052 0.3415 0.062325 0.429425 1.5497e-07 1
-0.264154 -0.0959922 0.000483256 0.3415 0.062325 0.429425 2.85124e-06 1
-0.264159 -0.107196 0.00803586 0.3415 0.062325 0.429425 4.23981e-06 1
-0.24688 -0.100531 -0.0125338 0.3415 0.062325 0.429425 6.63367e-07 1
-0.268406 -0.102468 0.00504555 0.3415 0.062325 0.429425 3.74588e-06 1
-0.241986 -0.101092 -0.0027336 0.3415 0.062325 0.429425 9.51178e-07 1
-0.267204 -0.0977227 0.00449354 0.3415 0.062325 0.429425 9.54357e-07 1
-0.271417 -0.10073 0.00342672 0.3415 0.062325 0.429425 3.07494e-07 1
-0.239809 -0.106763 -0.0109169 0.3415 0.062325 0.429425 6.10008e-07 1
-0.266647 -0.104268 -0.00413756 0.3415 0.062325 0.429425 2.66414e-06 1
-0.241332 -0.0959485 -0.0121192 0.3415 0.062325 0.429425 6.84629e-07 1
-0.239378 -0.102355 0.00761376 0.3415 0.062325 0.429425 3.71444e-06 1
-0.243263 -0.107239 -0.0101402 0.3415 0.062325 0.429425 2.52785e-07 1
-0.253888 -0.0926886 0.00716517 0.3415 0.062325 0.429425 2.46105e-06 1
-0.249621 -0.0974313 0.00768725 0.3415 0.062325 0.429425 1.86072e-06 1
-0.260505 -0.0945154 0.00872928 0.3415 0.062325 0.429425 2.26153e-06 1
-0.245995 -0.0975619 -0.0143681 0.3415 0.062325 0.429425 2.37761e-07 1
-0.243911 -0.10347 -0.00992666 0.3415 0.062325 0.429425 1.02266e-06 1
-0.26021 -0.102477 0.00503758 0.3415 0.062325 0.429425 7.76117e-06 1
-0.254561 -0.105684 0.000947753 0.3415 0.062325 0.429425 4.6267e-06 1
-0.250017 -0.10063 0.00353264 0.3415 0.062325 0.429425 5.6351e-06 1
-0.262356 -0.0992923 -0.00394404 0.3415 0.062325 0.429425 2.17993e-06 1
-0.246232 -0.104299 -0.0127473 0.3415 0.062325 0.429425 2.10535e-07 1
-0.249779 -0.101061 -0.00592813 0.3415 0.062325 0.429425 9.78565e-07 1
-0.2491 -0.0963762 -0.00183458 0.3415 0.062325 0.429425 5.90612e-06 1
-0.243767 -0.102579 0.0045958 0.3415 0.062325 0.429425 2.38382e-06 1
-0.247022 -0.10237 0.0076077 0.3415 0.062325 0.429425 9.52931e-07 1
-0.241426 -0.107169 0.00813593 0.3415 0.062325 0.429425 4.05138e-06 1
-0.245814 -0.107392 0.00511797 0.3415 0.062325 0.429425 1.64502e-06 1
-0.264477 -0.097734 0.0045155 0.3415 0.062325 0.429425 1.92411e-06 1
-0.269646 -0.105713 0.000841741 0.3415 0.062325 0.429425 4.47586e-06 1
-0.251359 -0.101186 -0.0113717 0.3415 0.062325 0.429425 1.78072e-06 1
-0.253328 -0.0993977 -0.00782961 0.3415 0.062325 0.429425 3.30895e-06 1
-0.257029 -0.104242 -0.00400162 0.3415 0.062325 0.429425 2.84911e-06 1
-0.253165 -0.103873 -0.00551029 0.3415 0.062325 0.429425 2.15629e-06 1
-0.274556 -0.097519 0.0100988 0.3415 0.062325 0.429425 2.39432e-06 1
-0.264404 -0.10864 -0.00693422 0.3415 0.062325 0.429425 9.69894e-07 1
-0.254083 -0.104727 -0.0127565 0.3415 0.062325 0.429425 9.44744e-07 1
-0.257226 -0.108253 -0.00838808 0.3415 0.062325 0.429425 1.04692e-06 1
-0.253165 -0.107527 -0.0108617 0.3415 0.062325 0.429425 4.20327e-07 1
-0.254142 -0.108831 -0.005649 0.3415 0.062325 0.429425 6.12476e-07 1
-0.258596 -0.0938082 -0.0103236 0.3415 0.062325 0.429425 7.33537e-07 1
-0.25787 -0.0964541 -0.00967791 0.3415 0.062325 0.429425 2.49437e-06 1
-0.267549 -0.100053 -0.0128573 0.3415 0.062325 0.429425 1.04518e-06 1
-0.259958 -0.100051 -0.0141584 0.3415 0.062325 0.429425 2.15723e-07 1
-0.271618 -0.0985716 -0.0123693 0.3415 0.062325 0.429425 6.6261e-07 1
-0.266015 -0.0957648 -0.00925939 0.3415 0.062325 0.429425 2.4398e-06 1
-0.261981 -0.0966198 -0.00990576 0.3415 0.062325 0.429425 3.02768e-07 1
-0.255902 -0.0982428 -0.01322 0.3415 0.062325 0.429425 1.20304e-06 1
-0.274575 -0.0960334 0.00287478 0.3415 0.062325 0.429425 4.56441e-06 1
-0.279056 -0.0960292 0.000370299 0.3415 0.062325 0.429425 4.80651e-06 1
-0.275797 -0.100764 0.00589501 0.3415 0.062325 0.429425 5.67302e-06 1
-0.268256 -0.0984235 -0.0143719 0.3415 0.062325 0.429425 2.4164e-07 1
-0.263602 -0.0988912 -0.013243 0.3415 0.062325 0.429425 3.47996e-08 1
-0.272325 -0.0969426 -0.013884 0.3415 0.062325 0.429425 5.09723e-07 1
-0.271272 -0.102117 -0.00710881 0.3415 0.062325 0.429425 5.14127e-06 1
-0.275861 -0.0946459 -0.00720818 0.3415 0.062325 0.429425 8.61309e-07 1
-0.277552 -0.0988128 -0.00518599 0.3415 0.062325 0.429425 5.7073e-06 1
-0.276327 -0.0978005 -0.0147014 0.3415 0.062325 0.429425 3.48936e-07 1
-0.240128 -0.0963411 -0.0039832 0.3415 0.062325 0.429425 7.36454e-06 1
-0.208187 -0.105975 -0.000529067 0.3415 0.062325 0.429425 6.82742e-07 1
-0.225009 -0.102385 0.00771434 0.3415 0.062325 0.429425 8.33702e-07 1
-0.236458 -0.094518 -0.0123028 0.3415 0.062325 0.429425 5.35651e-07 1
-0.237427 -0.0995996 -0.0121444 0.3415 0.062325 0.429425 6.7947e-07 1
-0.233716 -0.105812 -0.0040702 0.3415 0.062325 0.429425 9.75468e-07 1
-0.219029 -0.105904 -0.00904972 0.3415 0.062325 0.429425 1.14326e-06 1
-0.224126 -0.105454 -0.0101249 0.3415 0.062325 0.429425 2.74318e-06 1
-0.235741 -0.100791 0.00224553 0.3415 0.062325 0.429425 7.20005e-06 1
-0.231666 -0.105799 -0.000196779 0.3415 0.062325 0.429425 3.47978e-06 1
-0.236261 -0.102707 -0.00959771 0.3415 0.062325 0.429425 2.16008e-06 1
-0.211227 -0.100497 0.00323272 0.3415 0.062325 0.429425 1.39143e-06 1
-0.2171 -0.0974058 0.010134 0.3415 0.062325 0.429425 1.20556e-06 1
-0.209044 -0.10095 -0.00066863 0.3415 0.062325 0.429425 1.25962e-06 1
-0.232553 -0.0981691 -0.0123281 0.3415 0.062325 0.429425 2.71384e-06 1
-0.215122 -0.103576 -0.0120925 0.3415 0.062325 0.429425 5.26486e-07 1
-0.208292 -0.106604 -0.0114676 0.3415 0.062325 0.429425 6.16779e-07 1
-0.22308 -0.107137 0.00820375 0.3415 0.062325 0.429425 3.0678e-06 1
-0.22049 -0.10248 0.00596444 0.3415 0.062325 0.429425 4.18246e-06 1
-0.216287 -0.105243 -0.00214639 0.3415 0.062325 0.429425 4.00608e-06 1
-0.215484 -0.0992936 -0.00970438 0.3415 0.062325 0.429425 2.67471e-06 1
-0.218407 -0.10062 0.00164029 0.3415 0.062325 0.429425 5.02885e-06 1
-0.207172 -0.0912344 -0.00162784 0.3415 0.062325 0.429425 4.91243e-07 1
-0.235407 -0.0991762 0.011794 0.3415 0.062325 0.429425 3.44692e-06 1
-0.214338 -0.100468 0.00718578 0.3415 0.062325 0.429425 1.39719e-06 1
-0.219392 -0.101622 -0.00666159 0.3415 0.062325 0.429425 5.80814e-06 1
-0.210206 -0.101088 -0.00231573 0.3415 0.062325 0.429425 1.26999e-06 1
-0.212243 -0.105245 -0.00219815 0.3415 0.062325 0.429425 1.89537e-07 1
-0.210276 -0.100842 -0.00485322 0.3415 0.062325 0.429425 1.52126e-06 1
-0.226018 -0.0976495 0.00641731 0.3415 0.062325 0.429425 1.10789e-06 1
-0.208154 -0.103537 -0.00772264 0.3415 0.062325 0.429425 6.67896e-07 1
-0.216883 -0.102262 0.00888769 0.3415 0.062325 0.429425 7.97041e-07 1
-0.20926 -0.0960939 0.000577643 0.3415 0.062325 0.429425 2.90214e-06 1
-0.213964 -0.0959233 -0.0117282 0.3415 0.062325 0.429425 1.87299e-06 1
-0.21856 -0.107232 0.00645385 0.3415 0.062325 0.429425 1.72605e-06 1
-0.208893 -0.0951417 -0.00986808 0.3415 0.062325 0.429425 7.41379e-07 1
-0.210413 -0.0985121 -0.00784426 0.3415 0.062325 0.429425 2.07598e-06 1
-0.227123 -0.100813 0.00228448 0.3415 0.062325 0.429425 4.24302e-06 1
-0.224197 -0.0972333 -0.00660578 0.3415 0.062325 0.429425 4.72152e-06 1
-0.23177 -0.0976124 0.00642579 0.3415 0.062325 0.429425 7.75559e-06 1
-0.21543 -0.110268 -0.00200683 0.3415 0.062325 0.429425 1.94639e-07 1
-0.214757 -0.0956631 0.00407121 0.3415 0.062325 0.429425 2.15798e-06 1
-0.228684 -0.101459 -0.00884245 0.3415 0.062325 0.429425 2.44524e-06 1
-0.223282 -0.095986 -0.000841395 0.3415 0.062325 0.429425 5.22137e-06 1
-0.227356 -0.0909789 0.00160092 0.3415 0.062325 0.429425 4.39389e-07 1
-0.229439 -0.0928385 0.00592507 0.3415 0.062325 0.429425 3.52904e-06 1
-0.232149 -0.104999 -0.00645077 0.3415 0.062325 0.429425 1.97342e-06 1
-0.23779 -0.100805 -0.00162789 0.3415 0.062325 0.429425 9.4635e-07 1
-0.186061 -0.101356 -0.0090703 0.3415 0.062325 0.429425 4.26827e-06 1
-0.206395 -0.107347 -0.0089579 0.3415 0.062325 0.429425 9.27641e-07 1
-0.184798 -0.100842 -0.000653519 0.3415 0.062325 0.429425 5.81201e-06 1
-0.202826 -0.0959752 0.0107199 0.3415 0.062325 0.429425 1.2328e-06 1
-0.193298 -0.0958792 0.00234487 0.3415 0.062325 0.429425 3.97958e-06 1
-0.208017 -0.105867 -0.0047316 0.3415 0.062325 0.429425 6.45227e-07 1
-0.209408 -0.097743 0.0124277 0.3415 0.062325 0.429425 1.99772e-06 1
-0.180285 -0.107172 0.00799475 0.3415 0.062325 0.429425 3.33224e-06 1
-0.199161 -0.10572 -0.00662673 0.3415 0.062325 0.429425 2.24003e-06 1
-0.19048 -0.0970413 -0.00695228 0.3415 0.062325 0.429425 4.72479e-06 1
-0.183503 -0.102425 0.00751597 0.3415 0.062325 0.429425 2.86018e-06 1
-0.179006 -0.102509 0.00750754 0.3415 0.062325 0.429425 2.09599e-06 1
-0.20467 -0.094616 0.00511883 0.3415 0.062325 0.429425 4.51857e-06 1
-0.17534 -0.0998353 0.0118202 0.3415 0.062325 0.429425 2.55776e-06 1
-0.196584 -0.105619 0.00866807 0.3415 0.062325 0.429425 2.35597e-06 1
-0.204358 -0.10319 -0.00907548 0.3415 0.062325 0.429425 3.4228e-06 1
-0.198386 -0.100935 0.00818541 0.3415 0.062325 0.429425 2.74969e-06 1
-0.199459 -0.101419 -0.00453119 0.3415 0.062325 0.429425 1.60985e-06 1
-0.195034 -0.0977043 -0.00788427 0.3415 0.062325 0.429425 2.13738e-06 1
-0.18671 -0.105562 0.00328308 0.3415 0.062325 0.429425 4.85281e-06 1
-0.202136 -0.108399 0.00915585 0.3415 0.062325 0.429425 7.2814e-07 1
-0.206606 -0.106078 -0.00178342 0.3415 0.062325 0.429425 9.19428e-07 1
-0.187906 -0.0992753 0.0118012 0.3415 0.062325 0.429425 2.19648e-06 1
-0.210718 -0.103732 0.00827218 0.3415 0.062325 0.429425 1.26691e-06 1
-0.207151 -0.0994112 0.0042892 0.3415 0.062325 0.429425 2.3249e-06 1
-0.209359 -0.108465 0.00876078 0.3415 0.062325 0.429425 2.99185e-07 1
-0.189583 -0.0958422 -0.00110907 0.3415 0.062325 0.429425 5.91309e-06 1
-0.207759 -0.108546 0.00743287 0.3415 0.062325 0.429425 2.27872e-07 1
-0.209118 -0.103814 0.00694427 0.3415 0.062325 0.429425 8.19947e-07 1
-0.202673 -0.0913262 0.00098846 0.3415 0.062325 0.429425 5.42332e-07 1
-0.204488 -0.0994705 -0.0123824 0.3415 0.062325 0.429425 1.32568e-06 1
-0.213479 -0.10067 0.0112204 0.3415 0.062325 0.429425 1.79699e-06 1
-0.183852 -0.105072 -0.00580211 0.3415 0.062325 0.429425 4.16107e-06 1
-0.199055 -0.108627 0.00613281 0.3415 0.062325 0.429425 1.33077e-06 1
-0.197509 -0.0982853 -0.013253 0.3415 0.062325 0.429425 1.8399e-06 1
-0.201715 -0.0969114 -0.00589809 0.3415 0.062325 0.429425 7.03596e-07 1
-0.201547 -0.0974933 -0.0113006 0.3415 0.062325 0.429425 6.17392e-07 1
-0.18987 -0.10563 -0.010747 0.3415 0.062325 0.429425 2.60017e-06 1
-0.201417 -0.101213 -0.00799363 0.3415 0.062325 0.429425 5.17029e-07 1
-0.194194 -0.102393 0.00757281 0.3415 0.062325 0.429425 1.75598e-06 1
-0.191514 -0.0974788 0.0100968 0.3415 0.062325 0.429425 1.86807e-06 1
-0.191103 -0.100627 0.00586264 0.3415 0.062325 0.429425 3.73634e-06 1
-0.200858 -0.103944 0.00565015 0.3415 0.062325 0.429425 1.50475e-06 1
-0.194737 -0.102006 -0.00997981 0.3415 0.062325 0.429425 2.60169e-06 1
-0.203356 -0.101081 -0.00234181 0.3415 0.062325 0.429425 1.03067e-06 1
-0.19886 -0.100654 0.00151977 0.3415 0.062325 0.429425 3.97574e-06 1
-0.201026 -0.0945777 0.00207777 0.3415 0.062325 0.429425 7.85932e-07 1
-0.201652 -0.0989458 0.00514352 0.3415 0.062325 0.429425 1.18779e-06 1
-0.203506 -0.0993728 0.00124813 0.3415 0.062325 0.429425 1.6303e-06 1
-0.2011 -0.105588 -0.000974904 0.3415 0.062325 0.429425 1.8898e-06 1
-0.140261 -0.103856 0.00532288 0.3415 0.062325 0.429425 4.74051e-06 1
-0.147686 -0.0921158 0.00438953 0.3415 0.062325 0.429425 4.02446e-07 1
-0.124855 -0.102591 0.00176437 0.3415 0.062325 0.429425 5.76899e-06 1
-0.145647 -0.107196 0.00794411 0.3415 0.062325 0.429425 8.21982e-07 1
-0.129148 -0.101682 -0.0069019 0.3415 0.062325 0.429425 1.17751e-06 1
-0.140708 -0.0986725 0.0129175 0.3415 0.062325 0.429425 5.91764e-07 1
-0.14035 -0.108547 0.00757625 0.3415 0.062325 0.429425 1.57195e-06 1
-0.145558 -0.102506 0.00569075 0.3415 0.062325 0.429425 2.40763e-06 1
-0.146848 -0.106086 -0.0095756 0.3415 0.062325 0.429425 2.99367e-06 1
-0.132491 -0.100704 0.0016586 0.3415 0.062325 0.429425 5.66066e-06 1
-0.146307 -0.0984023 0.00897504 0.3415 0.062325 0.429425 7.08762e-07 1
-0.132985 -0.0969934 -0.00554053 0.3415 0.062325 0.429425 5.89672e-06 1
-0.122779 -0.0972101 -0.0133717 0.3415 0.062325 0.429425 4.50765e-07 1
-0.125094 -0.100466 -0.0117183 0.3415 0.062325 0.429425 1.60677e-06 1
-0.125839 -0.101306 -0.0056262 0.3415 0.062325 0.429425 8.66676e-07 1
-0.12677 -0.0975631 -0.00885919 0.3415 0.062325 0.429425 3.15326e-06 1
-0.135838 -0.106466 -0.00823888 0.3415 0.062325 0.429425 2.0806e-06 1
-0.125537 -0.103854 -0.0122997 0.3415 0.062325 0.429425 5.43488e-07 1
-0.132174 -0.0931745 0.00766514 0.3415 0.062325 0.429425 1.80401e-06 1
-0.132335 -0.106133 -0.00955468 0.3415 0.062325 0.429425 1.0403e-06 1
-0.128403 -0.102397 0.00491021 0.3415 0.062325 0.429425 8.12387e-07 1
-0.132016 -0.0975139 0.00577071 0.3415 0.062325 0.429425 5.13218e-06 1
-0.135667 -0.0958528 -0.00144704 0.3415 0.062325 0.429425 1.4821e-06 1
-0.143464 -0.096672 -0.00308276 0.3415 0.062325 0.429425 2.47421e-07 1
-0.141009 -0.0997527 0.00860718 0.3415 0.062325 0.429425 1.45285e-06 1
-0.143343 -0.102139 -0.00987048 0.3415 0.062325 0.429425 9.86865e-07 1
-0.139469 -0.100993 -0.00146285 0.3415 0.062325 0.429425 1.12114e-06 1
-0.147253 -0.101677 -0.00313179 0.3415 0.062325 0.429425 4.07845e-06 1
-0.127773 -0.092902 0.00513661 0.3415 0.062325 0.429425 1.39169e-06 1
-0.130401 -0.105402 -0.0120934 0.3415 0.062325 0.429425 1.376e-06 1
-0.141079 -0.0984086 -0.0131008 0.3415 0.062325 0.429425 1.58385e-06 1
-0.136787 -0.102134 -0.00555634 0.3415 0.062325 0.429425 4.47108e-06 1
-0.140166 -0.0971242 -0.00981322 0.3415 0.062325 0.429425 1.61596e-06 1
-0.139366 -0.101433 -0.00819599 0.3415 0.062325 0.429425 1.91999e-06 1
-0.14243 -0.100855 -0.00658291 0.3415 0.062325 0.429425 1.05114e-06 1
-0.136921 -0.101446 0.0118588 0.3415 0.062325 0.429425 1.13355e-06 1
-0.136567 -0.0985504 0.0090392 0.3415 0.062325 0.429425 3.2347e-06 1
-0.140008 -0.0938523 0.00843232 0.3415 0.062325 0.429425 5.0249e-07 1
-0.136294 -0.105844 0.00164279 0.3415 0.062325 0.429425 4.13928e-06 1
-0.147134 -0.108985 0.00735977 0.3415 0.062325 0.429425 6.10648e-07 1
-0.159474 -0.0993613 0.012102 0.3415 0.062325 0.429425 9.74635e-07 1
-0.172971 -0.100713 0.00234047 0.3415 0.062325 0.429425 4.1081e-06 1
-0.167075 -0.100807 0.00329458 0.3415 0.062325 0.429425 2.55036e-06 1
-0.169661 -0.0960028 -0.000633589 0.3415 0.062325 0.429425 6.4485e-06 1
-0.149543 -0.0954635 0.00536427 0.3415 0.062325 0.429425 1.84548e-06 1
-0.176852 -0.096478 -0.00904163 0.3415 0.062325 0.429425 3.49804e-06 1
-0.151336 -0.105382 -0.0121847 0.3415 0.062325 0.429425 1.61482e-06 1
-0.169356 -0.100554 -0.00451448 0.3415 0.062325 0.429425 5.11601e-06 1
-0.169939 -0.098097 0.0101025 0.3415 0.062325 0.429425 3.63286e-06 1
-0.174283 -0.0957977 0.00491549 0.3415 0.062325 0.429425 8.23307e-06 1
-0.146834 -0.10033 0.0123217 0.3415 0.062325 0.429425 2.24233e-07 1
-0.163574 -0.105546 -0.00363583 0.3415 0.062325 0.429425 2.8261e-06 1
-0.16354 -0.101984 0.0108906 0.3415 0.062325 0.429425 1.58788e-06 1
-0.151261 -0.0967625 -0.00305979 0.3415 0.062325 0.429425 3.58923e-06 1
-0.157124 -0.0984614 0.0071307 0.3415 0.062325 0.429425 1.47118e-06 1
-0.156369 -0.10055 0.0113161 0.3415 0.062325 0.429425 6.3028e-07 1
-0.150749 -0.10915 0.00423976 0.3415 0.062325 0.429425 1.42745e-06 1
-0.152979 -0.0975106 0.011245 0.3415 0.062325 0.429425 1.06963e-06 1
-0.166638 -0.105341 -0.012146 0.3415 0.062325 0.429425 1.60354e-06 1
-0.169722 -0.099868 -0.00708805 0.3415 0.062325 0.429425 1.11181e-06 1
-0.166158 -0.101132 -0.00946491 0.3415 0.062325 0.429425 4.93397e-06 1
-0.166588 -0.105704 0.000732578 0.3415 0.062325 0.429425 6.50893e-06 1
-0.156637 -0.103358 0.0045687 0.3415 0.062325 0.429425 2.34052e-06 1
-0.158791 -0.0999656 0.00360817 0.3415 0.062325 0.429425 7.97787e-07 1
-0.161971 -0.100826 0.00329886 0.3415 0.062325 0.429425 2.56264e-06 1
-0.162102 -0.104676 0.00658223 0.3415 0.062325 0.429425 3.84177e-06 1
-0.154759 -0.108958 0.00732006 0.3415 0.062325 0.429425 6.02956e-07 1
-0.156639 -0.10808 0.007577 0.3415 0.062325 0.429425 3.94284e-07 1
-0.161502 -0.109396 0.00710399 0.3415 0.062325 0.429425 7.44997e-07 1
-0.161054 -0.101148 -0.00949274 0.3415 0.062325 0.429425 9.83035e-07 1
-0.15596 -0.101156 -0.00947577 0.3415 0.062325 0.429425 1.77087e-06 1
-0.157996 -0.0977737 -0.0114124 0.3415 0.062325 0.429425 4.71639e-06 1
-0.17494 -0.104747 -0.0071678 0.3415 0.062325 0.429425 5.31566e-06 1
-0.148264 -0.102466 -0.00855586 0.3415 0.062325 0.429425 2.62648e-06 1
-0.152272 -0.0975517 -0.00848387 0.3415 0.062325 0.429425 2.06841e-06 1
-0.148908 -0.104466 0.00200452 0.3415 0.062325 0.429425 5.57469e-06 1
-0.152917 -0.0995514 0.00207652 0.3415 0.062325 0.429425 4.71377e-06 1
-0.155148 -0.101272 -0.00524532 0.3415 0.062325 0.429425 1.91855e-06 1
-0.15114 -0.106186 -0.00531732 0.3415 0.062325 0.429425 1.80158e-06 1
-0.149315 -0.0994801 0.0128964 0.3415 0.062325 0.429425 4.07998e-07 1
-0.151877 -0.0920744 0.0060849 0.3415 0.062325 0.429425 6.49178e-07 1
-0.147472 -0.0917577 -0.00301076 0.3415 0.062325 0.429425 2.55652e-07 1
-0.153734 -0.0954221 0.00705963 0.3415 0.062325 0.429425 2.4967e-06 1
-0.1789 -0.100675 0.00234921 0.3415 0.062325 0.429425 3.65654e-06 1
-0.17263 -0.0951262 0.0113327 0.3415 0.062325 0.429425 3.46568e-07 1
-0.173288 -0.0977418 -0.0114185 0.3415 0.062325 0.429425 4.72737e-06 1
-0.117615 -0.100301 -0.00862695 0.3415 0.062325 0.429425 7.29047e-07 1
-0.123252 -0.10647 -0.00563664 0.3415 0.062325 0.429425 1.29997e-06 1
-0.119639 -0.0966395 -0.00418778 0.3415 0.062325 0.429425 2.34871e-06 1
-0.116565 -0.0972619 -0.0125149 0.3415 0.062325 0.429425 2.42441e-07 1
-0.0994139 -0.101494 -0.00790595 0.3415 0.062325 0.429425 2.19723e-06 1
-0.103697 -0.100616 -0.0067878 0.3415 0.062325 0.429425 1.34931e-06 1
-0.122952 -0.101662 -0.00430503 0.3415 0.062325 0.429425 2.76843e-06 1
-0.118187 -0.0966883 -0.0116015 0.3415 0.062325 0.429425 1.74719e-07 1
-0.117297 -0.0988612 0.0110233 0.3415 0.062325 0.429425 1.55189e-06 1
-0.114577 -0.102063 0.00691382 0.3415 0.062325 0.429425 1.04166e-06 1
-0.106505 -0.0982489 0.0121913 0.3415 0.062325 0.429425 4.79601e-07 1
-0.111107 -0.102544 0.0122155 0.3415 0.062325 0.429425 5.57888e-07 1
-0.10576 -0.109058 0.0036634 0.3415 0.062325 0.429425 1.48658e-06 1
-0.111589 -0.101075 0.0073312 0.3415 0.062325 0.429425 7.68796e-07 1
-0.112483 -0.105699 0.00799996 0.3415 0.062325 0.429425 2.64555e-06 1
-0.1024 -0.10995 0.00334672 0.3415 0.062325 0.429425 4.21543e-07 1
-0.116616 -0.100512 0.012727 0.3415 0.062325 0.429425 9.3282e-07 1
-0.108028 -0.0989686 -0.011737 0.3415 0.062325 0.429425 1.38821e-06 1
-0.106531 -0.0962771 0.00763588 0.3415 0.062325 0.429425 1.12789e-06 1
-0.110787 -0.109386 0.00765642 0.3415 0.062325 0.429425 7.9421e-07 1
-0.107345 -0.0959187 0.00259598 0.3415 0.062325 0.429425 5.95828e-06 1
-0.112402 -0.100717 0.00229131 0.3415 0.062325 0.429425 3.78972e-06 1
-0.103213 -0.100214 -0.000728279 0.3415 0.062325 0.429425 8.32082e-06 1
-0.110016 -0.092054 -0.000887332 0.3415 0.062325 0.429425 8.78023e-07 1
-0.103776 -0.0977275 -0.00855893 0.3415 0.062325 0.429425 3.12406e-06 1
-0.10827 -0.105012 -0.00103296 0.3415 0.062325 0.429425 7.58663e-06 1
-0.108755 -0.105415 -0.00709248 0.3415 0.062325 0.429425 3.31326e-06 1
-0.114154 -0.104383 -0.0105365 0.3415 0.062325 0.429425 1.4568e-06 1
-0.112777 -0.102368 -0.00915335 0.3415 0.062325 0.429425 1.00586e-06 1
-0.115993 -0.100874 -0.00954036 0.3415 0.062325 0.429425 1.01521e-06 1
-0.120968 -0.104221 -0.00848262 0.3415 0.062325 0.429425 1.57531e-06 1
-0.122467 -0.107573 0.00493443 0.3415 0.062325 0.429425 2.56472e-06 1
-0.115074 -0.0968525 -0.00119201 0.3415 0.062325 0.429425 7.69015e-07 1
-0.126014 -0.107379 0.00808027 0.3415 0.062325 0.429425 2.6643e-06 1
-0.120846 -0.0927627 0.00439336 0.3415 0.062325 0.429425 8.88622e-07 1
-0.121542 -0.0975683 0.00188162 0.3415 0.062325 0.429425 4.82706e-06 1
-0.11622 -0.107197 -0.0102045 0.3415 0.062325 0.429425 1.08698e-06 1
-0.116586 -0.0975272 -0.00566373 0.3415 0.062325 0.429425 9.36336e-07 1
-0.121411 -0.107608 -0.00906403 0.3415 0.062325 0.429425 6.88002e-07 1
-0.115738 -0.100947 0.00345399 0.3415 0.062325 0.429425 1.00552e-06 1
-0.118458 -0.0977445 0.00756342 0.3415 0.062325 0.429425 3.2325e-06 1
-0.119154 -0.10255 0.00505167 0.3415 0.062325 0.429425 3.46369e-06 1
0.0667346 -0.113428 -0.00258024 0.735683 0.215906 0.330245 1.09256e-05 2
0.0567196 -0.110768 0.00486364 0.735683 0.215906 0.330245 1.00625e-05 2
0.0538085 -0.112513 -0.00323516 0.735683 0.215906 0.330245 1.00453e-05 2
0.0320466 -0.105718 -0.00714554 0.735683 0.215906 0.330245 1.34428e-06 2
0.029669 -0.114034 -0.0128069 0.735683 0.215906 0.330245 2.9733e-07 2
0.0261742 -0.118095 -0.0115525 0.735683 0.215906 0.330245 1.88574e-06 2
0.0341339 -0.110728 -0.00894943 0.735683 0.215906 0.330245 4.5408e-06 2
0.0477379 -0.119907 -0.00275339 0.735683 0.215906 0.330245 8.57431e-06 2
0.0312814 -0.114793 -0.0116665 0.735683 0.215906 0.330245 2.21369e-06 2
0.0590578 -0.0786115 0.000436705 0.735683 0.215906 0.330245 4.18429e-06 2
0.0444843 -0.119014 0.00567487 0.735683 0.215906 0.330245 1.06157e-05 2
0.0606809 -0.0853214 0.00125272 0.735683 0.215906 0.330245 5.86517e-06 2
0.0788527 -0.106035 -0.00334498 0.735683 0.215906 0.330245 1.29385e-05 2
0.0147016 -0.121949 -0.000301258 0.735683 0.215906 0.330245 3.3725e-06 2
0.0423051 -0.117582 -0.0116093 0.735683 0.215906 0.330245 1.87799e-06 2
0.0786329 -0.10697 0.00471371 0.735683 0.215906 0.330245 1.06257e-05 2
0.0514139 -0.106095 -0.00572473 0.735683 0.215906 0.330245 5.73978e-06 2
0.0560024 -0.110776 -0.0154659 0.735683 0.215906 0.330245 7.61915e-06 2
0.0489178 -0.109343 -0.0122034 0.735683 0.215906 0.330245 3.75434e-06 2
0.018572 -0.116334 0.00257545 0.735683 0.215906 0.330245 3.79661e-06 2
0.0321207 -0.117305 -0.0164518 0.735683 0.215906 0.330245 5.30937e-07 2
0.033733 -0.118063 -0.0153114 0.735683 0.215906 0.330245 3.8155e-07 2
0.0584985 -0.107528 -0.0089872 0.735683 0.215906 0.330245 6.57135e-06 2
0.0733618 -0.108378 -0.00735246 0.735683 0.215906 0.330245 1.00034e-05 2
0.0709575 -0.103916 -0.0131709 0.735683 0.215906 0.330245 5.7815e-06 2
0.0669453 -0.104902 -0.0141949 0.735683 0.215906 0.330245 4.64023e-07 2
0.0724737 -0.106178 -0.0186257 0.735683 0.215906 0.330245 5.79357e-07 2
0.0368654 -0.114811 0.00453431 0.735683 0.215906 0.330245 7.78014e-06 2
0.0273174 -0.120667 0.00606757 0.735683 0.215906 0.330245 9.43125e-06 2
0.032194 -0.102606 -0.00128889 0.735683 0.215906 0.330245 1.55339e-06 2
0.0328987 -0.119995 -0.00648335 0.735683 0.215906 0.330245 2.94108e-06 2
0.0357512 -0.11593 -0.00376631 0.735683 0.215906 0.330245 5.99965e-06 2
0.0425004 -0.119583 -0.00668348 0.735683 0.215906 0.330245 7.42351e-06 2
0.0111399 -0.121064 -0.00414651 0.735683 0.215906 0.330245 6.745e-06 2
0.0268732 -0.122079 -0.000318824 0.735683 0.215906 0.330245 3.50287e-06 2
0.0292214 -0.120888 -0.00433679 0.735683 0.215906 0.330245 5.08209e-06 2
0.0241093 -0.119747 -0.00826557 0.735683 0.215906 0.330245 2.69712e-06 2
0.0207024 -0.116904 -0.0015772 0.735683 0.215906 0.330245 2.80791e-06 2
0.0199141 -0.115876 -0.00550351 0.735683 0.215906 0.330245 2.99967e-06 2
0.0608931 -0.113947 -0.00649763 0.735683 0.215906 0.330245 7.64469e-06 2
0.0657865 -0.113999 0.00588638 0.735683 0.215906 0.330245 1.08365e-05 2
0.0647662 -0.119203 -0.00629653 0.735683 0.215906 0.330245 2.49519e-06 2
0.0693112 -0.0870785 -0.00988766 0.735683 0.215906 0.330245 1.05219e-06 2
0.0639065 -0.0945756 0.0172491 0.735683 0.215906 0.330245 1.77709e-06 2
0.067807 -0.0854914 -0.00698182 0.735683 0.215906 0.330245 3.45065e-06 2
0.0572467 -0.107121 0.0162593 0.735683 0.215906 0.330245 1.41096e-05 2
0.0803726 -0.0931263 -0.00379816 0.735683 0.215906 0.330245 9.46285e-06 2
0.047906 -0.0880767 -0.019737 0.735683 0.215906 0.330245 2.57736e-06 2
0.0695339 -0.0831556 0.000117473 0.735683 0.215906 0.330245 1.10232e-06 2
0.0764017 -0.0871271 0.00432612 0.735683 0.215906 0.330245 6.21979e-06 2
0.0730044 -0.0871814 -0.00875718 0.735683 0.215906 0.330245 1.98642e-06 2
0.0693359 -0.0833941 -0.00275103 0.735683 0.215906 0.330245 9.49232e-07 2
0.061334 -0.0962671 -0.0118327 0.735683 0.215906 0.330245 6.86298e-06 2
0.0740189 -0.0849651 0.000135959 0.735683 0.215906 0.330245 2.52261e-06 2
0.074049 -0.097739 -0.0129849 0.735683 0.215906 0.330245 8.08352e-06 2
0.0596511 -0.085525 -0.00412847 0.735683 0.215906 0.330245 5.01422e-06 2
0.0799605 -0.098957 0.00790506 0.735683 0.215906 0.330245 1.12776e-05 2
0.0639117 -0.101169 0.0167787 0.735683 0.215906 0.330245 4.83083e-06 2
0.058028 -0.078815 -0.00494449 0.735683 0.215906 0.330245 4.00009e-06 2
0.0536256 -0.0855384 -0.0160163 0.735683 0.215906 0.330245 2.57736e-06 2
0.0398573 -0.0787725 -0.019355 0.735683 0.215906 0.330245 9.79599e-07 2
0.0759853 -0.0874039 -0.00583286 0.735683 0.215906 0.330245 4.84073e-06 2
0.0721938 -0.109884 0.00917284 0.735683 0.215906 0.330245 1.02048e-05 2
0.0302957 -0.0968291 -0.0206973 0.735683 0.215906 0.330245 6.12303e-06 2
0.080591 -0.0930881 0.00349232 0.735683 0.215906 0.330245 1.1511e-05 2
0.0799619 -0.098061 -0.0074441 0.735683 0.215906 0.330245 1.0632e-05 2
0.042952 -0.0983956 -0.0052331 0.735683 0.215906 0.330245 1.37903e-06 2
0.0692203 -0.103379 0.0204066 0.735683 0.215906 0.330245 1.16831e-06 2
0.0738209 -0.0852037 -0.00273254 0.735683 0.215906 0.330245 2.17227e-06 2
0.0577246 -0.0870016 -0.0157466 0.735683 0.215906 0.330245 5.15473e-06 2
0.0697638 -0.103557 0.0142031 0.735683 0.215906 0.330245 9.82773e-06 2
0.0366277 -0.0867623 -0.0122904 0.735683 0.215906 0.330245 4.9305e-06 2
0.0603228 -0.0967676 -0.018175 0.735683 0.215906 0.330245 3.70268e-06 2
0.0518937 -0.0866162 -0.0107714 0.735683 0.215906 0.330245 3.19791e-06 2
0.0453358 -0.0920859 -0.00970962 0.735683 0.215906 0.330245 2.87619e-06 2
0.0566636 -0.0930552 -0.0186511 0.735683 0.215906 0.330245 4.88629e-06 2
0.0648624 -0.0845443 -0.0083083 0.735683 0.215906 0.330245 3.7327e-06 2
0.0559928 -0.0880793 -0.0105018 0.735683 0.215906 0.330245 7.75271e-07 2
