ply
format ascii 1.0
comment Created by Open3D
element vertex 985
property float32 x
property float32 y
property float32 z
property float32 red
property float32 green
property float32 blue
property uint8 segmentation
end_header
0.24763 0.119323 0.168286 0 1 1 0
0.158075 0.152199 0.147268 0 1 1 2
0.0952137 0.160472 0.157901 0.898039 0.898039 0.898039 2
0.198635 0.126418 0.161191 0 1 1 0
0.19725 0.125056 0.167877 0 1 1 0
0.141596 0.126744 0.152698 0.662745 0.921569 0.921569 0
0.180346 0.164882 0.166081 0 1 1 2
0.118283 0.161337 0.151782 0.898039 0.898039 0.898039 2
0.0877722 0.151353 0.163081 0.898039 0.898039 0.898039 2
0.255829 0.15944 0.15398 0 1 1 2
0.113912 0.157879 0.151781 0.898039 0.898039 0.898039 2
0.170901 0.118937 0.168381 0 1 1 0
0.0128047 0.131153 0.158949 0.898039 0.898039 0.898039 0
0.0709994 0.163015 0.157616 0.898039 0.898039 0.898039 0
0.0233216 0.14176 0.154081 0.898039 0.898039 0.898039 0
0.0586564 0.148979 0.154081 0.898039 0.898039 0.898039 0
0.125662 0.154381 0.151781 0.898039 0.898039 0.898039 2
0.140899 0.128002 0.163574 0 1 1 0
0.0551983 0.133173 0.163081 0.898039 0.898039 0.898039 2
0.233285 0.160081 0.146081 0 1 1 2
0.167691 0.166833 0.160501 0.117647 0.984314 0.984314 2
0.140436 0.118371 0.152872 0.494118 0.941176 0.941176 0
0.137492 0.116285 0.163488 0.745098 0.913725 0.913725 0
0.041674 0.117646 0.157808 0.898039 0.898039 0.898039 2
0.113888 0.161618 0.155307 0.898039 0.898039 0.898039 2
0.10449 0.121657 0.154081 0.898039 0.898039 0.898039 0
0.141241 0.128689 0.154282 0.494118 0.941176 0.941176 0
0.0420493 0.124788 0.154476 0.898039 0.898039 0.898039 2
0.148904 0.117014 0.165956 0.580392 0.929412 0.929412 0
0.0266635 0.149762 0.154081 0.898039 0.898039 0.898039 0
0.107777 0.134433 0.159221 0.898039 0.898039 0.898039 0
0.0969647 0.159031 0.163081 0.898039 0.898039 0.898039 2
0.0330105 0.149762 0.154081 0.898039 0.898039 0.898039 0
0.0308497 0.118361 0.158609 0.898039 0.898039 0.898039 2
0.0360724 0.164047 0.163081 0.898039 0.898039 0.898039 0
0.112607 0.158393 0.151781 0.898039 0.898039 0.898039 2
0.131155 0.121836 0.163081 0.811765 0.905882 0.905882 0
0.151292 0.124594 0.150454 0.105882 0.984314 0.984314 0
0.0422287 0.12519 0.155462 0.898039 0.898039 0.898039 2
0.126672 0.120229 0.154081 0.898039 0.898039 0.898039 0
0.204207 0.158848 0.166081 0 1 1 2
0.0673802 0.162312 0.159281 0.898039 0.898039 0.898039 0
0.136534 0.165107 0.159607 0.227451 0.972549 0.972549 2
0.0461293 0.126234 0.163081 0.898039 0.898039 0.898039 2
0.241272 0.162822 0.159307 0 1 1 2
0.100016 0.124552 0.154081 0.898039 0.898039 0.898039 0
0.0548683 0.149872 0.154081 0.898039 0.898039 0.898039 0
0.132548 0.153906 0.151672 0.266667 0.968627 0.968627 2
0.210327 0.164929 0.146726 0 1 1 2
0.105164 0.130941 0.154081 0.898039 0.898039 0.898039 0
0.0729526 0.135717 0.160734 0.898039 0.898039 0.898039 2
0.0962004 0.160671 0.151899 0.898039 0.898039 0.898039 2
0.173129 0.122954 0.168381 0 1 1 0
0.124044 0.119614 0.154081 0.898039 0.898039 0.898039 0
0.147939 0.126234 0.165741 0 1 1 0
0.0626414 0.12946 0.162787 0.898039 0.898039 0.898039 2
0.118283 0.161798 0.153941 0.898039 0.898039 0.898039 2
0.256243 0.158167 0.150895 0 1 1 2
0.159084 0.161373 0.146081 0.298039 0.964706 0.964706 2
0.0557709 0.131675 0.163081 0.898039 0.898039 0.898039 2
0.161634 0.152932 0.165126 0 1 1 2
0.0285966 0.115779 0.158525 0.898039 0.898039 0.898039 2
0.131155 0.128077 0.156628 0.898039 0.898039 0.898039 0
0.130292 0.120191 0.163081 0.898039 0.898039 0.898039 0
0.0198038 0.135581 0.154081 0.898039 0.898039 0.898039 0
0.079383 0.136073 0.158573 0.898039 0.898039 0.898039 0
0.199569 0.118099 0.168381 0 1 1 0
0.118551 0.1546 0.151781 0.898039 0.898039 0.898039 2
0.202038 0.153208 0.156948 0 1 1 2
0.1478 0.118125 0.151231 0.494118 0.941176 0.941176 0
0.14516 0.120107 0.165183 0.282353 0.964706 0.964706 0
0.207836 0.120042 0.148381 0 1 1 0
0.111723 0.16153 0.158847 0.898039 0.898039 0.898039 2
0.126482 0.118198 0.159094 0.898039 0.898039 0.898039 0
0.215662 0.164544 0.161512 0 1 1 2
0.0397334 0.153821 0.15539 0.898039 0.898039 0.898039 0
0.143738 0.12504 0.164888 0.345098 0.956863 0.956863 0
0.186029 0.168047 0.158986 0 1 1 2
0.0725794 0.150831 0.153081 0.898039 0.898039 0.898039 1
0.0847778 0.142381 0.161349 0.898039 0.898039 0.898039 2
0.175471 0.112253 0.157667 0 1 1 0
0.213333 0.117948 0.148381 0 1 1 0
0.0362902 0.165109 0.154387 0.898039 0.898039 0.898039 0
0.182237 0.124999 0.148996 0 1 1 0
0.101634 0.125915 0.159281 0.898039 0.898039 0.898039 0
0.240153 0.154316 0.166043 0 1 1 2
0.153191 0.128784 0.160072 0.0470588 0.992157 0.992157 0
0.0215315 0.149521 0.154387 0.898039 0.898039 0.898039 0
0.117063 0.129805 0.158104 0.898039 0.898039 0.898039 0
0.25275 0.127273 0.158017 0 1 1 0
0.218272 0.152987 0.163286 0 1 1 2
0.0706122 0.16231 0.159281 0.898039 0.898039 0.898039 0
0.0557847 0.152473 0.159281 0.898039 0.898039 0.898039 0
0.095254 0.124252 0.154081 0.898039 0.898039 0.898039 0
0.171245 0.113552 0.1674 0 1 1 0
0.135835 0.160671 0.163631 0.364706 0.956863 0.956863 2
0.164199 0.166386 0.15252 0.356863 0.956863 0.956863 2
0.0479816 0.17102 0.157454 0.898039 0.898039 0.898039 0
0.18081 0.126175 0.159415 0 1 1 0
0.256387 0.126706 0.164671 0 1 1 0
0.0998564 0.118299 0.155856 0.898039 0.898039 0.898039 0
0.132047 0.126021 0.163081 0.811765 0.905882 0.905882 0
0.112093 0.123409 0.163081 0.898039 0.898039 0.898039 0
0.202492 0.112556 0.164014 0 1 1 0
0.186451 0.116037 0.148381 0 1 1 0
0.145918 0.153899 0.165143 0.0980392 0.988235 0.988235 2
0.202447 0.164719 0.146081 0 1 1 2
0.0786765 0.130553 0.159281 0.898039 0.898039 0.898039 0
0.143853 0.159996 0.14845 0.27451 0.964706 0.964706 2
0.055386 0.12891 0.163081 0.898039 0.898039 0.898039 2
0.0963733 0.160872 0.153006 0.898039 0.898039 0.898039 2
0.14563 0.165394 0.16194 0.0156863 0.996078 0.996078 2
0.213483 0.122737 0.168381 0 1 1 0
0.17589 0.162265 0.146081 0 1 1 2
0.0942001 0.125742 0.154081 0.898039 0.898039 0.898039 0
0.135643 0.150654 0.152754 0 1 1 2
0.0414222 0.157391 0.154081 0.898039 0.898039 0.898039 0
0.195356 0.11193 0.152535 0 1 1 0
0.157639 0.162701 0.146081 0.12549 0.984314 0.984314 2
0.0126634 0.130761 0.156141 0.898039 0.898039 0.898039 0
0.0904253 0.152746 0.159281 0.898039 0.898039 0.898039 2
0.175744 0.165407 0.166081 0 1 1 2
0.237822 0.126951 0.158339 0 1 1 0
0.161996 0.126021 0.167919 0 1 1 0
0.102043 0.118734 0.162218 0.898039 0.898039 0.898039 0
0.105061 0.118299 0.154966 0.898039 0.898039 0.898039 0
0.0459898 0.156994 0.154081 0.898039 0.898039 0.898039 0
0.0727396 0.144059 0.153127 0.898039 0.898039 0.898039 1
0.140432 0.126228 0.164193 0.360784 0.956863 0.956863 0
0.223233 0.163676 0.149468 0 1 1 2
0.169331 0.167032 0.150895 0.117647 0.984314 0.984314 2
0.0119049 0.128545 0.154426 0.898039 0.898039 0.898039 0
0.0478248 0.129022 0.154081 0.898039 0.898039 0.898039 2
0.0738115 0.159527 0.163055 0.898039 0.898039 0.898039 2
0.0989433 0.124381 0.159281 0.898039 0.898039 0.898039 0
0.199026 0.167235 0.162117 0 1 1 2
0.0894117 0.129593 0.154864 0.898039 0.898039 0.898039 0
0.043062 0.126234 0.154124 0.898039 0.898039 0.898039 2
0.165139 0.113517 0.152747 0 1 1 0
0.114038 0.119396 0.163081 0.898039 0.898039 0.898039 0
0.189953 0.124978 0.167863 0 1 1 0
0.116086 0.122081 0.154081 0.898039 0.898039 0.898039 0
0.0831058 0.1487 0.154081 0.898039 0.898039 0.898039 0
0.0934352 0.129394 0.159281 0.898039 0.898039 0.898039 0
0.157327 0.127853 0.15078 0 1 1 0
0.0717968 0.13402 0.157944 0.898039 0.898039 0.898039 0
0.0667085 0.134222 0.159281 0.898039 0.898039 0.898039 2
0.115215 0.122954 0.154081 0.898039 0.898039 0.898039 0
0.254495 0.161105 0.149695 0 1 1 2
0.0986924 0.13356 0.154081 0.898039 0.898039 0.898039 0
0.190649 0.167919 0.163752 0 1 1 2
0.0618378 0.163738 0.159281 0.898039 0.898039 0.898039 0
0.0313439 0.117543 0.154081 0.898039 0.898039 0.898039 2
0.15824 0.165778 0.163015 0.415686 0.94902 0.94902 2
0.172398 0.112622 0.159094 0 1 1 0
0.233727 0.158063 0.146081 0 1 1 2
0.239632 0.159031 0.166081 0 1 1 2
0.207047 0.125138 0.148857 0 1 1 0
0.188796 0.126284 0.161325 0 1 1 0
0.0229344 0.137812 0.162121 0.898039 0.898039 0.898039 0
0.175677 0.167711 0.149207 0 1 1 2
0.0950635 0.125149 0.154081 0.898039 0.898039 0.898039 0
0.124842 0.152259 0.151905 0.898039 0.898039 0.898039 2
0.251111 0.162246 0.162769 0 1 1 2
0.013395 0.132793 0.15852 0.898039 0.898039 0.898039 0
0.0641676 0.130319 0.160734 0.898039 0.898039 0.898039 2
0.220166 0.126711 0.15626 0 1 1 0
0.0346416 0.148702 0.156588 0.898039 0.898039 0.898039 0
0.108212 0.134433 0.157254 0.898039 0.898039 0.898039 0
0.145722 0.165397 0.152677 0.0156863 0.996078 0.996078 2
0.0546295 0.12836 0.159281 0.898039 0.898039 0.898039 2
0.0966491 0.160912 0.159521 0.898039 0.898039 0.898039 2
0.205969 0.126518 0.162374 0 1 1 0
0.108444 0.119914 0.154081 0.898039 0.898039 0.898039 0
0.0372319 0.123289 0.156335 0.898039 0.898039 0.898039 2
0.156515 0.11447 0.150755 0 1 1 0
0.11149 0.16152 0.158556 0.898039 0.898039 0.898039 2
0.0251423 0.14242 0.159691 0.898039 0.898039 0.898039 0
0.0266635 0.145699 0.162788 0.898039 0.898039 0.898039 0
0.0479816 0.171012 0.155815 0.898039 0.898039 0.898039 0
0.128122 0.162707 0.162308 0.898039 0.898039 0.898039 2
0.0742192 0.160542 0.157454 0.898039 0.898039 0.898039 0
0.142605 0.158301 0.148806 0.27451 0.964706 0.964706 2
0.208687 0.1624 0.146081 0 1 1 2
0.219281 0.118958 0.168381 0 1 1 0
0.250589 0.159273 0.166081 0 1 1 2
0.0840583 0.144272 0.154081 0.898039 0.898039 0.898039 0
0.0882521 0.152993 0.163081 0.898039 0.898039 0.898039 2
0.0985378 0.119183 0.154081 0.898039 0.898039 0.898039 0
0.244095 0.117029 0.166242 0 1 1 0
0.0682333 0.137713 0.154081 0.898039 0.898039 0.898039 0
0.123836 0.152087 0.155815 0.898039 0.898039 0.898039 2
0.195795 0.153293 0.155188 0 1 1 2
0.122304 0.118299 0.156393 0.898039 0.898039 0.898039 0
0.175543 0.15809 0.166081 0 1 1 2
0.0961185 0.147719 0.163081 0.898039 0.898039 0.898039 2
0.215652 0.117948 0.148381 0 1 1 0
0.120724 0.128641 0.154081 0.898039 0.898039 0.898039 0
0.205115 0.112902 0.164014 0 1 1 0
0.225085 0.126778 0.151855 0 1 1 0
0.197412 0.153271 0.159848 0 1 1 2
0.192076 0.126328 0.159262 0 1 1 0
0.043034 0.118322 0.15671 0.898039 0.898039 0.898039 2
0.219953 0.125809 0.167506 0 1 1 0
0.214793 0.157099 0.146081 0 1 1 2
0.144967 0.118958 0.165143 0.282353 0.964706 0.964706 0
0.203372 0.112667 0.15437 0 1 1 0
0.0604272 0.142753 0.155551 0.898039 0.898039 0.898039 0
0.111293 0.157879 0.151781 0.898039 0.898039 0.898039 2
0.256074 0.155751 0.157667 0 1 1 2
0.0133181 0.127661 0.154824 0.898039 0.898039 0.898039 0
0.242387 0.116854 0.165654 0 1 1 0
0.215013 0.164651 0.151088 0 1 1 2
0.192281 0.118657 0.148381 0 1 1 0
0.117537 0.151715 0.154447 0.898039 0.898039 0.898039 2
0.0640518 0.161819 0.154081 0.898039 0.898039 0.898039 0
0.183335 0.159542 0.166081 0 1 1 2
0.099707 0.131291 0.154081 0.898039 0.898039 0.898039 0
0.195568 0.167599 0.162374 0 1 1 2
0.159609 0.11529 0.167681 0 1 1 0
0.178547 0.112813 0.14935 0 1 1 0
0.0473978 0.120643 0.155371 0.898039 0.898039 0.898039 2
0.0427149 0.169292 0.158042 0.898039 0.898039 0.898039 0
0.0682586 0.136738 0.156634 0.898039 0.898039 0.898039 0
0.0798417 0.146672 0.163081 0.898039 0.898039 0.898039 2
0.22514 0.158934 0.166081 0 1 1 2
0.124842 0.152098 0.152535 0.898039 0.898039 0.898039 2
0.194459 0.112902 0.167622 0 1 1 0
0.103737 0.119462 0.163081 0.898039 0.898039 0.898039 0
0.137979 0.156223 0.150124 0.266667 0.968627 0.968627 2
0.254218 0.11806 0.149677 0 1 1 0
0.24827 0.118488 0.167932 0 1 1 0
0.15108 0.164008 0.165866 0.345098 0.956863 0.956863 2
0.160168 0.114542 0.167127 0 1 1 0
0.100124 0.154111 0.163081 0.898039 0.898039 0.898039 2
0.118192 0.154682 0.151781 0.898039 0.898039 0.898039 2
0.193928 0.167735 0.154661 0 1 1 2
0.0431842 0.127184 0.160245 0.898039 0.898039 0.898039 2
0.212097 0.114093 0.164226 0 1 1 0
0.0865097 0.148979 0.163081 0.898039 0.898039 0.898039 2
0.153511 0.151237 0.151698 0 1 1 2
0.152333 0.114039 0.162275 0.352941 0.956863 0.956863 0
0.0616843 0.137817 0.163081 0.898039 0.898039 0.898039 2
0.06869 0.1477 0.153081 0.898039 0.898039 0.898039 1
0.154667 0.151403 0.159397 0 1 1 2
0.0220957 0.139874 0.163081 0.898039 0.898039 0.898039 0
0.0447418 0.121433 0.154081 0.898039 0.898039 0.898039 2
0.0835624 0.143081 0.163081 0.898039 0.898039 0.898039 2
0.215246 0.164547 0.147615 0 1 1 2
0.188804 0.160953 0.166081 0 1 1 2
0.17261 0.126217 0.157054 0 1 1 0
0.179767 0.159031 0.166081 0 1 1 2
0.0618086 0.128889 0.161039 0.898039 0.898039 0.898039 2
0.0358305 0.118131 0.163081 0.898039 0.898039 0.898039 2
0.124063 0.157296 0.163081 0.898039 0.898039 0.898039 2
0.169313 0.15356 0.164654 0 1 1 2
0.119414 0.129381 0.161327 0.898039 0.898039 0.898039 0
0.111723 0.16153 0.154387 0.898039 0.898039 0.898039 2
0.167691 0.113197 0.157667 0 1 1 0
0.159842 0.127715 0.150918 0 1 1 0
0.161818 0.15266 0.15476 0 1 1 2
0.0996974 0.15226 0.159281 0.898039 0.898039 0.898039 2
0.200965 0.166901 0.147471 0 1 1 2
0.198635 0.167276 0.159757 0 1 1 2
0.173379 0.113421 0.167531 0 1 1 0
0.227891 0.116182 0.152535 0 1 1 0
0.194279 0.153899 0.165484 0 1 1 2
0.0266635 0.156193 0.162374 0.898039 0.898039 0.898039 0
0.0534167 0.137964 0.158103 0.898039 0.898039 0.898039 2
0.031847 0.113997 0.159738 0.898039 0.898039 0.898039 2
0.177974 0.166786 0.146333 0 1 1 2
0.0698944 0.146124 0.153081 0.898039 0.898039 0.898039 1
0.0882521 0.149713 0.163081 0.898039 0.898039 0.898039 2
0.0751906 0.133988 0.154081 0.898039 0.898039 0.898039 0
0.0671126 0.152259 0.163081 0.898039 0.898039 0.898039 2
0.250977 0.16226 0.14884 0 1 1 2
0.157995 0.122715 0.148961 0 1 1 0
0.143093 0.16231 0.148667 0.27451 0.964706 0.964706 2
0.0443438 0.169942 0.155701 0.898039 0.898039 0.898039 0
0.144493 0.152777 0.164929 0.215686 0.972549 0.972549 2
0.0688747 0.152568 0.163081 0.898039 0.898039 0.898039 2
0.0168787 0.140992 0.154175 0.898039 0.898039 0.898039 0
0.220311 0.16395 0.159307 0 1 1 2
0.194262 0.111871 0.152847 0 1 1 0
0.229567 0.124906 0.148581 0 1 1 0
0.0955373 0.1375 0.159281 0.898039 0.898039 0.898039 0
0.225614 0.116014 0.157667 0 1 1 0
0.0837684 0.159305 0.159281 0.898039 0.898039 0.898039 2
0.228365 0.160671 0.146081 0 1 1 2
0.102719 0.13586 0.154081 0.898039 0.898039 0.898039 0
0.0740068 0.1375 0.154081 0.898039 0.898039 0.898039 0
0.115366 0.161679 0.156379 0.898039 0.898039 0.898039 2
0.176228 0.155467 0.146089 0 1 1 2
0.127409 0.127661 0.163081 0.898039 0.898039 0.898039 0
0.148013 0.150786 0.151107 0 1 1 2
0.0575366 0.170861 0.158792 0.898039 0.898039 0.898039 0
0.0301561 0.147396 0.156056 0.898039 0.898039 0.898039 0
0.0307383 0.160458 0.155392 0.898039 0.898039 0.898039 0
0.24437 0.162707 0.155351 0 1 1 2
0.0327483 0.157946 0.154081 0.898039 0.898039 0.898039 0
0.215701 0.164268 0.165085 0 1 1 2
0.130411 0.122662 0.154081 0.898039 0.898039 0.898039 0
0.119923 0.155539 0.151781 0.898039 0.898039 0.898039 2
0.0984007 0.157391 0.151781 0.898039 0.898039 0.898039 2
0.0238699 0.14242 0.154081 0.898039 0.898039 0.898039 0
0.13116 0.123721 0.154081 0.898039 0.898039 0.898039 0
0.147373 0.121971 0.165641 0.282353 0.964706 0.964706 0
0.0789263 0.1544 0.154081 0.898039 0.898039 0.898039 0
0.106537 0.155539 0.163081 0.898039 0.898039 0.898039 2
0.118283 0.160671 0.163081 0.898039 0.898039 0.898039 2
0.0971771 0.160936 0.155815 0.898039 0.898039 0.898039 2
0.0609996 0.141613 0.163081 0.898039 0.898039 0.898039 2
0.121562 0.118299 0.162374 0.898039 0.898039 0.898039 0
0.169211 0.167018 0.160703 0.0588235 0.992157 0.992157 2
0.178507 0.124485 0.168062 0 1 1 0
0.180509 0.119228 0.168381 0 1 1 0
0.148658 0.16549 0.156737 0.0156863 0.996078 0.996078 2
0.213394 0.163738 0.146263 0 1 1 2
0.113392 0.119183 0.154081 0.898039 0.898039 0.898039 0
0.127681 0.162564 0.156234 0.898039 0.898039 0.898039 2
0.126454 0.12076 0.163081 0.898039 0.898039 0.898039 0
0.0216859 0.136073 0.161173 0.898039 0.898039 0.898039 0
0.198848 0.124381 0.168217 0 1 1 0
0.210515 0.120976 0.148381 0 1 1 0
0.218526 0.115198 0.152747 0 1 1 0
0.145099 0.165378 0.152348 0.0156863 0.996078 0.996078 2
0.111723 0.122954 0.163081 0.898039 0.898039 0.898039 0
0.206676 0.113168 0.152985 0 1 1 0
0.236352 0.163004 0.152747 0 1 1 2
0.237545 0.11665 0.155815 0 1 1 0
0.116855 0.152259 0.163081 0.898039 0.898039 0.898039 2
0.154301 0.117948 0.167076 0.0823529 0.988235 0.988235 0
0.0691758 0.144707 0.163081 0.898039 0.898039 0.898039 2
0.0870474 0.127496 0.159281 0.898039 0.898039 0.898039 0
0.0304587 0.117913 0.154663 0.898039 0.898039 0.898039 2
0.0248417 0.154111 0.158669 0.898039 0.898039 0.898039 0
0.0192317 0.13586 0.154081 0.898039 0.898039 0.898039 0
0.0534656 0.171436 0.155286 0.898039 0.898039 0.898039 0
0.0939659 0.156019 0.156622 0.898039 0.898039 0.898039 2
0.155376 0.1285 0.161729 0 1 1 0
0.0505873 0.161096 0.159281 0.898039 0.898039 0.898039 0
0.195356 0.111951 0.165654 0 1 1 0
0.233072 0.126021 0.149289 0 1 1 0
0.191671 0.167877 0.155815 0 1 1 2
0.172899 0.12621 0.157616 0 1 1 0
0.109691 0.151397 0.157933 0.898039 0.898039 0.898039 2
0.124646 0.11851 0.154175 0.898039 0.898039 0.898039 0
0.0365026 0.152259 0.163081 0.898039 0.898039 0.898039 0
0.193621 0.112151 0.150052 0 1 1 0
0.126755 0.118178 0.159529 0.898039 0.898039 0.898039 0
0.015355 0.137935 0.162613 0.898039 0.898039 0.898039 0
0.215803 0.122216 0.168381 0 1 1 0
0.0869238 0.12252 0.155037 0.898039 0.898039 0.898039 0
0.0707271 0.147339 0.153081 0.898039 0.898039 0.898039 1
0.190142 0.158739 0.146081 0 1 1 2
0.138173 0.165159 0.152535 0.0156863 0.996078 0.996078 2
0.152178 0.163666 0.146089 0.745098 0.913725 0.913725 2
0.155999 0.116182 0.14954 0 1 1 0
0.189755 0.111678 0.164226 0 1 1 0
0.134894 0.165056 0.15381 0.0156863 0.996078 0.996078 2
0.0643801 0.145424 0.154081 0.898039 0.898039 0.898039 0
0.0630182 0.150831 0.163081 0.898039 0.898039 0.898039 2
0.234712 0.126909 0.153743 0 1 1 0
0.0756516 0.147467 0.153081 0.898039 0.898039 0.898039 1
0.105764 0.118299 0.156476 0.898039 0.898039 0.898039 0
0.0365026 0.115455 0.160947 0.898039 0.898039 0.898039 2
0.10565 0.118299 0.161649 0.898039 0.898039 0.898039 0
0.176194 0.124489 0.168059 0 1 1 0
0.193716 0.11384 0.148559 0 1 1 0
0.0675347 0.165676 0.15802 0.898039 0.898039 0.898039 0
0.0327767 0.16231 0.16233 0.898039 0.898039 0.898039 0
0.0412097 0.117415 0.157454 0.898039 0.898039 0.898039 2
0.182025 0.163171 0.146081 0 1 1 2
0.165792 0.153163 0.155264 0 1 1 2
0.18178 0.126188 0.159658 0 1 1 0
0.228365 0.12679 0.165757 0 1 1 0
0.0327938 0.114244 0.162195 0.898039 0.898039 0.898039 2
0.250238 0.155743 0.146081 0 1 1 2
0.0210025 0.14789 0.154084 0.898039 0.898039 0.898039 0
0.0897911 0.141585 0.159281 0.898039 0.898039 0.898039 0
0.139277 0.129063 0.160218 0.0470588 0.992157 0.992157 0
0.0439216 0.167018 0.163081 0.898039 0.898039 0.898039 0
0.0210025 0.145039 0.154081 0.898039 0.898039 0.898039 0
0.114038 0.157391 0.163081 0.898039 0.898039 0.898039 2
0.128034 0.154399 0.151781 0.776471 0.909804 0.909804 2
0.200488 0.112325 0.157667 0 1 1 0
0.0993469 0.118299 0.157454 0.898039 0.898039 0.898039 0
0.165644 0.120676 0.148381 0 1 1 0
0.222396 0.163738 0.162374 0 1 1 2
0.17097 0.167231 0.150895 0.117647 0.984314 0.984314 2
0.0838459 0.12889 0.154081 0.898039 0.898039 0.898039 0
0.143832 0.150644 0.154175 0 1 1 2
0.1478 0.129052 0.156238 0.0470588 0.992157 0.992157 0
0.14288 0.124381 0.152327 0.305882 0.960784 0.960784 0
0.170758 0.159645 0.146081 0.0588235 0.992157 0.992157 2
0.043742 0.169378 0.161475 0.898039 0.898039 0.898039 0
0.06602 0.132581 0.163081 0.898039 0.898039 0.898039 2
0.0537418 0.134462 0.163081 0.898039 0.898039 0.898039 2
0.200488 0.126313 0.166234 0 1 1 0
0.178697 0.167883 0.148878 0 1 1 2
0.190436 0.125045 0.14895 0 1 1 0
0.221806 0.126733 0.163195 0 1 1 0
0.0907257 0.125149 0.154081 0.898039 0.898039 0.898039 0
0.166933 0.113292 0.159094 0 1 1 0
0.10318 0.138297 0.15569 0.898039 0.898039 0.898039 0
0.241484 0.118034 0.148966 0 1 1 0
0.0139089 0.134221 0.155988 0.898039 0.898039 0.898039 0
0.148398 0.117948 0.151098 0.494118 0.941176 0.941176 0
0.229793 0.126842 0.15411 0 1 1 0
0.175964 0.153562 0.148262 0 1 1 2
0.0986881 0.140569 0.159281 0.898039 0.898039 0.898039 0
0.113262 0.118299 0.157667 0.898039 0.898039 0.898039 0
0.178063 0.162128 0.166081 0 1 1 2
0.0412097 0.168371 0.154325 0.898039 0.898039 0.898039 0
0.148013 0.126234 0.151203 0.235294 0.968627 0.968627 0
0.132675 0.116395 0.159833 0.898039 0.898039 0.898039 0
0.0529012 0.131153 0.154081 0.898039 0.898039 0.898039 2
0.241272 0.162822 0.156027 0 1 1 2
0.0840692 0.124594 0.158321 0.898039 0.898039 0.898039 0
0.0978047 0.158704 0.163081 0.898039 0.898039 0.898039 2
0.107138 0.161343 0.160818 0.898039 0.898039 0.898039 2
0.203555 0.166625 0.15809 0 1 1 2
0.152308 0.114039 0.154175 0.290196 0.964706 0.964706 0
0.1971 0.153275 0.160295 0 1 1 2
0.0827987 0.134221 0.157051 0.898039 0.898039 0.898039 0
0.200728 0.157208 0.166081 0 1 1 2
0.149894 0.15195 0.165466 0 1 1 2
0.127409 0.119462 0.163081 0.898039 0.898039 0.898039 0
0.213483 0.124755 0.168152 0 1 1 0
0.164961 0.166486 0.149279 0.356863 0.956863 0.956863 2
0.180837 0.126175 0.156366 0 1 1 0
0.127681 0.1283 0.157701 0.898039 0.898039 0.898039 0
0.177688 0.160378 0.146081 0 1 1 2
0.190443 0.16433 0.146081 0 1 1 2
0.0941036 0.14242 0.159281 0.898039 0.898039 0.898039 0
0.0643801 0.148979 0.163081 0.898039 0.898039 0.898039 2
0.246637 0.116988 0.159326 0 1 1 0
0.0525511 0.154701 0.154081 0.898039 0.898039 0.898039 0
0.0940542 0.145307 0.158732 0.898039 0.898039 0.898039 0
0.184089 0.154817 0.146188 0 1 1 2
0.0971771 0.140992 0.154081 0.898039 0.898039 0.898039 0
0.245706 0.15264 0.147615 0 1 1 2
0.108444 0.161396 0.1613 0.898039 0.898039 0.898039 2
0.109128 0.125361 0.154081 0.898039 0.898039 0.898039 0
0.0826089 0.130068 0.154081 0.898039 0.898039 0.898039 0
0.150225 0.121427 0.166232 0.282353 0.964706 0.964706 0
0.0690505 0.133308 0.162156 0.898039 0.898039 0.898039 2
0.120724 0.161898 0.1569 0.898039 0.898039 0.898039 2
0.257867 0.125457 0.155194 0 1 1 0
0.10357 0.118299 0.159268 0.898039 0.898039 0.898039 0
0.0732259 0.144461 0.153081 0.898039 0.898039 0.898039 1
0.0266149 0.145493 0.160669 0.898039 0.898039 0.898039 0
0.0697036 0.152174 0.153081 0.898039 0.898039 0.898039 1
0.167478 0.159031 0.166081 0.0588235 0.992157 0.992157 2
0.206378 0.113117 0.163196 0 1 1 0
0.193483 0.113849 0.148551 0 1 1 0
0.0433163 0.12168 0.163081 0.898039 0.898039 0.898039 2
0.143093 0.152471 0.148681 0 1 1 2
0.155656 0.152502 0.146403 0 1 1 2
0.19602 0.122954 0.168381 0 1 1 0
0.155361 0.118034 0.167296 0 1 1 0
0.0354654 0.160458 0.154081 0.898039 0.898039 0.898039 0
0.128569 0.127455 0.163081 0.898039 0.898039 0.898039 0
0.0382413 0.165099 0.154081 0.898039 0.898039 0.898039 0
0.177792 0.114755 0.168356 0 1 1 0
0.091275 0.156364 0.163081 0.898039 0.898039 0.898039 2
0.110083 0.150831 0.162932 0.898039 0.898039 0.898039 2
0.252963 0.127279 0.162649 0 1 1 0
0.139617 0.164919 0.150656 0.14902 0.980392 0.980392 2
0.10072 0.15969 0.151781 0.898039 0.898039 0.898039 2
0.14288 0.129063 0.160865 0.0470588 0.992157 0.992157 0
0.249471 0.162417 0.154387 0 1 1 2
0.242202 0.162702 0.164632 0 1 1 2
0.0993793 0.124552 0.154081 0.898039 0.898039 0.898039 0
0.0381487 0.116395 0.154144 0.898039 0.898039 0.898039 2
0.0723669 0.145699 0.153081 0.898039 0.898039 0.898039 1
0.0913995 0.154677 0.163081 0.898039 0.898039 0.898039 2
0.154557 0.155539 0.166081 0.27451 0.964706 0.964706 2
0.0268003 0.145968 0.154391 0.898039 0.898039 0.898039 0
0.0644743 0.163457 0.154081 0.898039 0.898039 0.898039 0
0.0529012 0.138167 0.154081 0.898039 0.898039 0.898039 2
0.202075 0.165341 0.166014 0 1 1 2
0.0765198 0.149015 0.158029 0.898039 0.898039 0.898039 0
0.0472716 0.156886 0.159281 0.898039 0.898039 0.898039 0
0.0823015 0.145424 0.154081 0.898039 0.898039 0.898039 0
0.0824092 0.128214 0.159281 0.898039 0.898039 0.898039 0
0.116643 0.126872 0.154081 0.898039 0.898039 0.898039 0
0.102171 0.16114 0.154379 0.898039 0.898039 0.898039 2
0.0418744 0.124633 0.158088 0.898039 0.898039 0.898039 2
0.143911 0.16534 0.152895 0.0156863 0.996078 0.996078 2
0.157639 0.165725 0.164226 0.564706 0.933333 0.933333 2
0.0485514 0.127971 0.163081 0.898039 0.898039 0.898039 2
0.0160925 0.1375 0.163081 0.898039 0.898039 0.898039 0
0.152932 0.159031 0.146081 0.14902 0.980392 0.980392 2
0.136917 0.129063 0.157613 0.14902 0.980392 0.980392 0
0.0591849 0.131786 0.163081 0.898039 0.898039 0.898039 2
0.0517232 0.134221 0.163081 0.898039 0.898039 0.898039 2
0.114926 0.130353 0.156863 0.898039 0.898039 0.898039 0
0.0141312 0.128478 0.160499 0.898039 0.898039 0.898039 0
0.102317 0.157879 0.151781 0.898039 0.898039 0.898039 2
0.197208 0.154639 0.146188 0 1 1 2
0.155841 0.125663 0.167365 0 1 1 0
0.115632 0.152358 0.163081 0.898039 0.898039 0.898039 2
0.0705524 0.135637 0.154081 0.898039 0.898039 0.898039 0
0.124842 0.162064 0.160947 0.898039 0.898039 0.898039 2
0.249471 0.162417 0.155641 0 1 1 2
0.161621 0.121427 0.168381 0 1 1 0
0.233651 0.117394 0.149255 0 1 1 0
0.157216 0.12023 0.16768 0 1 1 0
0.152456 0.127874 0.165863 0 1 1 0
0.189677 0.1534 0.164357 0 1 1 2
0.0628988 0.129537 0.160947 0.898039 0.898039 0.898039 2
0.121315 0.151994 0.161081 0.898039 0.898039 0.898039 2
0.0467845 0.127223 0.163081 0.898039 0.898039 0.898039 2
0.203048 0.126472 0.151318 0 1 1 0
0.154359 0.165602 0.147817 0.745098 0.913725 0.913725 2
0.126145 0.162261 0.158116 0.898039 0.898039 0.898039 2
0.165038 0.126372 0.149642 0 1 1 0
0.0721964 0.133854 0.159094 0.898039 0.898039 0.898039 0
0.0538675 0.129467 0.163081 0.898039 0.898039 0.898039 2
0.0690872 0.163968 0.154089 0.898039 0.898039 0.898039 0
0.0791247 0.152358 0.163081 0.898039 0.898039 0.898039 2
0.178957 0.122742 0.148381 0 1 1 0
0.247261 0.120042 0.148381 0 1 1 0
0.214474 0.123295 0.148381 0 1 1 0
0.0936335 0.144863 0.159281 0.898039 0.898039 0.898039 0
0.0386365 0.154701 0.154081 0.898039 0.898039 0.898039 0
0.138263 0.150644 0.156024 0 1 1 2
0.204551 0.125911 0.167156 0 1 1 0
0.122848 0.152259 0.163003 0.898039 0.898039 0.898039 2
0.178727 0.118657 0.148381 0 1 1 0
0.156163 0.155993 0.166081 0.14902 0.980392 0.980392 2
0.223694 0.163642 0.156434 0 1 1 2
0.0543285 0.156719 0.154081 0.898039 0.898039 0.898039 0
0.0774849 0.154677 0.163081 0.898039 0.898039 0.898039 2
0.0740068 0.145699 0.153081 0.898039 0.898039 0.898039 1
0.106034 0.154904 0.163081 0.898039 0.898039 0.898039 2
0.0980811 0.119462 0.154081 0.898039 0.898039 0.898039 0
0.112806 0.124829 0.163081 0.898039 0.898039 0.898039 0
0.100424 0.157894 0.163081 0.898039 0.898039 0.898039 2
0.172749 0.116789 0.148381 0 1 1 0
0.242911 0.154111 0.165998 0 1 1 2
0.065974 0.16231 0.159281 0.898039 0.898039 0.898039 0
0.0899362 0.122537 0.159281 0.898039 0.898039 0.898039 0
0.115215 0.124594 0.154081 0.898039 0.898039 0.898039 0
0.208122 0.153125 0.157675 0 1 1 2
0.166311 0.166663 0.148775 0.356863 0.956863 0.956863 2
0.146373 0.163068 0.147732 0.27451 0.964706 0.964706 2
0.134124 0.121427 0.163081 0.811765 0.905882 0.905882 0
0.09628 0.157879 0.151781 0.898039 0.898039 0.898039 2
0.184089 0.126021 0.166447 0 1 1 0
0.0971748 0.160936 0.157512 0.898039 0.898039 0.898039 2
0.158623 0.152344 0.147161 0 1 1 2
0.0841665 0.15122 0.154081 0.898039 0.898039 0.898039 0
0.0890898 0.121102 0.155018 0.898039 0.898039 0.898039 0
0.0814493 0.131708 0.154081 0.898039 0.898039 0.898039 0
0.0244583 0.140992 0.156988 0.898039 0.898039 0.898039 0
0.19856 0.112139 0.160155 0 1 1 0
0.203721 0.166597 0.158118 0 1 1 2
0.130423 0.117371 0.159094 0.898039 0.898039 0.898039 0
0.0800901 0.143468 0.159281 0.898039 0.898039 0.898039 2
0.162559 0.113736 0.162374 0 1 1 0
0.0953019 0.136684 0.159281 0.898039 0.898039 0.898039 0
0.121562 0.124594 0.163081 0.898039 0.898039 0.898039 0
0.25767 0.12453 0.149468 0 1 1 0
0.051491 0.124711 0.157454 0.898039 0.898039 0.898039 2
0.0947152 0.160701 0.16292 0.898039 0.898039 0.898039 2
0.0940047 0.129513 0.159281 0.898039 0.898039 0.898039 0
0.0397502 0.124001 0.162703 0.898039 0.898039 0.898039 2
0.157975 0.113995 0.160372 0 1 1 0
0.186814 0.126215 0.165877 0 1 1 0
0.0819293 0.133267 0.159281 0.898039 0.898039 0.898039 0
0.0624944 0.129301 0.162256 0.898039 0.898039 0.898039 2
0.149558 0.150891 0.156271 0 1 1 2
0.114342 0.161637 0.156966 0.898039 0.898039 0.898039 2
0.043034 0.159373 0.154081 0.898039 0.898039 0.898039 0
0.219272 0.152973 0.158127 0 1 1 2
0.154572 0.16563 0.161705 0.360784 0.956863 0.956863 2
0.119421 0.15187 0.16217 0.898039 0.898039 0.898039 2
0.113363 0.129301 0.154081 0.898039 0.898039 0.898039 0
0.173441 0.16753 0.157939 0.0588235 0.992157 0.992157 2
0.120308 0.11851 0.154175 0.898039 0.898039 0.898039 0
0.0405567 0.124252 0.158719 0.898039 0.898039 0.898039 2
0.211164 0.162128 0.166081 0 1 1 2
0.151843 0.154044 0.166032 0.0745098 0.988235 0.988235 2
0.0881019 0.143781 0.154081 0.898039 0.898039 0.898039 0
0.221593 0.163738 0.147575 0 1 1 2
0.177552 0.160506 0.166081 0 1 1 2
0.222965 0.126259 0.149755 0 1 1 0
0.148169 0.156923 0.14722 0.0588235 0.992157 0.992157 2
0.185517 0.168051 0.163621 0 1 1 2
0.140586 0.124751 0.152838 0.305882 0.960784 0.960784 0
0.0950635 0.134988 0.154081 0.898039 0.898039 0.898039 0
0.189133 0.112 0.166724 0 1 1 0
0.132159 0.152244 0.163048 0.596078 0.929412 0.929412 2
0.0824587 0.160325 0.159688 0.898039 0.898039 0.898039 2
0.0546295 0.156518 0.154081 0.898039 0.898039 0.898039 0
0.0326071 0.1569 0.154081 0.898039 0.898039 0.898039 0
0.230877 0.16302 0.164908 0 1 1 2
0.052275 0.129191 0.154081 0.898039 0.898039 0.898039 2
0.229267 0.152837 0.160282 0 1 1 2
0.105038 0.126021 0.154081 0.898039 0.898039 0.898039 0
0.164411 0.163738 0.166081 0.227451 0.972549 0.972549 2
0.0973783 0.137221 0.154081 0.898039 0.898039 0.898039 0
0.182458 0.126198 0.162374 0 1 1 0
0.0706355 0.14406 0.153098 0.898039 0.898039 0.898039 1
0.025791 0.151386 0.154081 0.898039 0.898039 0.898039 0
0.233072 0.16231 0.165683 0 1 1 2
0.0751906 0.134433 0.154081 0.898039 0.898039 0.898039 0
0.185729 0.114542 0.168369 0 1 1 0
0.206835 0.114755 0.167992 0 1 1 0
0.184089 0.16806 0.149857 0 1 1 2
0.0756516 0.160056 0.160169 0.898039 0.898039 0.898039 2
0.0904234 0.16066 0.161203 0.898039 0.898039 0.898039 2
0.0381425 0.163738 0.163081 0.898039 0.898039 0.898039 0
0.232036 0.126663 0.150294 0 1 1 0
0.203555 0.166625 0.151433 0 1 1 2
0.221806 0.126364 0.14995 0 1 1 0
0.17603 0.153899 0.165179 0 1 1 2
0.135763 0.115629 0.163081 0.772549 0.909804 0.909804 0
0.171615 0.167308 0.163062 0.0588235 0.992157 0.992157 2
0.19624 0.157099 0.146081 0 1 1 2
0.200962 0.126449 0.159307 0 1 1 0
0.177317 0.112073 0.154175 0 1 1 0
0.213634 0.114361 0.164017 0 1 1 0
0.143657 0.11447 0.163387 0.784314 0.909804 0.909804 0
0.051042 0.171083 0.154121 0.898039 0.898039 0.898039 0
0.1478 0.116182 0.151365 0.768627 0.909804 0.909804 0
0.139601 0.165204 0.159811 0.227451 0.972549 0.972549 2
0.195032 0.167656 0.148083 0 1 1 2
0.231645 0.120676 0.148381 0 1 1 0
0.244764 0.15263 0.147828 0 1 1 2
0.0165146 0.140701 0.158207 0.898039 0.898039 0.898039 0
0.141241 0.12564 0.152692 0.305882 0.960784 0.960784 0
0.253649 0.156615 0.166081 0 1 1 2
0.222042 0.16337 0.165259 0 1 1 2
0.023624 0.152471 0.159887 0.898039 0.898039 0.898039 0
0.0601553 0.132581 0.163081 0.898039 0.898039 0.898039 2
0.195356 0.11193 0.154175 0 1 1 0
0.0439188 0.157456 0.160602 0.898039 0.898039 0.898039 0
0.209255 0.126562 0.159028 0 1 1 0
0.235449 0.116573 0.164226 0 1 1 0
0.107377 0.160914 0.163076 0.898039 0.898039 0.898039 2
0.170418 0.164284 0.146081 0.0588235 0.992157 0.992157 2
0.0611004 0.152981 0.155499 0.898039 0.898039 0.898039 0
0.1478 0.153899 0.147325 0.0588235 0.992157 0.992157 2
0.0369643 0.119462 0.163081 0.898039 0.898039 0.898039 2
0.0836182 0.15328 0.158959 0.898039 0.898039 0.898039 0
0.119564 0.129353 0.157863 0.898039 0.898039 0.898039 0
0.030448 0.148558 0.154081 0.898039 0.898039 0.898039 0
0.140591 0.158158 0.14938 0.27451 0.964706 0.964706 2
0.123264 0.118299 0.157752 0.898039 0.898039 0.898039 0
0.191452 0.12632 0.154871 0 1 1 0
0.051491 0.124711 0.156027 0.898039 0.898039 0.898039 2
0.0496805 0.126234 0.154081 0.898039 0.898039 0.898039 2
0.0501415 0.162865 0.154081 0.898039 0.898039 0.898039 0
0.0309446 0.160653 0.159086 0.898039 0.898039 0.898039 0
0.14623 0.165413 0.152543 0.0156863 0.996078 0.996078 2
0.0960996 0.129191 0.154081 0.898039 0.898039 0.898039 0
0.0824185 0.152259 0.163081 0.898039 0.898039 0.898039 2
0.155105 0.162128 0.166081 0.27451 0.964706 0.964706 2
0.250782 0.152414 0.14911 0 1 1 2
0.0226142 0.151045 0.162772 0.898039 0.898039 0.898039 0
0.11956 0.125116 0.163081 0.898039 0.898039 0.898039 0
0.115215 0.121933 0.154081 0.898039 0.898039 0.898039 0
0.234152 0.152771 0.156011 0 1 1 2
0.247831 0.117056 0.165654 0 1 1 0
0.118356 0.159615 0.163081 0.898039 0.898039 0.898039 2
0.0737217 0.154977 0.163081 0.898039 0.898039 0.898039 2
0.0466586 0.134087 0.154226 0.898039 0.898039 0.898039 2
0.245239 0.162674 0.162341 0 1 1 2
0.0998519 0.118802 0.154081 0.898039 0.898039 0.898039 0
0.255935 0.155364 0.148478 0 1 1 2
0.233285 0.159031 0.146081 0 1 1 2
0.197204 0.167427 0.161541 0 1 1 2
0.185097 0.111699 0.164226 0 1 1 0
0.137961 0.126021 0.153423 0.305882 0.960784 0.960784 0
0.210114 0.165505 0.162586 0 1 1 2
0.0707271 0.135847 0.154081 0.898039 0.898039 0.898039 0
0.133906 0.156638 0.151285 0.266667 0.968627 0.968627 2
0.205215 0.126507 0.161402 0 1 1 0
0.0461293 0.168615 0.154081 0.898039 0.898039 0.898039 0
0.0725794 0.153081 0.153081 0.898039 0.898039 0.898039 1
0.216179 0.126656 0.156314 0 1 1 0
0.0381582 0.166466 0.160155 0.898039 0.898039 0.898039 0
0.151881 0.157665 0.146162 0.0588235 0.992157 0.992157 2
0.187552 0.153405 0.153057 0 1 1 2
0.043062 0.159038 0.154081 0.898039 0.898039 0.898039 0
0.0229836 0.147416 0.154081 0.898039 0.898039 0.898039 0
0.0476979 0.123333 0.154081 0.898039 0.898039 0.898039 2
0.228153 0.163313 0.157667 0 1 1 2
0.0381425 0.16395 0.154081 0.898039 0.898039 0.898039 0
0.175203 0.112285 0.157454 0 1 1 0
0.162836 0.117948 0.168381 0 1 1 0
0.0908474 0.154111 0.163081 0.898039 0.898039 0.898039 2
0.226513 0.126797 0.160812 0 1 1 0
0.142755 0.129043 0.161878 0 1 1 0
0.2281 0.123854 0.168378 0 1 1 0
0.24031 0.116795 0.165866 0 1 1 0
0.0774989 0.147339 0.163081 0.898039 0.898039 0.898039 2
0.102171 0.118634 0.162508 0.898039 0.898039 0.898039 0
0.0394008 0.153486 0.160506 0.898039 0.898039 0.898039 0
0.183294 0.11331 0.168025 0 1 1 0
0.164255 0.156315 0.166081 0.0588235 0.992157 0.992157 2
0.113495 0.152259 0.163081 0.898039 0.898039 0.898039 2
0.0592182 0.16395 0.159281 0.898039 0.898039 0.898039 0
0.193928 0.126354 0.163875 0 1 1 0
0.142246 0.150644 0.156024 0 1 1 2
0.19862 0.16231 0.166081 0 1 1 2
0.0786783 0.13914 0.160734 0.898039 0.898039 0.898039 2
0.0813777 0.126661 0.15631 0.898039 0.898039 0.898039 0
0.11971 0.118299 0.156476 0.898039 0.898039 0.898039 0
0.101007 0.139967 0.158678 0.898039 0.898039 0.898039 0
0.0938974 0.150831 0.159281 0.898039 0.898039 0.898039 2
0.0953248 0.148979 0.159281 0.898039 0.898039 0.898039 2
0.142751 0.155796 0.164668 0.215686 0.972549 0.972549 2
0.241649 0.116803 0.159211 0 1 1 0
0.0871256 0.124594 0.159281 0.898039 0.898039 0.898039 0
0.0952094 0.132795 0.159281 0.898039 0.898039 0.898039 0
0.247269 0.127096 0.151942 0 1 1 0
0.0382455 0.116949 0.154081 0.898039 0.898039 0.898039 2
0.0405511 0.123051 0.163081 0.898039 0.898039 0.898039 2
0.0556388 0.139627 0.159281 0.898039 0.898039 0.898039 2
0.233072 0.163126 0.162586 0 1 1 2
0.205407 0.16231 0.146081 0 1 1 2
0.113851 0.161616 0.162593 0.898039 0.898039 0.898039 2
0.14288 0.165308 0.154387 0.0156863 0.996078 0.996078 2
0.132897 0.126592 0.163081 0.811765 0.905882 0.905882 0
0.157639 0.160458 0.146081 0.12549 0.984314 0.984314 2
0.0501372 0.15198 0.154081 0.898039 0.898039 0.898039 0
0.131155 0.163941 0.16255 0.576471 0.933333 0.933333 2
0.16076 0.163318 0.146081 0.298039 0.964706 0.964706 2
0.1971 0.158739 0.146081 0 1 1 2
0.0412097 0.159339 0.154081 0.898039 0.898039 0.898039 0
0.104471 0.150928 0.163081 0.898039 0.898039 0.898039 2
0.0274253 0.150038 0.163081 0.898039 0.898039 0.898039 0
0.138012 0.114039 0.159909 0.329412 0.960784 0.960784 0
0.242911 0.162098 0.146601 0 1 1 2
0.0694317 0.13586 0.163081 0.898039 0.898039 0.898039 2
0.0581088 0.1492 0.159281 0.898039 0.898039 0.898039 0
0.0707129 0.162831 0.154115 0.898039 0.898039 0.898039 0
0.151519 0.118034 0.1665 0.282353 0.964706 0.964706 0
0.0593503 0.127661 0.159413 0.898039 0.898039 0.898039 2
0.214532 0.115095 0.149623 0 1 1 0
0.156337 0.160953 0.166081 0.27451 0.964706 0.964706 2
0.11956 0.121411 0.163081 0.898039 0.898039 0.898039 0
0.0559684 0.170297 0.154081 0.898039 0.898039 0.898039 0
0.13962 0.165205 0.15981 0.227451 0.972549 0.972549 2
0.16927 0.158739 0.146081 0.0588235 0.992157 0.992157 2
0.161131 0.153926 0.146188 0 1 1 2
0.126694 0.124252 0.154081 0.898039 0.898039 0.898039 0
0.254578 0.120976 0.148381 0 1 1 0
0.0907257 0.160672 0.161193 0.898039 0.898039 0.898039 2
0.0208201 0.135202 0.155341 0.898039 0.898039 0.898039 0
0.0928946 0.149254 0.159281 0.898039 0.898039 0.898039 2
0.102016 0.118299 0.154836 0.898039 0.898039 0.898039 0
0.0631556 0.162951 0.159281 0.898039 0.898039 0.898039 0
0.0570945 0.134222 0.159281 0.898039 0.898039 0.898039 2
0.148196 0.153899 0.165485 0.0980392 0.988235 0.988235 2
0.142605 0.129058 0.16165 0 1 1 0
0.0768111 0.131708 0.154081 0.898039 0.898039 0.898039 0
0.0945547 0.156364 0.163081 0.898039 0.898039 0.898039 2
0.105376 0.118299 0.160947 0.898039 0.898039 0.898039 0
0.086786 0.149192 0.154081 0.898039 0.898039 0.898039 0
0.184495 0.156364 0.166081 0 1 1 2
0.162113 0.126724 0.167293 0 1 1 0
0.0199889 0.145421 0.154081 0.898039 0.898039 0.898039 0
0.0887654 0.153838 0.159281 0.898039 0.898039 0.898039 2
0.19632 0.121102 0.168381 0 1 1 0
0.103168 0.16118 0.155748 0.898039 0.898039 0.898039 2
0.0568891 0.170741 0.159195 0.898039 0.898039 0.898039 0
0.159854 0.113922 0.153116 0 1 1 0
0.210005 0.123834 0.168358 0 1 1 0
0.154359 0.165624 0.16403 0.360784 0.956863 0.956863 2
0.18818 0.119228 0.168381 0 1 1 0
0.175049 0.153575 0.149468 0 1 1 2
0.144967 0.123896 0.165143 0.282353 0.964706 0.964706 0
0.123901 0.12864 0.154331 0.898039 0.898039 0.898039 0
0.113562 0.118299 0.155815 0.898039 0.898039 0.898039 0
0.168647 0.126471 0.151862 0 1 1 0
0.0796309 0.148815 0.154081 0.898039 0.898039 0.898039 0
0.0963733 0.118299 0.15671 0.898039 0.898039 0.898039 0
0.233072 0.162306 0.146475 0 1 1 2
0.128843 0.117822 0.159027 0.898039 0.898039 0.898039 0
0.108945 0.121411 0.163081 0.898039 0.898039 0.898039 0
0.148549 0.165487 0.152616 0.0156863 0.996078 0.996078 2
0.110288 0.130281 0.154081 0.898039 0.898039 0.898039 0
0.144338 0.165354 0.157323 0.0156863 0.996078 0.996078 2
0.25439 0.118034 0.167022 0 1 1 0
0.17582 0.112211 0.159164 0 1 1 0
0.0597898 0.149716 0.160228 0.898039 0.898039 0.898039 2
0.257882 0.125439 0.162374 0 1 1 0
0.0465083 0.168446 0.159281 0.898039 0.898039 0.898039 0
0.0843673 0.132404 0.157824 0.898039 0.898039 0.898039 0
0.17589 0.159946 0.146081 0 1 1 2
0.102443 0.150346 0.163081 0.898039 0.898039 0.898039 2
0.189495 0.11168 0.159996 0 1 1 0
0.175677 0.167711 0.153845 0 1 1 2
0.124888 0.162066 0.152783 0.898039 0.898039 0.898039 2
0.0525614 0.157178 0.159281 0.898039 0.898039 0.898039 0
0.16761 0.163272 0.166081 0.0588235 0.992157 0.992157 2
0.141013 0.114039 0.159307 0.329412 0.960784 0.960784 0
0.0353388 0.122742 0.157749 0.898039 0.898039 0.898039 2
0.102317 0.137221 0.154081 0.898039 0.898039 0.898039 0
0.0811489 0.134758 0.15759 0.898039 0.898039 0.898039 0
0.168123 0.163573 0.166081 0.0588235 0.992157 0.992157 2
0.241272 0.162822 0.154387 0 1 1 2
0.0802855 0.15198 0.154081 0.898039 0.898039 0.898039 0
0.217379 0.126632 0.165866 0 1 1 0
0.149858 0.114039 0.158776 0.352941 0.956863 0.956863 0
0.114148 0.161629 0.157709 0.898039 0.898039 0.898039 2
0.110347 0.132793 0.157667 0.898039 0.898039 0.898039 0
0.0807786 0.154111 0.154081 0.898039 0.898039 0.898039 0
0.147594 0.124443 0.165687 0.282353 0.964706 0.964706 0
0.103949 0.152661 0.15501 0.898039 0.898039 0.898039 2
0.101884 0.157391 0.163081 0.898039 0.898039 0.898039 2
0.0294265 0.153248 0.154081 0.898039 0.898039 0.898039 0
0.214019 0.153045 0.157755 0 1 1 2
0.1713 0.156615 0.166081 0 1 1 2
0.190142 0.111677 0.161333 0 1 1 0
0.231645 0.126177 0.167293 0 1 1 0
0.139601 0.165204 0.160947 0.227451 0.972549 0.972549 2
0.106605 0.118299 0.159094 0.898039 0.898039 0.898039 0
0.172749 0.11447 0.148605 0 1 1 0
0.0463624 0.121869 0.154081 0.898039 0.898039 0.898039 2
0.0543285 0.129301 0.159281 0.898039 0.898039 0.898039 2
0.157639 0.157326 0.146081 0.12549 0.984314 0.984314 2
0.128836 0.162938 0.161972 0.898039 0.898039 0.898039 2
0.152608 0.114039 0.154387 0.290196 0.964706 0.964706 0
0.153968 0.16559 0.164351 0.690196 0.917647 0.917647 2
0.239254 0.121848 0.168381 0 1 1 0
0.0973191 0.148951 0.159281 0.898039 0.898039 0.898039 2
0.131402 0.117595 0.154081 0.898039 0.898039 0.898039 0
0.18081 0.167999 0.157016 0 1 1 2
0.236352 0.159645 0.146081 0 1 1 2
0.0500429 0.171342 0.155157 0.898039 0.898039 0.898039 0
0.237397 0.152726 0.149098 0 1 1 2
0.219221 0.160081 0.146081 0 1 1 2
0.196566 0.153899 0.165515 0 1 1 2
0.144931 0.126432 0.1519 0.435294 0.945098 0.945098 0
0.172069 0.156033 0.166081 0 1 1 2
0.220166 0.125007 0.148687 0 1 1 0
0.148553 0.128889 0.163671 0 1 1 0
0.221806 0.163784 0.16325 0 1 1 2
0.258557 0.124305 0.156346 0 1 1 0
0.234506 0.116702 0.166358 0 1 1 0
0.0792519 0.140992 0.163081 0.898039 0.898039 0.898039 2
0.155675 0.116395 0.167282 0 1 1 0
0.10413 0.129066 0.159281 0.898039 0.898039 0.898039 0
0.244706 0.116916 0.15476 0 1 1 0
0.157639 0.119674 0.167767 0 1 1 0
0.100244 0.161061 0.159316 0.898039 0.898039 0.898039 2
0.244764 0.117815 0.167506 0 1 1 0
0.0797961 0.14129 0.163081 0.898039 0.898039 0.898039 2
0.235515 0.121577 0.168381 0 1 1 0
0.174038 0.112425 0.157454 0 1 1 0
0.0264511 0.15595 0.159307 0.898039 0.898039 0.898039 0
0.203856 0.155743 0.146081 0 1 1 2
0.165942 0.157633 0.166081 0.0588235 0.992157 0.992157 2
0.0786408 0.157146 0.158292 0.898039 0.898039 0.898039 0
0.121748 0.16002 0.163081 0.898039 0.898039 0.898039 2
0.119525 0.121226 0.163081 0.898039 0.898039 0.898039 0
0.175728 0.120976 0.148381 0 1 1 0
0.148105 0.1508 0.154541 0 1 1 2
0.147393 0.128483 0.152599 0.298039 0.964706 0.964706 0
0.049409 0.155539 0.154081 0.898039 0.898039 0.898039 0
0.0864856 0.142623 0.154081 0.898039 0.898039 0.898039 0
0.17097 0.16559 0.146117 0.117647 0.984314 0.984314 2
0.138585 0.127874 0.1632 0.298039 0.964706 0.964706 0
0.0716131 0.134895 0.160365 0.898039 0.898039 0.898039 2
0.0586805 0.139973 0.163081 0.898039 0.898039 0.898039 2
0.226513 0.157391 0.166081 0 1 1 2
0.121775 0.161941 0.159094 0.898039 0.898039 0.898039 2
0.111346 0.153331 0.151781 0.898039 0.898039 0.898039 2
0.0571996 0.127487 0.159281 0.898039 0.898039 0.898039 2
0.0801661 0.154677 0.163081 0.898039 0.898039 0.898039 2
0.115447 0.121933 0.154081 0.898039 0.898039 0.898039 0
0.0299432 0.149762 0.154081 0.898039 0.898039 0.898039 0
0.0528976 0.134433 0.163081 0.898039 0.898039 0.898039 2
0.0430297 0.124691 0.163081 0.898039 0.898039 0.898039 2
0.133254 0.165004 0.159094 0.227451 0.972549 0.972549 2
0.0525614 0.153899 0.159281 0.898039 0.898039 0.898039 0
0.191363 0.16395 0.166081 0 1 1 2
0.123039 0.161985 0.162658 0.898039 0.898039 0.898039 2
0.0373264 0.151401 0.16054 0.898039 0.898039 0.898039 0
0.148699 0.151067 0.148248 0 1 1 2
0.18432 0.118512 0.168381 0 1 1 0
0.0428868 0.126563 0.161046 0.898039 0.898039 0.898039 2
0.0862604 0.143105 0.154081 0.898039 0.898039 0.898039 0
0.211014 0.115494 0.148752 0 1 1 0
0.113766 0.161613 0.15676 0.898039 0.898039 0.898039 2
0.186643 0.111893 0.166439 0 1 1 0
0.164199 0.166386 0.149468 0.356863 0.956863 0.956863 2
0.110306 0.132825 0.154784 0.898039 0.898039 0.898039 0
0.0528914 0.127949 0.154175 0.898039 0.898039 0.898039 2
0.17073 0.153502 0.152323 0 1 1 2
0.148013 0.16547 0.152288 0.0156863 0.996078 0.996078 2
0.159279 0.120682 0.148675 0 1 1 0
0.115449 0.154818 0.163081 0.898039 0.898039 0.898039 2
0.141213 0.150644 0.156027 0 1 1 2
0.19003 0.124711 0.16802 0 1 1 0
0.119568 0.16185 0.153888 0.898039 0.898039 0.898039 2
0.215034 0.163262 0.146188 0 1 1 2
0.137191 0.11462 0.163081 0.772549 0.909804 0.909804 0
0.153689 0.121102 0.166949 0.0823529 0.988235 0.988235 0
0.0569486 0.15535 0.158529 0.898039 0.898039 0.898039 0
0.108856 0.152259 0.163081 0.898039 0.898039 0.898039 2
0.250944 0.127214 0.165179 0 1 1 0
0.0661755 0.16231 0.159281 0.898039 0.898039 0.898039 0
0.189167 0.126249 0.165866 0 1 1 0
0.0235216 0.142882 0.163081 0.898039 0.898039 0.898039 0
0.105376 0.153899 0.163081 0.898039 0.898039 0.898039 2
0.0444139 0.12975 0.157876 0.898039 0.898039 0.898039 2
0.205367 0.121277 0.168381 0 1 1 0
0.0478003 0.152471 0.158901 0.898039 0.898039 0.898039 0
0.0625961 0.150473 0.158274 0.898039 0.898039 0.898039 0
0.215451 0.155743 0.146081 0 1 1 2
0.241037 0.117728 0.167561 0 1 1 0
0.102754 0.157223 0.163081 0.898039 0.898039 0.898039 2
0.17917 0.160458 0.166081 0 1 1 2
0.235515 0.163035 0.161644 0 1 1 2
0.149937 0.118601 0.150755 0.494118 0.941176 0.941176 0
0.0421463 0.160671 0.163081 0.898039 0.898039 0.898039 0
0.0798084 0.133092 0.154081 0.898039 0.898039 0.898039 0
0.0824185 0.125913 0.154387 0.898039 0.898039 0.898039 0
0.14514 0.159329 0.148083 0.27451 0.964706 0.964706 2
0.154346 0.122136 0.167085 0 1 1 0
0.0942852 0.155539 0.152747 0.898039 0.898039 0.898039 2
0.162053 0.127423 0.15121 0 1 1 0
0.25014 0.11715 0.156545 0 1 1 0
0.134638 0.125361 0.154081 0.898039 0.898039 0.898039 0
0.208687 0.126554 0.159036 0 1 1 0
0.250439 0.152425 0.162725 0 1 1 2
0.153526 0.1656 0.16351 0.360784 0.956863 0.956863 2
0.108475 0.127342 0.162452 0.898039 0.898039 0.898039 0
0.142258 0.129063 0.161166 0.0470588 0.992157 0.992157 0
0.0236462 0.1487 0.154081 0.898039 0.898039 0.898039 0
0.13607 0.114683 0.163079 0.619608 0.92549 0.92549 0
0.0245095 0.153664 0.162111 0.898039 0.898039 0.898039 0
0.184345 0.11447 0.148399 0 1 1 0
0.227515 0.152861 0.160258 0 1 1 2
0.1478 0.124782 0.151231 0.305882 0.960784 0.960784 0
0.139341 0.115428 0.153606 0.776471 0.909804 0.909804 0
0.0945459 0.125351 0.159281 0.898039 0.898039 0.898039 0
0.0509963 0.122672 0.162489 0.898039 0.898039 0.898039 2
0.0666121 0.13212 0.159348 0.898039 0.898039 0.898039 2
0.156212 0.155751 0.146081 0.12549 0.984314 0.984314 2
0.214643 0.125915 0.167328 0 1 1 0
0.159182 0.115006 0.149412 0 1 1 0
0.134634 0.165047 0.155456 0.227451 0.972549 0.972549 2
0.0840583 0.147552 0.154081 0.898039 0.898039 0.898039 0
0.0817679 0.144648 0.15602 0.898039 0.898039 0.898039 0
0.241938 0.152665 0.153798 0 1 1 2
0.166051 0.164715 0.146085 0.466667 0.945098 0.945098 2
0.0508789 0.13586 0.163081 0.898039 0.898039 0.898039 2
0.0313706 0.152259 0.154081 0.898039 0.898039 0.898039 0
0.0175239 0.136415 0.154081 0.898039 0.898039 0.898039 0
0.179786 0.122742 0.168381 0 1 1 0
0.108468 0.159019 0.151781 0.898039 0.898039 0.898039 2
0.114339 0.158818 0.163081 0.898039 0.898039 0.898039 2
0.236113 0.120676 0.148381 0 1 1 0
0.17425 0.153606 0.147828 0 1 1 2
0.114926 0.123721 0.154081 0.898039 0.898039 0.898039 0
0.185729 0.168049 0.158984 0 1 1 2
0.223469 0.152916 0.155865 0 1 1 2
0.161304 0.126453 0.167698 0 1 1 0
0.0736485 0.132598 0.154858 0.898039 0.898039 0.898039 0
0.141785 0.154543 0.164523 0.215686 0.972549 0.972549 2
0.0916856 0.156141 0.159281 0.898039 0.898039 0.898039 2
0.160144 0.165923 0.162891 0.447059 0.94902 0.94902 2
0.0459124 0.132877 0.157351 0.898039 0.898039 0.898039 2
0.141241 0.114542 0.154062 0.811765 0.905882 0.905882 0
0.215953 0.114765 0.154582 0 1 1 0
0.251324 0.127227 0.155352 0 1 1 0
0.186207 0.111694 0.154175 0 1 1 0
0.0185332 0.144672 0.155701 0.898039 0.898039 0.898039 0
0.15918 0.152206 0.154306 0 1 1 2
0.164411 0.166351 0.147615 0.776471 0.909804 0.909804 2
0.177282 0.160913 0.166081 0 1 1 2
0.0627463 0.147894 0.154081 0.898039 0.898039 0.898039 0
0.0428496 0.16723 0.163081 0.898039 0.898039 0.898039 0
0.207621 0.12585 0.167293 0 1 1 0
0.22058 0.155443 0.146081 0 1 1 2
0.178957 0.124804 0.14889 0 1 1 0
0.0774989 0.152081 0.154081 0.898039 0.898039 0.898039 0
