ply
format ascii 1.0
comment Created by Open3D
element vertex 834
property float32 x
property float32 y
property float32 z
property float32 red
property float32 green
property float32 blue
property uint8 segmentation
end_header
0.0818618 0.00557044 0.180478 0.909804 0.443137 0.0313726 1
0.112743 0.22925 0.153729 0.298039 0.298039 0.298039 0
0.086329 0.160904 0.173895 0.909804 0.443137 0.0313726 1
0.0820517 0.0180821 0.17409 0.909804 0.443137 0.0313726 1
0.0956219 0.0133841 0.161785 0.909804 0.443137 0.0313726 1
0.0867979 0.0924586 0.185444 0.909804 0.443137 0.0313726 1
0.107139 0.131015 0.184327 0.909804 0.443137 0.0313726 1
0.0873486 0.0329184 0.18904 0.909804 0.443137 0.0313726 1
0.107342 -0.00235254 0.165157 0.909804 0.443137 0.0313726 1
0.101482 0.195053 0.165932 0.909804 0.443137 0.0313726 1
0.0619541 0.214554 0.174176 0.298039 0.298039 0.298039 0
0.0917151 0.105195 0.165911 0.909804 0.443137 0.0313726 1
0.0951623 0.143804 0.165858 0.909804 0.443137 0.0313726 1
0.0975754 0.22786 0.154189 0.298039 0.298039 0.298039 0
0.0950087 0.259151 0.185987 0.298039 0.298039 0.298039 0
0.0947106 0.210689 0.189855 0.909804 0.443137 0.0313726 1
0.0861729 0.165292 0.174388 0.909804 0.443137 0.0313726 1
0.0960918 0.196755 0.189595 0.909804 0.443137 0.0313726 1
0.1104 0.0832197 0.173512 0.909804 0.443137 0.0313726 1
0.0918195 0.112803 0.188628 0.909804 0.443137 0.0313726 1
0.0932382 -0.00715581 0.162116 0.909804 0.443137 0.0313726 1
0.0853952 0.0324588 0.16778 0.909804 0.443137 0.0313726 1
0.081948 0.258142 0.166456 0.298039 0.298039 0.298039 0
0.0506932 0.236574 0.157636 0.298039 0.298039 0.298039 0
0.0823901 0.00506296 0.18243 0.909804 0.443137 0.0313726 1
0.0881928 0.100533 0.186587 0.909804 0.443137 0.0313726 1
0.105527 0.163155 0.169209 0.909804 0.443137 0.0313726 1
0.0465456 0.241475 0.171561 0.298039 0.298039 0.298039 0
0.0917932 0.108738 0.188782 0.909804 0.443137 0.0313726 1
0.109321 0.132083 0.177549 0.909804 0.443137 0.0313726 1
0.0850553 0.095428 0.182127 0.909804 0.443137 0.0313726 1
0.128371 0.241935 0.199109 0.298039 0.298039 0.298039 0
0.0912555 0.0993348 0.188911 0.909804 0.443137 0.0313726 1
0.0502335 0.21639 0.17717 0.298039 0.298039 0.298039 0
0.109531 0.0834383 0.18349 0.909804 0.443137 0.0313726 1
0.0465456 0.237988 0.178271 0.298039 0.298039 0.298039 0
0.0932089 0.173565 0.188305 0.909804 0.443137 0.0313726 1
0.111909 0.216152 0.191837 0.298039 0.298039 0.298039 0
0.0820891 0.226998 0.154496 0.298039 0.298039 0.298039 0
0.0989225 0.0955254 0.164302 0.909804 0.443137 0.0313726 1
0.0857043 0.137898 0.179445 0.909804 0.443137 0.0313726 1
0.0853952 0.116916 0.18069 0.909804 0.443137 0.0313726 1
0.0814883 0.260046 0.183104 0.298039 0.298039 0.298039 0
0.109497 0.238673 0.152916 0.298039 0.298039 0.298039 0
0.0684663 0.258779 0.180377 0.298039 0.298039 0.298039 0
0.108877 0.164763 0.176677 0.909804 0.443137 0.0313726 1
0.138744 0.251065 0.163133 0.298039 0.298039 0.298039 0
0.0970215 0.0481452 0.162487 0.909804 0.443137 0.0313726 1
0.0687447 0.221858 0.159379 0.298039 0.298039 0.298039 0
0.0897617 0.100886 0.166896 0.909804 0.443137 0.0313726 1
0.111006 0.072728 0.174358 0.909804 0.443137 0.0313726 1
0.0971481 0.038972 0.162232 0.909804 0.443137 0.0313726 1
0.088431 0.0331424 0.164946 0.909804 0.443137 0.0313726 1
0.115156 0.224918 0.155479 0.298039 0.298039 0.298039 0
0.0912555 0.085868 0.165339 0.909804 0.443137 0.0313726 1
0.109616 0.105195 0.173723 0.909804 0.443137 0.0313726 1
0.134949 0.215486 0.183031 0.298039 0.298039 0.298039 0
0.0946679 0.220654 0.158175 0.298039 0.298039 0.298039 0
0.0999107 0.128311 0.16562 0.909804 0.443137 0.0313726 1
0.108076 0.0552448 0.187354 0.909804 0.443137 0.0313726 1
0.144213 0.220035 0.165909 0.298039 0.298039 0.298039 0
0.104705 0.160477 0.168484 0.909804 0.443137 0.0313726 1
0.0902126 0.260097 0.171927 0.298039 0.298039 0.298039 0
0.0888021 0.0482886 0.189589 0.909804 0.443137 0.0313726 1
0.0779035 0.215455 0.164026 0.298039 0.298039 0.298039 0
0.0764289 0.212878 0.170096 0.298039 0.298039 0.298039 0
0.103436 0.126683 0.166943 0.909804 0.443137 0.0313726 1
0.129722 0.2138 0.178297 0.298039 0.298039 0.298039 0
0.0717212 0.220776 0.159589 0.298039 0.298039 0.298039 0
0.0971157 0.143564 0.165656 0.909804 0.443137 0.0313726 1
0.10641 0.215749 0.191304 0.298039 0.298039 0.298039 0
0.104929 0.251702 0.196415 0.298039 0.298039 0.298039 0
0.113017 -0.0039313 0.175024 0.909804 0.443137 0.0313726 1
0.105018 0.206091 0.187397 0.909804 0.443137 0.0313726 1
0.115486 0.257057 0.190282 0.298039 0.298039 0.298039 0
0.10579 0.231708 0.201644 0.298039 0.298039 0.298039 0
0.101482 0.201167 0.165663 0.909804 0.443137 0.0313726 1
0.0830238 0.0422259 0.182046 0.909804 0.443137 0.0313726 1
0.0858161 0.147711 0.175676 0.909804 0.443137 0.0313726 1
0.0951623 0.243429 0.15389 0.298039 0.298039 0.298039 0
0.108682 0.178239 0.174526 0.909804 0.443137 0.0313726 1
0.111457 0.0685908 0.176441 0.909804 0.443137 0.0313726 1
0.126524 0.247599 0.157667 0.298039 0.298039 0.298039 0
0.104035 0.173105 0.186937 0.909804 0.443137 0.0313726 1
0.114697 0.213506 0.167602 0.298039 0.298039 0.298039 0
0.0862355 0.136097 0.181537 0.909804 0.443137 0.0313726 1
0.106709 0.143527 0.170287 0.909804 0.443137 0.0313726 1
0.0661342 0.249264 0.195616 0.298039 0.298039 0.298039 0
0.131309 0.239522 0.155683 0.298039 0.298039 0.298039 0
0.10278 0.26042 0.173775 0.298039 0.298039 0.298039 0
0.10933 0.194142 0.175217 0.909804 0.443137 0.0313726 1
0.0947106 0.206691 0.189764 0.909804 0.443137 0.0313726 1
0.0833353 0.00400669 0.170133 0.909804 0.443137 0.0313726 1
0.0893833 0.00782552 0.191065 0.909804 0.443137 0.0313726 1
0.0873224 0.116361 0.170109 0.909804 0.443137 0.0313726 1
0.0990692 0.030965 0.192718 0.909804 0.443137 0.0313726 1
0.108586 0.238701 0.152916 0.298039 0.298039 0.298039 0
0.113035 0.0054309 0.179124 0.909804 0.443137 0.0313726 1
0.145951 0.247174 0.161499 0.298039 0.298039 0.298039 0
0.0643437 0.252498 0.162503 0.298039 0.298039 0.298039 0
0.123365 0.232238 0.154334 0.298039 0.298039 0.298039 0
0.106204 0.212808 0.168239 0.909804 0.443137 0.0313726 1
0.115573 0.233828 0.201914 0.298039 0.298039 0.298039 0
0.0915719 0.216399 0.162562 0.298039 0.298039 0.298039 0
0.110693 0.212874 0.169083 0.298039 0.298039 0.298039 0
0.0630023 0.247795 0.158856 0.298039 0.298039 0.298039 0
0.105389 0.187491 0.168563 0.909804 0.443137 0.0313726 1
0.112588 0.00222083 0.173263 0.909804 0.443137 0.0313726 1
0.132628 0.229336 0.198093 0.298039 0.298039 0.298039 0
0.0908917 0.0495889 0.164036 0.909804 0.443137 0.0313726 1
0.0989009 -0.00717732 0.175416 0.909804 0.443137 0.0313726 1
0.103627 0.144897 0.167513 0.909804 0.443137 0.0313726 1
0.129309 0.248216 0.196149 0.298039 0.298039 0.298039 0
0.147889 0.217611 0.182124 0.298039 0.298039 0.298039 0
0.113723 0.2217 0.157431 0.298039 0.298039 0.298039 0
0.0676984 0.241475 0.155283 0.298039 0.298039 0.298039 0
0.148146 0.235901 0.189347 0.298039 0.298039 0.298039 0
0.0849899 -0.00717732 0.169793 0.909804 0.443137 0.0313726 1
0.109019 0.175059 0.177246 0.909804 0.443137 0.0313726 1
0.102455 0.175518 0.187908 0.909804 0.443137 0.0313726 1
0.0999107 0.00124413 0.161805 0.909804 0.443137 0.0313726 1
0.110089 0.0927573 0.181079 0.909804 0.443137 0.0313726 1
0.0895161 0.0647886 0.18935 0.909804 0.443137 0.0313726 1
0.0557475 0.219 0.189022 0.298039 0.298039 0.298039 0
0.093774 0.251011 0.157809 0.298039 0.298039 0.298039 0
0.0927339 0.0634017 0.163813 0.909804 0.443137 0.0313726 1
0.10629 0.081754 0.167068 0.909804 0.443137 0.0313726 1
0.087371 0.11272 0.169839 0.909804 0.443137 0.0313726 1
0.0465456 0.239378 0.173893 0.298039 0.298039 0.298039 0
0.103436 0.085887 0.16532 0.909804 0.443137 0.0313726 1
0.109827 0.0326225 0.186342 0.909804 0.443137 0.0313726 1
0.0927793 0.157938 0.166766 0.909804 0.443137 0.0313726 1
0.0866813 0.0153376 0.188891 0.909804 0.443137 0.0313726 1
0.126805 0.240914 0.155157 0.298039 0.298039 0.298039 0
0.0920771 -0.00270288 0.192331 0.909804 0.443137 0.0313726 1
0.132737 0.238246 0.155779 0.298039 0.298039 0.298039 0
0.109867 0.205293 0.176185 0.909804 0.443137 0.0313726 1
0.109846 0.0592579 0.184736 0.909804 0.443137 0.0313726 1
0.0973493 0.200453 0.189821 0.909804 0.443137 0.0313726 1
0.148146 0.232343 0.18673 0.298039 0.298039 0.298039 0
0.104929 0.0329184 0.190711 0.909804 0.443137 0.0313726 1
0.103726 0.0298504 0.163342 0.909804 0.443137 0.0313726 1
0.134231 0.217902 0.188891 0.298039 0.298039 0.298039 0
0.0465456 0.24436 0.161017 0.298039 0.298039 0.298039 0
0.110925 0.0798126 0.179682 0.909804 0.443137 0.0313726 1
0.0517447 0.228669 0.195929 0.298039 0.298039 0.298039 0
0.0565534 0.255451 0.184984 0.298039 0.298039 0.298039 0
0.0892419 0.0076116 0.190968 0.909804 0.443137 0.0313726 1
0.100641 0.199418 0.16545 0.909804 0.443137 0.0313726 1
0.11711 0.241626 0.201248 0.298039 0.298039 0.298039 0
0.101865 0.10252 0.189475 0.909804 0.443137 0.0313726 1
0.0858548 0.137944 0.1803 0.909804 0.443137 0.0313726 1
0.109595 -0.00028983 0.187397 0.909804 0.443137 0.0313726 1
0.092273 0.0868835 0.164897 0.909804 0.443137 0.0313726 1
0.0502335 0.2483 0.162003 0.298039 0.298039 0.298039 0
0.105025 0.0161132 0.19105 0.909804 0.443137 0.0313726 1
0.0968154 0.16135 0.165821 0.909804 0.443137 0.0313726 1
0.0897342 0.141851 0.186386 0.909804 0.443137 0.0313726 1
0.11074 0.0276777 0.185143 0.909804 0.443137 0.0313726 1
0.0839014 0.260663 0.176084 0.341176 0.337255 0.333333 0
0.0985888 0.161994 0.188917 0.909804 0.443137 0.0313726 1
0.0799945 0.260707 0.17717 0.341176 0.337255 0.333333 0
0.106248 0.0544293 0.165739 0.909804 0.443137 0.0313726 1
0.0834418 0.0749622 0.176244 0.909804 0.443137 0.0313726 1
0.0465456 0.242881 0.179071 0.298039 0.298039 0.298039 0
0.0897358 0.181585 0.168424 0.909804 0.443137 0.0313726 1
0.111878 0.00799583 0.183519 0.909804 0.443137 0.0313726 1
0.109122 0.11203 0.181756 0.909804 0.443137 0.0313726 1
0.10931 0.0540693 0.168862 0.909804 0.443137 0.0313726 1
0.0815043 -0.0046563 0.178008 0.909804 0.443137 0.0313726 1
0.107873 0.100165 0.185038 0.909804 0.443137 0.0313726 1
0.120177 0.249289 0.197381 0.298039 0.298039 0.298039 0
0.127585 0.248699 0.196216 0.298039 0.298039 0.298039 0
0.0941795 0.13013 0.16582 0.909804 0.443137 0.0313726 1
0.111095 -0.00717732 0.183031 0.909804 0.443137 0.0313726 1
0.0863761 0.174868 0.181316 0.909804 0.443137 0.0313726 1
0.100363 0.226245 0.154802 0.298039 0.298039 0.298039 0
0.0836953 0.0537987 0.171911 0.909804 0.443137 0.0313726 1
0.112127 0.0487234 0.179124 0.909804 0.443137 0.0313726 1
0.0465456 0.228261 0.190844 0.298039 0.298039 0.298039 0
0.107765 0.215167 0.190456 0.298039 0.298039 0.298039 0
0.106062 0.0759679 0.166608 0.909804 0.443137 0.0313726 1
0.0990241 0.224764 0.199295 0.298039 0.298039 0.298039 0
0.086721 0.168367 0.172795 0.909804 0.443137 0.0313726 1
0.107342 -0.00717732 0.173723 0.909804 0.443137 0.0313726 1
0.0933648 0.248866 0.198444 0.298039 0.298039 0.298039 0
0.102056 0.0468264 0.163224 0.909804 0.443137 0.0313726 1
0.101022 0.108616 0.189554 0.909804 0.443137 0.0313726 1
0.100144 0.150296 0.166118 0.909804 0.443137 0.0313726 1
0.0956219 0.0705464 0.163435 0.909804 0.443137 0.0313726 1
0.0585876 0.24417 0.157865 0.298039 0.298039 0.298039 0
0.0934724 0.102869 0.165113 0.909804 0.443137 0.0313726 1
0.108802 0.161844 0.175676 0.909804 0.443137 0.0313726 1
0.148146 0.241694 0.182429 0.298039 0.298039 0.298039 0
0.101292 0.0330136 0.162573 0.909804 0.443137 0.0313726 1
0.0465456 0.246848 0.173318 0.298039 0.298039 0.298039 0
0.107307 0.176827 0.17131 0.909804 0.443137 0.0313726 1
0.0841744 0.0741269 0.172832 0.909804 0.443137 0.0313726 1
0.0861861 0.20436 0.171639 0.909804 0.443137 0.0313726 1
0.0994775 0.111234 0.165005 0.909804 0.443137 0.0313726 1
0.0465456 0.249833 0.179066 0.298039 0.298039 0.298039 0
0.0855197 0.0957322 0.17165 0.909804 0.443137 0.0313726 1
0.108544 0.187239 0.181537 0.909804 0.443137 0.0313726 1
0.109477 0.0875595 0.183229 0.909804 0.443137 0.0313726 1
0.12297 0.2364 0.153933 0.298039 0.298039 0.298039 0
0.0912835 0.0934649 0.189164 0.909804 0.443137 0.0313726 1
0.0878042 0.0133506 0.189902 0.909804 0.443137 0.0313726 1
0.109562 0.114557 0.179851 0.909804 0.443137 0.0313726 1
0.0897617 0.159956 0.168654 0.909804 0.443137 0.0313726 1
0.0946714 0.241487 0.153373 0.298039 0.298039 0.298039 0
0.104486 0.0189817 0.163496 0.909804 0.443137 0.0313726 1
0.102195 0.164907 0.166884 0.909804 0.443137 0.0313726 1
0.0639075 0.256827 0.184997 0.298039 0.298039 0.298039 0
0.0991794 0.030251 0.162066 0.909804 0.443137 0.0313726 1
0.102673 0.155947 0.167117 0.909804 0.443137 0.0313726 1
0.122336 0.258961 0.171711 0.298039 0.298039 0.298039 0
0.108036 0.197549 0.17131 0.909804 0.443137 0.0313726 1
0.052514 0.216037 0.178755 0.298039 0.298039 0.298039 0
0.0963605 0.118007 0.165083 0.909804 0.443137 0.0313726 1
0.06676 0.22313 0.158861 0.298039 0.298039 0.298039 0
0.0521141 0.231221 0.19682 0.298039 0.298039 0.298039 0
0.148146 0.233662 0.184984 0.298039 0.298039 0.298039 0
0.107467 0.0827396 0.168281 0.909804 0.443137 0.0313726 1
0.0859786 0.222301 0.156969 0.298039 0.298039 0.298039 0
0.102976 0.18651 0.166911 0.909804 0.443137 0.0313726 1
0.099112 0.238554 0.152893 0.298039 0.298039 0.298039 0
0.10842 0.216081 0.183625 0.909804 0.443137 0.0313726 1
0.0951623 0.116412 0.165183 0.909804 0.443137 0.0313726 1
0.11623 0.217677 0.193758 0.298039 0.298039 0.298039 0
0.0848268 0.0617601 0.17028 0.909804 0.443137 0.0313726 1
0.0909313 0.0724007 0.189856 0.909804 0.443137 0.0313726 1
0.109277 0.19264 0.175217 0.909804 0.443137 0.0313726 1
0.0943856 0.144383 0.166065 0.909804 0.443137 0.0313726 1
0.107907 0.0617601 0.187185 0.909804 0.443137 0.0313726 1
0.0882771 0.0863001 0.167403 0.909804 0.443137 0.0313726 1
0.0678144 0.247795 0.196951 0.298039 0.298039 0.298039 0
0.0551302 0.249749 0.192715 0.298039 0.298039 0.298039 0
0.0897617 0.214587 0.165328 0.298039 0.298039 0.298039 0
0.139282 0.226963 0.158959 0.298039 0.298039 0.298039 0
0.0881764 0.148386 0.170217 0.909804 0.443137 0.0313726 1
0.108592 0.1584 0.174707 0.909804 0.443137 0.0313726 1
0.11218 0.0510472 0.177409 0.909804 0.443137 0.0313726 1
0.0859871 0.200298 0.182451 0.909804 0.443137 0.0313726 1
0.0854322 0.125584 0.175073 0.909804 0.443137 0.0313726 1
0.0465456 0.228669 0.190403 0.298039 0.298039 0.298039 0
0.0888243 0.170705 0.169525 0.909804 0.443137 0.0313726 1
0.0465456 0.228261 0.181961 0.298039 0.298039 0.298039 0
0.0727373 0.217249 0.163065 0.298039 0.298039 0.298039 0
0.106626 0.0515102 0.188891 0.909804 0.443137 0.0313726 1
0.0842505 0.0970438 0.177196 0.909804 0.443137 0.0313726 1
0.142044 0.247335 0.160776 0.298039 0.298039 0.298039 0
0.100236 0.150747 0.188656 0.909804 0.443137 0.0313726 1
0.0992083 0.20061 0.165106 0.909804 0.443137 0.0313726 1
0.0878262 0.259617 0.184686 0.298039 0.298039 0.298039 0
0.148146 0.235901 0.181059 0.298039 0.298039 0.298039 0
0.0621829 0.214456 0.174612 0.298039 0.298039 0.298039 0
0.140244 0.226116 0.195211 0.298039 0.298039 0.298039 0
0.102208 0.105192 0.165561 0.909804 0.443137 0.0313726 1
0.0793159 0.231233 0.153234 0.298039 0.298039 0.298039 0
0.0912609 0.177472 0.167403 0.909804 0.443137 0.0313726 1
0.0842894 0.0938833 0.179424 0.909804 0.443137 0.0313726 1
0.0658609 0.258027 0.172746 0.298039 0.298039 0.298039 0
0.112876 0.0153376 0.17982 0.909804 0.443137 0.0313726 1
0.0897617 0.245213 0.154522 0.298039 0.298039 0.298039 0
0.147749 0.224787 0.192798 0.298039 0.298039 0.298039 0
0.0858548 0.150111 0.175685 0.909804 0.443137 0.0313726 1
0.110622 0.228756 0.200904 0.298039 0.298039 0.298039 0
0.114697 0.215426 0.190844 0.298039 0.298039 0.298039 0
0.118603 0.230188 0.153896 0.298039 0.298039 0.298039 0
0.108414 0.213729 0.167041 0.298039 0.298039 0.298039 0
0.06721 0.227036 0.198212 0.298039 0.298039 0.298039 0
0.12297 0.215601 0.165909 0.298039 0.298039 0.298039 0
0.0944294 0.199883 0.189452 0.909804 0.443137 0.0313726 1
0.104705 0.0755619 0.165613 0.909804 0.443137 0.0313726 1
0.0771891 0.22766 0.20035 0.298039 0.298039 0.298039 0
0.0878726 0.00538797 0.164768 0.909804 0.443137 0.0313726 1
0.0864336 0.220999 0.157906 0.298039 0.298039 0.298039 0
0.111515 0.0686275 0.17763 0.909804 0.443137 0.0313726 1
0.0944459 0.119707 0.165436 0.909804 0.443137 0.0313726 1
0.0923127 0.113934 0.188816 0.909804 0.443137 0.0313726 1
0.0967109 0.183649 0.165589 0.909804 0.443137 0.0313726 1
0.106377 0.0969218 0.186937 0.909804 0.443137 0.0313726 1
0.0999107 0.131084 0.1657 0.909804 0.443137 0.0313726 1
0.0834721 0.0695738 0.179975 0.909804 0.443137 0.0313726 1
0.0862034 0.0622198 0.186504 0.909804 0.443137 0.0313726 1
0.0822573 0.0380853 0.175652 0.909804 0.443137 0.0313726 1
0.110081 0.241935 0.201303 0.298039 0.298039 0.298039 0
0.0873486 0.130207 0.170725 0.909804 0.443137 0.0313726 1
0.109146 0.220827 0.196712 0.298039 0.298039 0.298039 0
0.112256 0.0441793 0.179124 0.909804 0.443137 0.0313726 1
0.111249 0.0682578 0.174661 0.909804 0.443137 0.0313726 1
0.120264 0.230214 0.154189 0.298039 0.298039 0.298039 0
0.0897617 0.124151 0.167844 0.909804 0.443137 0.0313726 1
0.0943562 0.0544064 0.163 0.909804 0.443137 0.0313726 1
0.104929 0.165292 0.16868 0.909804 0.443137 0.0313726 1
0.0876357 0.110596 0.185444 0.909804 0.443137 0.0313726 1
0.108286 -0.0061501 0.165909 0.909804 0.443137 0.0313726 1
0.108083 0.191976 0.183031 0.909804 0.443137 0.0313726 1
0.0823314 0.0114307 0.17266 0.909804 0.443137 0.0313726 1
0.0956219 0.0765014 0.163655 0.909804 0.443137 0.0313726 1
0.148146 0.232674 0.183635 0.298039 0.298039 0.298039 0
0.107682 0.0708249 0.186937 0.909804 0.443137 0.0313726 1
0.111386 0.0715273 0.177897 0.909804 0.443137 0.0313726 1
0.100236 0.186342 0.188949 0.909804 0.443137 0.0313726 1
0.111026 0.0818371 0.177657 0.909804 0.443137 0.0313726 1
0.0871019 0.0568219 0.16703 0.909804 0.443137 0.0313726 1
0.0861684 0.162273 0.174384 0.909804 0.443137 0.0313726 1
0.0848367 0.0812944 0.182996 0.909804 0.443137 0.0313726 1
0.0872597 0.145757 0.183336 0.909804 0.443137 0.0313726 1
0.0928461 0.238028 0.201962 0.298039 0.298039 0.298039 0
0.0944004 0.0782109 0.190904 0.909804 0.443137 0.0313726 1
0.102233 0.069806 0.164175 0.909804 0.443137 0.0313726 1
0.0736746 0.259714 0.174484 0.298039 0.298039 0.298039 0
0.0618579 0.257014 0.183224 0.298039 0.298039 0.298039 0
0.0880803 0.140234 0.170121 0.909804 0.443137 0.0313726 1
0.111859 0.0537328 0.174908 0.909804 0.443137 0.0313726 1
0.0929107 0.190632 0.166179 0.909804 0.443137 0.0313726 1
0.0465456 0.228705 0.18273 0.298039 0.298039 0.298039 0
0.115156 0.236075 0.152752 0.298039 0.298039 0.298039 0
0.0678901 0.247964 0.157946 0.298039 0.298039 0.298039 0
0.0954131 0.217522 0.193616 0.298039 0.298039 0.298039 0
0.142749 0.216178 0.17535 0.298039 0.298039 0.298039 0
0.0878082 0.218123 0.160519 0.298039 0.298039 0.298039 0
0.102721 0.244633 0.154318 0.298039 0.298039 0.298039 0
0.112105 0.236583 0.15278 0.298039 0.298039 0.298039 0
0.128062 0.255609 0.188652 0.298039 0.298039 0.298039 0
0.0820542 -0.0046563 0.181537 0.909804 0.443137 0.0313726 1
0.10958 0.0897843 0.172022 0.909804 0.443137 0.0313726 1
0.0964313 0.216411 0.162546 0.298039 0.298039 0.298039 0
0.102565 0.0957484 0.165323 0.909804 0.443137 0.0313726 1
0.138597 0.218763 0.188785 0.298039 0.298039 0.298039 0
0.108453 0.195194 0.182441 0.909804 0.443137 0.0313726 1
0.0780411 0.2606 0.179124 0.298039 0.298039 0.298039 0
0.0989726 0.0774681 0.191163 0.909804 0.443137 0.0313726 1
0.100379 0.0363656 0.192317 0.909804 0.443137 0.0313726 1
0.0863414 0.203479 0.171388 0.909804 0.443137 0.0313726 1
0.0848516 0.0544446 0.169655 0.909804 0.443137 0.0313726 1
0.104929 0.237568 0.152835 0.298039 0.298039 0.298039 0
0.0857323 0.199662 0.173097 0.909804 0.443137 0.0313726 1
0.0873874 0.175059 0.18349 0.909804 0.443137 0.0313726 1
0.0867807 0.128226 0.171584 0.909804 0.443137 0.0313726 1
0.0819162 0.253857 0.16034 0.298039 0.298039 0.298039 0
0.10739 0.21542 0.190844 0.298039 0.298039 0.298039 0
0.0465456 0.225907 0.188291 0.298039 0.298039 0.298039 0
0.10531 0.196455 0.186704 0.909804 0.443137 0.0313726 1
0.0780411 0.230214 0.153517 0.298039 0.298039 0.298039 0
0.107342 -0.00717732 0.17763 0.909804 0.443137 0.0313726 1
0.0861712 0.132083 0.181662 0.909804 0.443137 0.0313726 1
0.107307 0.176827 0.18349 0.909804 0.443137 0.0313726 1
0.107402 0.0810976 0.186684 0.909804 0.443137 0.0313726 1
0.102998 0.186176 0.187863 0.909804 0.443137 0.0313726 1
0.112743 0.257572 0.18935 0.298039 0.298039 0.298039 0
0.0873486 0.0356142 0.165866 0.909804 0.443137 0.0313726 1
0.0604603 0.248304 0.159718 0.298039 0.298039 0.298039 0
0.0926968 0.134304 0.16645 0.909804 0.443137 0.0313726 1
0.0508077 0.249933 0.191512 0.298039 0.298039 0.298039 0
0.0830074 0.211436 0.176748 0.298039 0.298039 0.298039 0
0.117405 0.24077 0.15344 0.298039 0.298039 0.298039 0
0.0873867 0.199096 0.184713 0.909804 0.443137 0.0313726 1
0.110259 0.0973814 0.179674 0.909804 0.443137 0.0313726 1
0.0979694 0.199575 0.18976 0.909804 0.443137 0.0313726 1
0.0878082 0.151618 0.184005 0.909804 0.443137 0.0313726 1
0.108137 0.125498 0.17177 0.909804 0.443137 0.0313726 1
0.0717212 0.259067 0.182125 0.298039 0.298039 0.298039 0
0.108955 0.18 0.175534 0.909804 0.443137 0.0313726 1
0.0477471 0.232813 0.196352 0.298039 0.298039 0.298039 0
0.100527 0.0583129 0.16323 0.909804 0.443137 0.0313726 1
0.086322 0.110685 0.17131 0.909804 0.443137 0.0313726 1
0.133956 0.257545 0.176155 0.298039 0.298039 0.298039 0
0.121575 0.212375 0.177408 0.298039 0.298039 0.298039 0
0.108763 0.124969 0.173201 0.909804 0.443137 0.0313726 1
0.0789229 0.215086 0.164491 0.298039 0.298039 0.298039 0
0.0932089 0.208727 0.189375 0.909804 0.443137 0.0313726 1
0.0560938 0.239981 0.197733 0.298039 0.298039 0.298039 0
0.0764767 0.235162 0.153103 0.298039 0.298039 0.298039 0
0.0766418 0.260296 0.179911 0.298039 0.298039 0.298039 0
0.0868324 0.177611 0.172285 0.909804 0.443137 0.0313726 1
0.10438 0.0216383 0.191312 0.909804 0.443137 0.0313726 1
0.0988544 0.127266 0.189426 0.909804 0.443137 0.0313726 1
0.0951623 0.24854 0.156142 0.298039 0.298039 0.298039 0
0.109296 0.206056 0.173315 0.909804 0.443137 0.0313726 1
0.102998 0.0864154 0.189681 0.909804 0.443137 0.0313726 1
0.101226 -0.00717732 0.170104 0.909804 0.443137 0.0313726 1
0.0663268 0.221683 0.160068 0.298039 0.298039 0.298039 0
0.142504 0.24446 0.159231 0.298039 0.298039 0.298039 0
0.0524537 0.21654 0.182108 0.298039 0.298039 0.298039 0
0.0465456 0.233518 0.179754 0.298039 0.298039 0.298039 0
0.0917151 0.197344 0.166478 0.909804 0.443137 0.0313726 1
0.108503 0.156988 0.174333 0.909804 0.443137 0.0313726 1
0.0974731 0.116947 0.189781 0.909804 0.443137 0.0313726 1
0.0856326 0.179425 0.17717 0.909804 0.443137 0.0313726 1
0.0932089 0.0187848 0.162342 0.909804 0.443137 0.0313726 1
0.0818177 -0.00439132 0.180434 0.909804 0.443137 0.0313726 1
0.101076 0.213277 0.189571 0.909804 0.443137 0.0313726 1
0.106883 0.181108 0.18428 0.909804 0.443137 0.0313726 1
0.0756281 0.241099 0.153757 0.298039 0.298039 0.298039 0
0.141118 0.236978 0.197644 0.298039 0.298039 0.298039 0
0.10052 0.0602663 0.191499 0.909804 0.443137 0.0313726 1
0.0936685 0.131512 0.166008 0.909804 0.443137 0.0313726 1
0.080508 0.212756 0.16949 0.298039 0.298039 0.298039 0
0.0872139 0.146828 0.17159 0.909804 0.443137 0.0313726 1
0.0704082 0.218847 0.19301 0.298039 0.298039 0.298039 0
0.0581831 0.215198 0.17437 0.298039 0.298039 0.298039 0
0.0862946 0.182976 0.181495 0.909804 0.443137 0.0313726 1
0.0494264 0.243003 0.195656 0.298039 0.298039 0.298039 0
0.125099 0.259029 0.179592 0.298039 0.298039 0.298039 0
0.0920994 0.1691 0.167096 0.909804 0.443137 0.0313726 1
0.0951693 -0.00717732 0.162003 0.909804 0.443137 0.0313726 1
0.0949475 0.177012 0.165938 0.909804 0.443137 0.0313726 1
0.0819706 0.030965 0.17717 0.909804 0.443137 0.0313726 1
0.108836 0.204149 0.182458 0.909804 0.443137 0.0313726 1
0.0915203 0.0540578 0.190881 0.909804 0.443137 0.0313726 1
0.099926 -0.00543973 0.193017 0.909804 0.443137 0.0313726 1
0.11711 0.232801 0.153097 0.298039 0.298039 0.298039 0
0.105891 0.045707 0.189733 0.909804 0.443137 0.0313726 1
0.0760256 0.214624 0.166109 0.298039 0.298039 0.298039 0
0.0960938 0.0973814 0.190427 0.909804 0.443137 0.0313726 1
0.0975754 0.0445973 0.162408 0.909804 0.443137 0.0313726 1
0.0721816 0.252718 0.160728 0.298039 0.298039 0.298039 0
0.0878082 0.247702 0.155683 0.298039 0.298039 0.298039 0
0.0780411 0.212915 0.169124 0.298039 0.298039 0.298039 0
0.103457 -0.00717732 0.179583 0.909804 0.443137 0.0313726 1
0.108228 0.129529 0.182526 0.909804 0.443137 0.0313726 1
0.0580472 0.242918 0.157467 0.298039 0.298039 0.298039 0
0.0917151 0.220748 0.158096 0.298039 0.298039 0.298039 0
0.0895105 0.226695 0.154613 0.298039 0.298039 0.298039 0
0.101617 0.0140006 0.19255 0.909804 0.443137 0.0313726 1
0.0904324 0.254096 0.194193 0.298039 0.298039 0.298039 0
0.0947161 0.217068 0.193085 0.298039 0.298039 0.298039 0
0.0888605 0.111747 0.168146 0.909804 0.443137 0.0313726 1
0.0922461 0.259375 0.169411 0.298039 0.298039 0.298039 0
0.0873486 0.181177 0.171187 0.909804 0.443137 0.0313726 1
0.102715 0.22265 0.156759 0.298039 0.298039 0.298039 0
0.0952632 0.135553 0.189092 0.909804 0.443137 0.0313726 1
0.109674 0.201936 0.179501 0.909804 0.443137 0.0313726 1
0.0868613 0.0306462 0.166139 0.909804 0.443137 0.0313726 1
0.125536 0.224249 0.157636 0.298039 0.298039 0.298039 0
0.0862038 0.21068 0.17131 0.909804 0.443137 0.0313726 1
0.104929 0.00137394 0.163543 0.909804 0.443137 0.0313726 1
0.0956231 0.0837074 0.163922 0.909804 0.443137 0.0313726 1
0.11665 0.239522 0.153051 0.298039 0.298039 0.298039 0
0.0856829 0.116916 0.173249 0.909804 0.443137 0.0313726 1
0.0837504 0.0812944 0.175795 0.909804 0.443137 0.0313726 1
0.0901891 0.20145 0.187592 0.909804 0.443137 0.0313726 1
0.108918 0.164305 0.17717 0.909804 0.443137 0.0313726 1
0.0718146 0.218094 0.192531 0.298039 0.298039 0.298039 0
0.101004 0.190686 0.188891 0.909804 0.443137 0.0313726 1
0.102976 0.0754341 0.164678 0.909804 0.443137 0.0313726 1
0.103808 0.090298 0.189078 0.909804 0.443137 0.0313726 1
0.0465456 0.25262 0.175391 0.298039 0.298039 0.298039 0
0.0950356 0.152144 0.166012 0.909804 0.443137 0.0313726 1
0.0565534 0.235615 0.1982 0.298039 0.298039 0.298039 0
0.108328 0.076145 0.168886 0.909804 0.443137 0.0313726 1
0.106875 0.0896569 0.186803 0.909804 0.443137 0.0313726 1
0.0916756 0.258393 0.166993 0.298039 0.298039 0.298039 0
0.103859 0.0939855 0.188891 0.909804 0.443137 0.0313726 1
0.0601567 0.234141 0.198745 0.298039 0.298039 0.298039 0
0.111737 0.0568313 0.179912 0.909804 0.443137 0.0313726 1
0.0465456 0.241935 0.194887 0.298039 0.298039 0.298039 0
0.081948 0.0103537 0.173901 0.909804 0.443137 0.0313726 1
0.0947038 0.194503 0.189306 0.909804 0.443137 0.0313726 1
0.0663206 0.214861 0.169816 0.298039 0.298039 0.298039 0
0.104481 0.173105 0.168227 0.909804 0.443137 0.0313726 1
0.109803 0.074452 0.171105 0.909804 0.443137 0.0313726 1
0.0760877 0.212174 0.181553 0.298039 0.298039 0.298039 0
0.110345 0.259269 0.169146 0.298039 0.298039 0.298039 0
0.0871176 0.0734807 0.167863 0.909804 0.443137 0.0313726 1
0.129169 0.223291 0.195782 0.298039 0.298039 0.298039 0
0.143998 0.247421 0.161251 0.298039 0.298039 0.298039 0
0.110106 0.0739403 0.17177 0.909804 0.443137 0.0313726 1
0.0960918 0.00571297 0.19314 0.909804 0.443137 0.0313726 1
0.0721698 0.25495 0.163305 0.298039 0.298039 0.298039 0
0.109325 0.20275 0.181059 0.909804 0.443137 0.0313726 1
0.0829771 0.216842 0.162001 0.298039 0.298039 0.298039 0
0.0501936 0.243398 0.195663 0.298039 0.298039 0.298039 0
0.105863 0.00120397 0.164082 0.909804 0.443137 0.0313726 1
0.0829341 -0.00717732 0.176675 0.909804 0.443137 0.0313726 1
0.0975417 0.0347198 0.192673 0.909804 0.443137 0.0313726 1
0.103211 0.12427 0.166734 0.909804 0.443137 0.0313726 1
0.084876 0.0600384 0.18475 0.909804 0.443137 0.0313726 1
0.0838986 0.247234 0.155434 0.298039 0.298039 0.298039 0
0.0837654 0.0411516 0.170812 0.909804 0.443137 0.0313726 1
0.0465456 0.241244 0.182829 0.298039 0.298039 0.298039 0
0.0905177 0.250926 0.157746 0.298039 0.298039 0.298039 0
0.0851611 0.0270581 0.186937 0.909804 0.443137 0.0313726 1
0.103613 0.124729 0.166982 0.909804 0.443137 0.0313726 1
0.144458 0.250486 0.19077 0.298039 0.298039 0.298039 0
0.0917162 0.175059 0.167179 0.909804 0.443137 0.0313726 1
0.0936274 0.260689 0.176318 0.411765 0.403922 0.392157 0
0.110506 0.0924086 0.17925 0.909804 0.443137 0.0313726 1
0.089608 0.12174 0.186933 0.909804 0.443137 0.0313726 1
0.145394 0.255372 0.180277 0.298039 0.298039 0.298039 0
0.0872999 0.156111 0.183153 0.909804 0.443137 0.0313726 1
0.0858339 0.144219 0.175208 0.909804 0.443137 0.0313726 1
0.0465456 0.251336 0.173656 0.298039 0.298039 0.298039 0
0.108937 0.185023 0.174917 0.909804 0.443137 0.0313726 1
0.107466 0.00515221 0.165294 0.909804 0.443137 0.0313726 1
0.0913091 0.225121 0.199477 0.298039 0.298039 0.298039 0
0.0506679 0.236075 0.197177 0.298039 0.298039 0.298039 0
0.0600007 0.235615 0.155993 0.298039 0.298039 0.298039 0
0.111343 0.0397981 0.183133 0.909804 0.443137 0.0313726 1
0.108198 0.150422 0.173248 0.909804 0.443137 0.0313726 1
0.0897617 0.100264 0.166868 0.909804 0.443137 0.0313726 1
0.0910872 -0.00717732 0.167603 0.909804 0.443137 0.0313726 1
0.099888 0.0609869 0.191601 0.909804 0.443137 0.0313726 1
0.0465456 0.221503 0.187861 0.298039 0.298039 0.298039 0
0.108455 0.0382933 0.187733 0.909804 0.443137 0.0313726 1
0.0569457 0.230761 0.157231 0.298039 0.298039 0.298039 0
0.0718519 0.220944 0.159418 0.298039 0.298039 0.298039 0
0.108289 0.136351 0.17287 0.909804 0.443137 0.0313726 1
0.0861081 0.0930149 0.184487 0.909804 0.443137 0.0313726 1
0.0867479 0.232861 0.152964 0.298039 0.298039 0.298039 0
0.0760877 0.258653 0.168548 0.298039 0.298039 0.298039 0
0.0479887 0.217798 0.171245 0.298039 0.298039 0.298039 0
0.0727733 0.212633 0.174152 0.298039 0.298039 0.298039 0
0.0621739 0.221941 0.160808 0.298039 0.298039 0.298039 0
0.108875 0.150678 0.178839 0.909804 0.443137 0.0313726 1
0.109905 -0.00322472 0.187064 0.909804 0.443137 0.0313726 1
0.093074 0.142237 0.188376 0.909804 0.443137 0.0313726 1
0.0922193 -0.000758589 0.192365 0.909804 0.443137 0.0313726 1
0.0999708 0.0303176 0.162225 0.909804 0.443137 0.0313726 1
0.10687 0.112902 0.185513 0.909804 0.443137 0.0313726 1
0.0893202 0.0182792 0.190844 0.909804 0.443137 0.0313726 1
0.123897 0.245842 0.198536 0.298039 0.298039 0.298039 0
0.09724 0.0779534 0.191215 0.909804 0.443137 0.0313726 1
0.0465456 0.222942 0.182516 0.298039 0.298039 0.298039 0
0.0852819 0.191892 0.178489 0.909804 0.443137 0.0313726 1
0.0836603 0.0795026 0.178862 0.909804 0.443137 0.0313726 1
0.0975157 0.107721 0.190104 0.909804 0.443137 0.0313726 1
0.0929901 0.207023 0.165527 0.909804 0.443137 0.0313726 1
0.111055 0.017291 0.169816 0.909804 0.443137 0.0313726 1
0.148146 0.231708 0.17131 0.298039 0.298039 0.298039 0
0.0546 0.237241 0.156969 0.298039 0.298039 0.298039 0
0.130445 0.215906 0.186592 0.298039 0.298039 0.298039 0
0.109947 0.206244 0.176916 0.909804 0.443137 0.0313726 1
0.10572 0.215029 0.190231 0.298039 0.298039 0.298039 0
0.0889307 0.178003 0.169271 0.909804 0.443137 0.0313726 1
0.126984 0.224549 0.196994 0.298039 0.298039 0.298039 0
0.0924487 0.146603 0.187999 0.909804 0.443137 0.0313726 1
0.0465456 0.245926 0.175159 0.298039 0.298039 0.298039 0
0.0931162 0.191024 0.166077 0.909804 0.443137 0.0313726 1
0.0988769 0.134776 0.189205 0.909804 0.443137 0.0313726 1
0.0897416 0.100829 0.166907 0.909804 0.443137 0.0313726 1
0.0465456 0.236075 0.195774 0.298039 0.298039 0.298039 0
0.0971481 0.0233446 0.161845 0.909804 0.443137 0.0313726 1
0.0839014 0.211469 0.178728 0.298039 0.298039 0.298039 0
0.0988544 0.0969497 0.190448 0.909804 0.443137 0.0313726 1
0.107471 0.066818 0.187397 0.909804 0.443137 0.0313726 1
0.0827602 0.218704 0.159926 0.298039 0.298039 0.298039 0
0.132277 0.231163 0.198658 0.298039 0.298039 0.298039 0
0.100837 0.196063 0.165646 0.909804 0.443137 0.0313726 1
0.107537 0.0137455 0.16545 0.909804 0.443137 0.0313726 1
0.0491283 0.238992 0.196671 0.298039 0.298039 0.298039 0
0.0857989 0.167798 0.177336 0.909804 0.443137 0.0313726 1
0.0878082 0.0930149 0.186603 0.909804 0.443137 0.0313726 1
0.11711 0.235615 0.201868 0.298039 0.298039 0.298039 0
0.0949047 0.182037 0.165872 0.909804 0.443137 0.0313726 1
0.0760877 0.259385 0.170738 0.298039 0.298039 0.298039 0
0.0858548 0.161844 0.176054 0.909804 0.443137 0.0313726 1
0.101023 0.180919 0.166244 0.909804 0.443137 0.0313726 1
0.107774 0.112355 0.184351 0.909804 0.443137 0.0313726 1
0.129284 0.250809 0.160627 0.298039 0.298039 0.298039 0
0.0917151 -0.00419668 0.162569 0.909804 0.443137 0.0313726 1
0.107342 0.252082 0.158703 0.298039 0.298039 0.298039 0
0.101998 0.227801 0.200614 0.298039 0.298039 0.298039 0
0.110438 -0.000861235 0.168541 0.909804 0.443137 0.0313726 1
0.0465456 0.22495 0.177548 0.298039 0.298039 0.298039 0
0.105761 0.117464 0.186488 0.909804 0.443137 0.0313726 1
0.0875041 0.243661 0.153962 0.298039 0.298039 0.298039 0
0.0639084 0.251462 0.193259 0.298039 0.298039 0.298039 0
0.0865208 0.00315739 0.165909 0.909804 0.443137 0.0313726 1
0.084384 0.0832478 0.181537 0.909804 0.443137 0.0313726 1
0.10216 0.219988 0.196061 0.298039 0.298039 0.298039 0
0.111469 0.224503 0.155683 0.298039 0.298039 0.298039 0
0.0940918 0.016682 0.162048 0.909804 0.443137 0.0313726 1
0.0932089 0.0833553 0.164439 0.909804 0.443137 0.0313726 1
0.0639075 0.237568 0.15534 0.298039 0.298039 0.298039 0
0.0873486 0.185286 0.183835 0.909804 0.443137 0.0313726 1
0.089302 0.176181 0.168952 0.909804 0.443137 0.0313726 1
0.0524449 0.253655 0.187112 0.298039 0.298039 0.298039 0
0.0863287 0.259151 0.186022 0.298039 0.298039 0.298039 0
0.138587 0.217313 0.168672 0.298039 0.298039 0.298039 0
0.111909 -0.00717732 0.172499 0.909804 0.443137 0.0313726 1
0.096245 0.217354 0.193431 0.298039 0.298039 0.298039 0
0.0934599 0.237568 0.201998 0.298039 0.298039 0.298039 0
0.0490718 0.248786 0.162649 0.298039 0.298039 0.298039 0
0.091948 0.260317 0.173066 0.298039 0.298039 0.298039 0
0.107336 0.171378 0.183292 0.909804 0.443137 0.0313726 1
0.107368 0.150124 0.171515 0.909804 0.443137 0.0313726 1
0.106629 0.226227 0.15481 0.298039 0.298039 0.298039 0
0.0915345 0.22123 0.197063 0.298039 0.298039 0.298039 0
0.0881023 0.260405 0.173555 0.298039 0.298039 0.298039 0
0.138138 0.253196 0.165629 0.298039 0.298039 0.298039 0
0.143354 0.216231 0.176755 0.298039 0.298039 0.298039 0
0.107424 0.0986625 0.169119 0.909804 0.443137 0.0313726 1
0.0956855 0.0717338 0.191329 0.909804 0.443137 0.0313726 1
0.0649662 0.216 0.167707 0.298039 0.298039 0.298039 0
0.146411 0.251242 0.189367 0.298039 0.298039 0.298039 0
0.0950356 0.0233446 0.162032 0.909804 0.443137 0.0313726 1
0.108848 0.03992 0.167581 0.909804 0.443137 0.0313726 1
0.103436 0.023912 0.163106 0.909804 0.443137 0.0313726 1
0.0913403 0.0513024 0.190908 0.909804 0.443137 0.0313726 1
0.0635642 0.230564 0.198743 0.298039 0.298039 0.298039 0
0.12883 0.255609 0.166366 0.298039 0.298039 0.298039 0
0.0862348 0.202407 0.171688 0.909804 0.443137 0.0313726 1
0.11543 0.260611 0.175314 0.341176 0.337255 0.333333 0
0.0847166 0.00815052 0.16796 0.909804 0.443137 0.0313726 1
0.0884273 0.228705 0.153892 0.298039 0.298039 0.298039 0
0.148146 0.219576 0.185683 0.298039 0.298039 0.298039 0
0.13469 0.257379 0.175217 0.298039 0.298039 0.298039 0
0.10443 0.0754341 0.16545 0.909804 0.443137 0.0313726 1
0.100859 0.128883 0.165857 0.909804 0.443137 0.0313726 1
0.0916314 0.0913461 0.165384 0.909804 0.443137 0.0313726 1
0.0936543 0.0698341 0.163792 0.909804 0.443137 0.0313726 1
0.068274 0.233662 0.200142 0.298039 0.298039 0.298039 0
0.0626349 0.21421 0.17792 0.298039 0.298039 0.298039 0
0.103436 0.165854 0.167579 0.909804 0.443137 0.0313726 1
0.107771 0.0256797 0.165909 0.909804 0.443137 0.0313726 1
0.0717212 0.21482 0.167403 0.298039 0.298039 0.298039 0
0.143596 0.238602 0.197046 0.298039 0.298039 0.298039 0
0.106532 0.191146 0.169588 0.909804 0.443137 0.0313726 1
0.1052 0.255609 0.192371 0.298039 0.298039 0.298039 0
0.118895 0.212722 0.183615 0.298039 0.298039 0.298039 0
0.0593429 0.216238 0.169684 0.298039 0.298039 0.298039 0
0.123717 0.258464 0.183968 0.298039 0.298039 0.298039 0
0.11023 0.21163 0.180569 0.298039 0.298039 0.298039 0
0.0836842 0.0817072 0.17717 0.909804 0.443137 0.0313726 1
0.089302 -0.00717732 0.183031 0.909804 0.443137 0.0313726 1
0.0951623 0.221423 0.174869 0.909804 0.443137 0.0313726 1
0.113203 0.212633 0.169947 0.298039 0.298039 0.298039 0
0.0858803 0.0800335 0.184986 0.909804 0.443137 0.0313726 1
0.0832555 0.0700335 0.17717 0.909804 0.443137 0.0313726 1
0.0798078 0.22661 0.154646 0.298039 0.298039 0.298039 0
0.068274 0.243888 0.155905 0.298039 0.298039 0.298039 0
0.124923 0.256107 0.188891 0.298039 0.298039 0.298039 0
0.104929 0.212174 0.167186 0.909804 0.443137 0.0313726 1
0.0863547 0.189192 0.17254 0.909804 0.443137 0.0313726 1
0.0644742 0.214825 0.183814 0.298039 0.298039 0.298039 0
0.089302 0.159431 0.169094 0.909804 0.443137 0.0313726 1
0.108621 0.111061 0.183024 0.909804 0.443137 0.0313726 1
0.0863171 0.0510685 0.167491 0.909804 0.443137 0.0313726 1
0.127957 0.215913 0.167247 0.298039 0.298039 0.298039 0
0.0972855 0.217236 0.161543 0.298039 0.298039 0.298039 0
0.136644 0.257137 0.178082 0.298039 0.298039 0.298039 0
0.0673588 0.220382 0.193816 0.298039 0.298039 0.298039 0
0.105761 0.15242 0.185363 0.909804 0.443137 0.0313726 1
0.111427 0.0677293 0.175676 0.909804 0.443137 0.0313726 1
0.148146 0.249485 0.189346 0.298039 0.298039 0.298039 0
0.142171 0.246625 0.160315 0.298039 0.298039 0.298039 0
0.108836 0.182253 0.179901 0.909804 0.443137 0.0313726 1
0.0931341 0.0284393 0.192261 0.909804 0.443137 0.0313726 1
0.11079 0.21542 0.190844 0.298039 0.298039 0.298039 0
0.0999167 0.0969218 0.190245 0.909804 0.443137 0.0313726 1
0.0921393 -0.00717732 0.169816 0.909804 0.443137 0.0313726 1
0.110446 0.0933874 0.179532 0.909804 0.443137 0.0313726 1
0.0818546 0.00166359 0.174278 0.909804 0.443137 0.0313726 1
0.102976 0.24854 0.156142 0.298039 0.298039 0.298039 0
0.10144 0.0951712 0.164874 0.909804 0.443137 0.0313726 1
0.0897781 -0.00224325 0.163496 0.909804 0.443137 0.0313726 1
0.111286 0.039595 0.183282 0.909804 0.443137 0.0313726 1
0.113203 0.249749 0.156953 0.298039 0.298039 0.298039 0
0.0826959 0.054789 0.178218 0.909804 0.443137 0.0313726 1
0.0839229 0.0326886 0.184804 0.909804 0.443137 0.0313726 1
0.0820485 -0.0061501 0.173263 0.909804 0.443137 0.0313726 1
0.092579 0.145743 0.188077 0.909804 0.443137 0.0313726 1
0.0560938 0.240475 0.157147 0.298039 0.298039 0.298039 0
0.0942774 0.248906 0.198418 0.298039 0.298039 0.298039 0
0.0529472 0.230203 0.158121 0.298039 0.298039 0.298039 0
0.110528 0.0759451 0.172946 0.909804 0.443137 0.0313726 1
0.0878042 0.183697 0.184351 0.909804 0.443137 0.0313726 1
0.0910304 0.175518 0.187202 0.909804 0.443137 0.0313726 1
0.0971157 0.0999759 0.164394 0.909804 0.443137 0.0313726 1
0.0905667 0.0839922 0.189211 0.909804 0.443137 0.0313726 1
0.136149 0.245459 0.196358 0.298039 0.298039 0.298039 0
0.0623229 0.214381 0.179828 0.298039 0.298039 0.298039 0
0.107232 -0.00717732 0.18716 0.909804 0.443137 0.0313726 1
0.105025 0.137406 0.168402 0.909804 0.443137 0.0313726 1
0.0585069 0.237882 0.156328 0.298039 0.298039 0.298039 0
0.100047 0.165292 0.166162 0.909804 0.443137 0.0313726 1
0.108271 0.0918313 0.184984 0.909804 0.443137 0.0313726 1
0.144065 0.228839 0.195759 0.298039 0.298039 0.298039 0
0.0767796 0.232168 0.201453 0.298039 0.298039 0.298039 0
0.110342 0.055114 0.170565 0.909804 0.443137 0.0313726 1
0.0643671 0.230214 0.156014 0.298039 0.298039 0.298039 0
0.0823777 0.0265985 0.173356 0.909804 0.443137 0.0313726 1
0.0465456 0.251242 0.166036 0.298039 0.298039 0.298039 0
0.0629746 0.251702 0.192798 0.298039 0.298039 0.298039 0
0.0565534 0.220847 0.163243 0.298039 0.298039 0.298039 0
0.0980354 0.238517 0.152889 0.298039 0.298039 0.298039 0
0.102673 0.191732 0.166531 0.909804 0.443137 0.0313726 1
0.0871177 0.148403 0.182971 0.909804 0.443137 0.0313726 1
0.0834418 0.0411053 0.171425 0.909804 0.443137 0.0313726 1
0.108571 0.106594 0.18349 0.909804 0.443137 0.0313726 1
0.120557 0.214798 0.188232 0.298039 0.298039 0.298039 0
0.0751989 0.212068 0.175309 0.298039 0.298039 0.298039 0
0.106086 0.0216806 0.164475 0.909804 0.443137 0.0313726 1
0.104564 0.0945698 0.166341 0.909804 0.443137 0.0313726 1
0.0858486 0.0832478 0.184747 0.909804 0.443137 0.0313726 1
0.101349 0.0598067 0.191347 0.909804 0.443137 0.0313726 1
0.148146 0.225582 0.179678 0.298039 0.298039 0.298039 0
0.103377 0.0910834 0.165507 0.909804 0.443137 0.0313726 1
0.0857753 0.141132 0.175251 0.909804 0.443137 0.0313726 1
0.112606 -0.00263598 0.181537 0.909804 0.443137 0.0313726 1
0.0943856 0.175694 0.166121 0.909804 0.443137 0.0313726 1
0.124615 0.21737 0.163677 0.298039 0.298039 0.298039 0
0.0901751 0.00315739 0.19147 0.909804 0.443137 0.0313726 1
0.0983239 0.0837074 0.190959 0.909804 0.443137 0.0313726 1
0.101023 0.249289 0.156616 0.298039 0.298039 0.298039 0
0.069373 0.213372 0.181488 0.298039 0.298039 0.298039 0
0.124923 0.25101 0.159775 0.298039 0.298039 0.298039 0
0.0919386 0.0856239 0.189796 0.909804 0.443137 0.0313726 1
0.0857795 0.15747 0.176614 0.909804 0.443137 0.0313726 1
0.108338 0.163725 0.181077 0.909804 0.443137 0.0313726 1
0.0465456 0.251702 0.168149 0.298039 0.298039 0.298039 0
0.0742895 0.254799 0.162505 0.298039 0.298039 0.298039 0
0.105389 0.149664 0.18584 0.909804 0.443137 0.0313726 1
0.107342 0.147711 0.183401 0.909804 0.443137 0.0313726 1
0.0936871 0.184517 0.166142 0.909804 0.443137 0.0313726 1
0.0556664 0.241228 0.157425 0.298039 0.298039 0.298039 0
0.140551 0.216945 0.170392 0.298039 0.298039 0.298039 0
0.140789 0.22156 0.163151 0.298039 0.298039 0.298039 0
0.094038 0.0296985 0.192486 0.909804 0.443137 0.0313726 1
0.0465456 0.220382 0.168953 0.298039 0.298039 0.298039 0
0.117867 0.211744 0.176776 0.298039 0.298039 0.298039 0
0.104463 0.0324588 0.190996 0.909804 0.443137 0.0313726 1
0.106494 0.123854 0.185444 0.909804 0.443137 0.0313726 1
0.0856615 0.0409762 0.186973 0.909804 0.443137 0.0313726 1
0.100839 0.0822667 0.164191 0.909804 0.443137 0.0313726 1
0.0816056 -0.00419668 0.179124 0.909804 0.443137 0.0313726 1
0.108083 0.191976 0.17177 0.909804 0.443137 0.0313726 1
0.103189 -0.00717732 0.173723 0.909804 0.443137 0.0313726 1
0.105623 0.00419432 0.163956 0.909804 0.443137 0.0313726 1
0.115755 0.211489 0.176521 0.298039 0.298039 0.298039 0
0.0465456 0.217833 0.179811 0.298039 0.298039 0.298039 0
0.136884 0.225466 0.159243 0.298039 0.298039 0.298039 0
0.098176 0.173105 0.188995 0.909804 0.443137 0.0313726 1
0.107935 0.168949 0.172772 0.909804 0.443137 0.0313726 1
0.0995683 0.0706505 0.163496 0.909804 0.443137 0.0313726 1
0.0900661 0.081771 0.188972 0.909804 0.443137 0.0313726 1
0.108812 0.143804 0.174946 0.909804 0.443137 0.0313726 1
0.0864229 -0.00184344 0.188822 0.909804 0.443137 0.0313726 1
0.0657037 0.257689 0.171472 0.298039 0.298039 0.298039 0
0.104929 0.017291 0.191082 0.909804 0.443137 0.0313726 1
0.102976 0.130711 0.166809 0.909804 0.443137 0.0313726 1
0.109296 -0.00717732 0.185444 0.909804 0.443137 0.0313726 1
0.100881 0.0603745 0.191421 0.909804 0.443137 0.0313726 1
0.0990692 0.259494 0.169816 0.298039 0.298039 0.298039 0
0.148146 0.237568 0.175217 0.298039 0.298039 0.298039 0
0.0874587 0.0761582 0.187129 0.909804 0.443137 0.0313726 1
0.148146 0.232488 0.164484 0.298039 0.298039 0.298039 0
0.0708428 0.244196 0.155538 0.298039 0.298039 0.298039 0
0.100493 0.144506 0.188709 0.909804 0.443137 0.0313726 1
0.0465456 0.249708 0.189992 0.298039 0.298039 0.298039 0
0.112078 0.00999909 0.183031 0.909804 0.443137 0.0313726 1
0.0656147 0.226803 0.157007 0.298039 0.298039 0.298039 0
0.121229 0.214352 0.167798 0.298039 0.298039 0.298039 0
0.0527186 0.239489 0.197221 0.298039 0.298039 0.298039 0
0.1035 0.142962 0.187397 0.909804 0.443137 0.0313726 1
0.0852707 0.0327819 0.167961 0.909804 0.443137 0.0313726 1
0.0888817 0.124754 0.168675 0.909804 0.443137 0.0313726 1
0.0975036 0.153185 0.165823 0.909804 0.443137 0.0313726 1
0.0948739 0.140954 0.165864 0.909804 0.443137 0.0313726 1
0.0856912 0.186847 0.174862 0.909804 0.443137 0.0313726 1
0.130324 0.222314 0.194751 0.298039 0.298039 0.298039 0
0.0825623 -0.00224325 0.183031 0.909804 0.443137 0.0313726 1
0.0465456 0.234328 0.168819 0.298039 0.298039 0.298039 0
0.144458 0.221941 0.191064 0.298039 0.298039 0.298039 0
0.101304 0.111055 0.18935 0.909804 0.443137 0.0313726 1
0.148146 0.238054 0.177692 0.298039 0.298039 0.298039 0
0.108816 0.119092 0.172903 0.909804 0.443137 0.0313726 1
0.0687522 0.216118 0.166048 0.298039 0.298039 0.298039 0
0.103436 0.206773 0.166354 0.909804 0.443137 0.0313726 1
0.10758 0.031014 0.165909 0.909804 0.443137 0.0313726 1
0.094944 0.146217 0.165934 0.909804 0.443137 0.0313726 1
0.0756281 0.249289 0.157169 0.298039 0.298039 0.298039 0
0.108897 0.152077 0.178273 0.909804 0.443137 0.0313726 1
0.14692 0.232657 0.158478 0.298039 0.298039 0.298039 0
0.08356 0.0429072 0.17131 0.909804 0.443137 0.0313726 1
0.0893893 0.153152 0.185806 0.909804 0.443137 0.0313726 1
0.0858548 0.03095 0.167118 0.909804 0.443137 0.0313726 1
0.0815209 0.215271 0.164211 0.298039 0.298039 0.298039 0
0.110275 0.0802101 0.182047 0.909804 0.443137 0.0313726 1
0.0465456 0.232879 0.162112 0.298039 0.298039 0.298039 0
0.059914 0.249749 0.160955 0.298039 0.298039 0.298039 0
0.0900634 0.0492639 0.190384 0.909804 0.443137 0.0313726 1
0.0638892 0.252392 0.162505 0.298039 0.298039 0.298039 0
0.0469186 0.245245 0.160665 0.298039 0.298039 0.298039 0
0.108848 0.144897 0.175167 0.909804 0.443137 0.0313726 1
0.0741343 0.241475 0.200683 0.298039 0.298039 0.298039 0
0.10988 0.112828 0.17717 0.909804 0.443137 0.0313726 1
0.106796 0.0785958 0.167332 0.909804 0.443137 0.0313726 1
0.111611 0.0150569 0.17088 0.909804 0.443137 0.0313726 1
0.0853732 0.126947 0.175676 0.909804 0.443137 0.0313726 1
0.11062 0.0892902 0.179266 0.909804 0.443137 0.0313726 1
0.0994406 0.112133 0.189769 0.909804 0.443137 0.0313726 1
0.0853951 0.223602 0.156142 0.298039 0.298039 0.298039 0
0.0690893 0.22171 0.159418 0.298039 0.298039 0.298039 0
0.127752 0.236303 0.199995 0.298039 0.298039 0.298039 0
0.0858901 0.185978 0.180606 0.909804 0.443137 0.0313726 1
0.104331 0.250926 0.157746 0.298039 0.298039 0.298039 0
0.122336 0.241591 0.200304 0.298039 0.298039 0.298039 0
0.0465456 0.240453 0.164923 0.298039 0.298039 0.298039 0
0.102976 -0.00717732 0.173263 0.909804 0.443137 0.0313726 1
0.0999107 0.128322 0.16562 0.909804 0.443137 0.0313726 1
0.0721808 0.253196 0.193585 0.298039 0.298039 0.298039 0
0.108836 -0.00717732 0.186937 0.909804 0.443137 0.0313726 1
0.0969469 0.109964 0.190044 0.909804 0.443137 0.0313726 1
0.0744568 0.259056 0.170625 0.298039 0.298039 0.298039 0
0.114697 0.223894 0.155996 0.298039 0.298039 0.298039 0
0.0926585 0.0271274 0.162653 0.909804 0.443137 0.0313726 1
0.0867479 0.0564953 0.167353 0.909804 0.443137 0.0313726 1
0.0663206 0.247691 0.196705 0.298039 0.298039 0.298039 0
0.0814047 0.260639 0.175659 0.341176 0.337255 0.333333 0
0.110826 0.0558999 0.183031 0.909804 0.443137 0.0313726 1
0.0911898 0.152552 0.167582 0.909804 0.443137 0.0313726 1
0.0898085 0.156475 0.1686 0.909804 0.443137 0.0313726 1
0.0975754 0.0203334 0.161809 0.909804 0.443137 0.0313726 1
0.0583432 0.240804 0.156818 0.298039 0.298039 0.298039 0
0.133386 0.230953 0.198398 0.298039 0.298039 0.298039 0
0.106037 0.215679 0.163601 0.298039 0.298039 0.298039 0
0.0482801 0.234424 0.158132 0.298039 0.298039 0.298039 0
0.0898067 0.0754341 0.189076 0.909804 0.443137 0.0313726 1
0.107465 0.00511082 0.165293 0.909804 0.443137 0.0313726 1
0.0988544 0.073456 0.191315 0.909804 0.443137 0.0313726 1
0.0814564 0.221365 0.197164 0.298039 0.298039 0.298039 0
0.140091 0.22216 0.162443 0.298039 0.298039 0.298039 0
0.09935 0.24929 0.156614 0.298039 0.298039 0.298039 0
0.100236 0.089971 0.190442 0.909804 0.443137 0.0313726 1
0.130292 0.213968 0.175676 0.298039 0.298039 0.298039 0
0.0991201 0.0652535 0.163203 0.909804 0.443137 0.0313726 1
0.108923 0.184826 0.179913 0.909804 0.443137 0.0313726 1
0.145818 0.249448 0.191499 0.298039 0.298039 0.298039 0
0.0918853 0.0270581 0.162876 0.909804 0.443137 0.0313726 1
0.148146 0.219988 0.186937 0.298039 0.298039 0.298039 0
